# .PCD v0.7 - Point Cloud Data file format
VERSION 0.7
FIELDS x y z rgb
SIZE 4 4 4 4
TYPE F F F U
COUNT 1 1 1 1
WIDTH 1016
HEIGHT 1
VIEWPOINT 0 0 0 1 0 0 0
POINTS 1016
DATA ascii
0.020350525 0.016202081 0.061869398 4288517523
0.02196293 0.018147402 0.061499536 4288517523
0.02371327 0.016104225 0.061479472 4288451730
0.025394645 0.016055297 0.061284509 4288385937
0.027076017 0.016006369 0.061089542 4288385937
0.02875739 0.015957441 0.060894579 4288123535
0.030438762 0.015908513 0.060699616 4288649108
0.032120131 0.015859585 0.060504653 4288714127
0.033801507 0.015810657 0.060309689 4289042318
0.035482872 0.015761729 0.060114726 4288712324
0.037164252 0.015712801 0.059919763 4285554258
0.038845625 0.015663873 0.0597248 4282264356
-0.0063573667 0.014684859 0.066851705 4287728777
-0.004672138 0.014635819 0.066656291 4287991178
-0.0029869089 0.014586779 0.066460885 4288057225
-0.0013016799 0.014537739 0.066265471 4287333500
0.00038355097 0.014488699 0.066070057 4287859844
0.002068778 0.014439659 0.065874651 4287728006
0.0037239583 0.016473217 0.065487817 4287859593
0.0054053292 0.016424291 0.06529285 4287991179
0.0070867022 0.016375363 0.065097891 4288188558
0.0087680751 0.016326435 0.064902924 4288320144
0.010449448 0.016277507 0.064707957 4288385937
0.01213082 0.016228579 0.064512998 4288385937
0.013812194 0.016179651 0.064318031 4288385937
0.015493562 0.016130723 0.064123072 4288517523
0.017174935 0.016081795 0.063928105 4288517523
0.018856311 0.016032867 0.063733146 4288517523
0.020537682 0.015983939 0.063538179 4288517523
0.022219054 0.015935011 0.063343219 4288517523
0.023900427 0.015886083 0.063148253 4288451730
0.025505036 0.017832099 0.062775575 4288451730
0.027182717 0.017783279 0.06258104 4288385937
0.028860399 0.017734459 0.062386502 4288189328
0.030625919 0.015690373 0.062368397 4288780694
0.032307286 0.015641445 0.062173434 4288648334
0.033988662 0.015592516 0.061978471 4289042318
0.035670031 0.015543589 0.061783507 4289107082
0.037351411 0.015494661 0.061588544 4286014809
0.039032783 0.015445733 0.061393581 4282395942
-0.0061589917 0.011405451 0.068815276 4287531657
-0.0044845524 0.014417177 0.06832891 4287926155
-0.0027993233 0.014368137 0.068133496 4288057225
-0.0011140944 0.014319097 0.067938082 4287136121
0.00057113648 0.014270057 0.067742676 4288057223
0.0022563636 0.014221017 0.067547262 4287728006
0.0039415928 0.014171977 0.067351855 4287859593
0.0055924817 0.016206153 0.066961601 4287991179
0.0072738547 0.016157225 0.066766642 4288188558
0.0089552272 0.016108297 0.066571675 4288320144
0.0106366 0.016059369 0.066376716 4288385937
0.012317973 0.016010441 0.066181749 4288385937
0.013999346 0.015961513 0.065986782 4288385937
0.015680715 0.015912587 0.065791823 4288517523
0.017362088 0.015863659 0.065596856 4288517523
0.019043464 0.015814731 0.065401897 4288517523
0.020724833 0.015765803 0.06520693 4288517523
0.022406206 0.015716875 0.065011971 4288517523
0.02408758 0.015667947 0.064817004 4288517523
0.025691781 0.017614439 0.064440683 4288451730
0.027450325 0.015570091 0.064427078 4288385937
0.029131697 0.015521163 0.064232111 4287991949
0.03081307 0.015472235 0.064037152 4288649108
0.032494441 0.015423308 0.063842185 4288450955
0.034175817 0.01537438 0.063647225 4288976525
0.035857182 0.015325452 0.063452259 4289436047
0.037538562 0.015276524 0.063257299 4286475360
0.039219934 0.015227596 0.063062333 4282593321
-0.0059632184 0.0091606798 0.070689723 4288189589
-0.0042798794 0.011136871 0.070297427 4287794570
-0.0026117396 0.014149497 0.069806099 4287596674
-0.00092651049 0.014100457 0.069610685 4288057223
0.00075872033 0.014051417 0.069415271 4287661954
0.0024439476 0.014002377 0.069219865 4287793799
0.0041291765 0.013953337 0.069024451 4287925386
0.0057796375 0.015988013 0.068630382 4288056972
0.00746101 0.015939085 0.068435423 4288188558
0.009142383 0.015890157 0.068240456 4288320144
0.010823756 0.015841229 0.068045497 4288385937
0.012505129 0.015792301 0.06785053 4288385937
0.014186502 0.015743373 0.067655571 4288320144
0.01586787 0.015694445 0.067460604 4288385937
0.017490122 0.017640879 0.067078471 4288385937
0.019167803 0.017592059 0.066883937 4288451730
0.02084548 0.017543238 0.066689402 4288451730
0.022523161 0.017494418 0.066494867 4288451730
0.024200844 0.017445598 0.066300333 4288385937
0.025878524 0.017396778 0.066105798 4288320144
0.02763748 0.01535195 0.066095859 4288320144
0.029318854 0.015303022 0.065900892 4288320914
0.031000227 0.015254094 0.065705933 4288385936
0.032681596 0.015205166 0.065510966 4288779920
0.034362972 0.015156238 0.065316007 4288976525
0.036044337 0.015107311 0.06512104 4289238668
0.037725717 0.015058383 0.06492608 4286672739
0.039407089 0.015009455 0.064731114 4282264356
-0.0074649919 0.0069553475 0.072769426 4287861142
-0.0057745855 0.0089408169 0.072371677 4288190103
-0.0040916628 0.010917494 0.071975671 4287794316
-0.0024241556 0.013930857 0.071478695 4287268225
-0.00073892664 0.013881817 0.071283288 4287793540
0.00094630424 0.013832777 0.071087874 4287398782
0.0026315313 0.013783737 0.070892461 4287859592
0.0043167602 0.013734696 0.070697054 4287925386
0.0059667928 0.015769871 0.070299163 4288056972
0.0076481658 0.015720943 0.070104204 4288254351
0.0093295388 0.015672015 0.069909237 4288320144
0.011010911 0.015623087 0.069714278 4288385937
0.012692285 0.01557416 0.069519311 4288385937
0.014321503 0.01752086 0.069132656 4288385937
0.015999185 0.017472038 0.068938121 4288385937
0.017676866 0.017423218 0.068743579 4288385937
0.019354546 0.017374398 0.068549044 4288451730
0.021032223 0.017325578 0.06835451 4288451730
0.022709906 0.017276756 0.068159975 4288451730
0.024387587 0.017227937 0.06796544 4288385937
0.026143264 0.015182737 0.067959607 4288320144
0.027824637 0.015133809 0.06776464 4288320144
0.029506009 0.015084881 0.067569681 4288255121
0.031187382 0.015035953 0.067374714 4288320143
0.03286875 0.014987025 0.067179747 4288714127
0.034550127 0.014938097 0.066984788 4289108111
0.036231492 0.01488917 0.066789821 4289436047
0.037912872 0.014840242 0.066594861 4286935911
0.039594244 0.014791314 0.066399895 4282527528
-0.0072806026 0.0087702703 0.074250117 4287795607
-0.0055943457 0.010747324 0.073849961 4287992726
-0.0039034483 0.010698118 0.073653892 4287860111
-0.0022365716 0.013712217 0.073151298 4287465605
-0.00055134273 0.013663176 0.072955884 4288056712
0.0011338881 0.013614137 0.07276047 4287859333
0.0028191153 0.013565097 0.072565064 4287925385
0.0045043444 0.013516056 0.07236965 4287991179
0.0061539472 0.015551732 0.071967937 4288122765
0.0078353202 0.015502804 0.07177297 4288254351
0.0095166927 0.015453876 0.071578003 4288385937
0.011198065 0.015404948 0.071383044 4288385937
0.012879439 0.01535602 0.071188077 4288385937
0.014508246 0.017303199 0.070797764 4288385937
0.016185928 0.017254377 0.070603229 4288385937
0.017863609 0.017205557 0.070408694 4288385937
0.019541292 0.017156737 0.07021416 4288451730
0.021218969 0.017107917 0.070019625 4288451730
0.022896649 0.017059095 0.069825083 4288451730
0.02457433 0.017010275 0.069630548 4288385937
0.026330417 0.014964598 0.069628373 4288320144
0.02801179 0.01491567 0.069433406 4288320144
0.029693164 0.014866742 0.069238447 4288320914
0.031374536 0.014817814 0.06904348 4288254350
0.033055905 0.014768886 0.068848521 4288582541
0.034737282 0.014719958 0.068653554 4289108111
0.036418647 0.014671031 0.068458587 4289501840
0.038100027 0.014622103 0.068263628 4286935911
0.039781399 0.014573175 0.068068661 4282461735
0.041462764 0.014524247 0.067873701 4280686352
-0.0070919697 0.0085504074 0.075932071 4287664023
-0.0054061315 0.010527948 0.075528182 4287729556
-0.0037152336 0.010478743 0.075332113 4287860370
-0.0020489863 0.013493575 0.074823909 4287728523
-0.00036375722 0.013444535 0.074628502 4288253837
0.0013214736 0.013395495 0.074433088 4288188044
0.0030067007 0.013346455 0.074237674 4287991179
0.0046919296 0.013297414 0.074042268 4288056972
0.0063411025 0.015333591 0.073636718 4288188558
0.008022476 0.015284663 0.073441751 4288320144
0.0096619511 0.017231997 0.073046483 4288385937
0.011339628 0.017183177 0.072851948 4288385937
0.013066594 0.015137879 0.072856858 4288385937
0.014694991 0.017085537 0.072462872 4288385937
0.016372671 0.017036716 0.072268337 4288385937
0.018050354 0.016987896 0.072073802 4288385937
0.019728035 0.016939076 0.071879268 4288451730
0.021405712 0.016890256 0.071684733 4288451730
0.023154827 0.014844312 0.07168708 4288451730
0.024836199 0.014795384 0.071492113 4288385937
0.026517574 0.014746457 0.071297154 4288320144
0.028198946 0.014697529 0.071102187 4288320144
0.029880319 0.014648601 0.070907228 4288452500
0.031561691 0.014599673 0.070712261 4288254350
0.03324306 0.014550745 0.070517302 4288516748
0.034924436 0.014501818 0.070322335 4289042318
0.036605801 0.01445289 0.070127375 4289370254
0.038287181 0.014403962 0.069932409 4286672739
0.040081739 0.012267574 0.069938645 4282132770
0.041766971 0.012218533 0.069743231 4280423180
0.0434522 0.012169493 0.069547817 4281674278
-0.0069088144 0.010357778 0.077402472 4287926941
-0.0052179168 0.010308573 0.07720641 4287729301
-0.0035466314 0.013323975 0.076691918 4287991958
-0.0018614023 0.013274935 0.076496512 4287728525
-0.0001972311 0.015311161 0.076085351 4287924873
0.0014841417 0.015262233 0.075890385 4287859080
0.0031655128 0.015213306 0.075695425 4288056972
0.0048468872 0.015164378 0.075500458 4288122765
0.0065282583 0.01511545 0.075305499 4288254351
0.0082096308 0.015066522 0.075110532 4288385937
0.0098486943 0.017014338 0.074711591 4288451730
0.011526372 0.016965516 0.074517056 4288451730
0.013204053 0.016916696 0.074322522 4288385937
0.014881735 0.016867876 0.074127987 4288385937
0.016559416 0.016819056 0.073933452 4288385937
0.018237097 0.016770234 0.07373891 4288385937
0.019914778 0.016721414 0.073544376 4288451730
0.021592457 0.016672594 0.073349841 4288451730
0.023270138 0.016623775 0.073155306 4288451730
0.025023356 0.014577243 0.073160894 4288385937
0.026704729 0.014528316 0.072965935 4288320144
0.028386101 0.014479388 0.072770968 4288320144
0.030067474 0.014430461 0.072576009 4288452500
0.031748846 0.014381533 0.072381042 4288254350
0.033430215 0.014332605 0.072186083 4288516748
0.035111591 0.014283677 0.071991116 4289042318
0.03679296 0.014234749 0.071796156 4289238668
0.038584094 0.012097973 0.071806654 4286475360
0.040269323 0.012048934 0.071611241 4282066977
0.042127226 0.0089308321 0.071716502 4280554766
0.04381812 0.0088816276 0.071520433 4281674278
0.045509018 0.0088324221 0.071324363 4281872430
-0.0067295074 0.013203415 0.078755341 4288124835
-0.0050297002 0.010089195 0.078884646 4287795096
-0.0033590475 0.013105335 0.078364521 4288255130
-0.0016738184 0.013056295 0.078169107 4288122515
-1.0078725e-05 0.015093024 0.077754103 4287990668
0.0016712941 0.015044096 0.077559136 4288056459
0.0033526651 0.014995169 0.077364177 4288122765
0.0050340397 0.014946241 0.07716921 4288188558
0.0067154109 0.014897313 0.07697425 4288320144
0.0083967838 0.014848385 0.076779284 4288385937
0.010078156 0.014799457 0.076584324 4288451730
0.011713116 0.016747855 0.076182164 4288451730
0.013390797 0.016699035 0.07598763 4288451730
0.015068479 0.016650215 0.075793095 4288385937
0.01674616 0.016601395 0.07559856 4288385937
0.01842384 0.016552573 0.075404026 4288385937
0.020101523 0.016503753 0.075209491 4288451730
0.0217792 0.016454933 0.075014956 4288451730
0.023456881 0.016406113 0.074820414 4288451730
0.025134563 0.016357291 0.07462588 4288385937
0.026891882 0.014310178 0.074634686 4288320144
0.028573254 0.014261251 0.074439719 4288320144
0.030254627 0.014212323 0.07424476 4288320914
0.031936001 0.014163395 0.074049793 4288188557
0.03361737 0.014114467 0.073854834 4288582541
0.035298746 0.014065539 0.073659867 4289108111
0.036980111 0.014016612 0.073464908 4289238668
0.038771678 0.011879333 0.07347925 4286409567
0.04062454 0.00876066 0.073590808 4282264356
0.042430084 0.0066805733 0.073597379 4281212696
0.044124737 0.0066312589 0.073400877 4281740071
0.045697235 0.0086130453 0.073002607 4281872430
-0.0082297856 0.015119522 0.080397703 4287796385
-0.0065484126 0.015070595 0.080202736 4288190628
-0.0048566926 0.012935734 0.080232531 4287597719
-0.0031714635 0.012886695 0.080037117 4288320924
-0.0015042959 0.014923811 0.07961785 4288319640
0.00017707694 0.014874883 0.079422884 4288253586
0.0018584498 0.014825955 0.079227924 4288517012
0.0035398207 0.014777027 0.079032958 4288188558
0.0052211955 0.0147281 0.078837991 4288254351
0.0069025666 0.014679172 0.078643031 4288385937
0.0085839396 0.014630244 0.078448065 4288451730
0.010265312 0.014581316 0.078253105 4288517523
0.011946685 0.014532388 0.078058138 4288451730
0.013577541 0.016481373 0.077652737 4288451730
0.015255223 0.016432554 0.077458203 4288385937
0.016932905 0.016383734 0.077263668 4288385937
0.018610585 0.016334912 0.077069134 4288385937
0.020288266 0.016286092 0.076874599 4288451730
0.022034919 0.014238821 0.07688836 4288451730
0.023716291 0.014189893 0.076693393 4288451730
0.025397664 0.014140965 0.076498434 4288385937
0.027079036 0.014092037 0.076303467 4288320144
0.028760409 0.01404311 0.076108508 4288320144
0.030441782 0.013994182 0.075913541 4288320914
0.032123156 0.013945254 0.075718574 4288254350
0.033804525 0.013896327 0.075523615 4288714127
0.035485901 0.013847399 0.075328648 4289108111
0.037167266 0.013798471 0.075133689 4288975496
0.038959265 0.011660693 0.075151853 4286080602
0.040644489 0.011611653 0.074956439 4282264356
0.042329725 0.011562613 0.074761026 4281475868
0.044194549 0.008442875 0.074876897 4281740071
-0.0080455625 0.016898379 0.081846811 4288388007
-0.0063612587 0.014852456 0.081871502 4288387492
-0.0046798857 0.014803528 0.081676543 4287531154
-0.0029985129 0.0147546 0.081481576 4288188825
-0.0013171418 0.014705672 0.081286617 4288122261
0.00036423097 0.014656744 0.08109165 4288121743
0.0020456037 0.014607816 0.08089669 4288450706
0.0037269748 0.014558888 0.080701724 4288253840
0.0054083494 0.01450996 0.080506757 4288254351
0.0070897206 0.014461033 0.080311798 4288385937
0.0087710936 0.014412105 0.080116831 4288451730
0.010452466 0.014363177 0.079921871 4288517523
0.012133839 0.014314249 0.079726905 4288517523
0.013764285 0.016263712 0.079317853 4288451730
0.015441966 0.016214892 0.079123318 4288385937
0.017119648 0.016166072 0.078928776 4288385937
0.018797329 0.016117252 0.078734241 4288385937
0.020540703 0.01406961 0.078752086 4288451730
0.022222072 0.014020682 0.078557126 4288451730
0.023903444 0.013971754 0.078362159 4288451730
0.025584819 0.013922826 0.0781672 4288385937
0.027266191 0.013873898 0.077972233 4288320144
0.028947564 0.01382497 0.077777274 4288320144
0.030628936 0.013776043 0.077582307 4288517269
0.032310311 0.013727115 0.07738734 4288385424
0.03399168 0.013678188 0.077192381 4288779922
0.035673056 0.01362926 0.076997414 4289042063
0.03746162 0.011491093 0.077019863 4288712070
0.039146848 0.011442053 0.076824449 4285685846
0.040832072 0.011393013 0.076629043 4281935391
0.042691872 0.0082727047 0.076751187 4281475354
0.044382762 0.0082235001 0.076555118 4281936934
-0.0078554759 0.014683242 0.08373525 4287795094
-0.0061741029 0.014634314 0.083540283 4288452510
-0.0044927299 0.014585387 0.083345324 4288319640
-0.0028113571 0.014536459 0.083150357 4288187795
-0.0011299861 0.014487531 0.082955398 4288187536
0.00055138662 0.014438603 0.082760431 4288713880
0.0022327595 0.014389675 0.082565472 4288516499
0.0039141304 0.014340747 0.082370505 4288319633
0.0055955052 0.014291819 0.082175545 4288319890
0.0072768764 0.014242892 0.081980579 4288385683
0.0089582494 0.014193964 0.081785612 4288385683
0.010639622 0.014145036 0.081590652 4288451476
0.012320994 0.014096108 0.081395686 4288385683
0.01395103 0.016046051 0.080982961 4288385683
0.01562871 0.015997231 0.080788426 4288385683
0.017306391 0.015948411 0.080593891 4288385683
0.018984074 0.015899591 0.080399357 4288385683
0.020727858 0.013851469 0.080420867 4288385683
0.022409229 0.013802541 0.080225907 4288385683
0.024090601 0.013753613 0.08003094 4288385683
0.025771974 0.013704685 0.079835981 4288385683
0.027453346 0.013655758 0.079641014 4288385683
0.029134719 0.01360683 0.079446055 4288451476
0.030816091 0.013557903 0.079251088 4288450965
0.032497466 0.013508975 0.079056129 4288450708
0.034178834 0.013460047 0.078861162 4289108120
0.035860211 0.013411119 0.078666195 4289107606
0.037649207 0.011272451 0.078692473 4288777612
0.039334431 0.011223411 0.078497067 4285422421
0.041019659 0.011174371 0.078301653 4281145875
0.042704895 0.011125331 0.078106239 4281474840
0.044570979 0.0080041224 0.078233361 4282001697
-0.0076643992 0.012377893 0.085641168 4288518302
-0.0059869471 0.014416173 0.085209072 4288649629
-0.0043055741 0.014367245 0.085014105 4288385687
-0.0026242016 0.014318318 0.084819138 4288319379
-0.00094283052 0.01426939 0.084624179 4288384913
0.00073854229 0.014220462 0.084429212 4288844694
0.0024199151 0.014171534 0.084234253 4288319120
0.0041012862 0.014122606 0.084039286 4288385426
0.005782661 0.014073678 0.083844326 4288319890
0.0074640317 0.01402475 0.08364936 4288385683
0.0091454042 0.013975823 0.0834544 4288451476
0.010782414 0.015926031 0.083037145 4288451476
0.01250815 0.013877967 0.083064467 4288451476
0.014137773 0.015828392 0.082648069 4288451476
0.015815454 0.01577957 0.082453534 4288385683
0.017552266 0.013731183 0.082479581 4288385683
0.019233638 0.013682256 0.082284614 4288385683
0.020915015 0.013633328 0.082089655 4288385683
0.022596383 0.013584401 0.081894688 4288385683
0.024277756 0.013535473 0.081699722 4288385683
0.025959129 0.013486545 0.081504762 4288385683
0.027640503 0.013437617 0.081309795 4288385683
0.029321875 0.013388689 0.081114836 4288385683
0.031003248 0.013339761 0.080919869 4288845975
0.03268462 0.013290834 0.08072491 4288582545
0.034365989 0.013241906 0.080529943 4288844945
0.036047366 0.013192978 0.080334976 4288647309
0.03783679 0.011053811 0.080365077 4288317572
0.039522015 0.011004771 0.080169663 4285356628
0.041207243 0.010955731 0.079974256 4281408790
0.042892478 0.010906691 0.079778843 4281343254
-0.0074768155 0.012159253 0.087313764 4288847267
-0.0057997932 0.014198034 0.086877838 4288583836
-0.0041184202 0.014149106 0.086682871 4288319894
-0.0024370474 0.014100179 0.086487912 4288450965
-0.00075567648 0.014051251 0.086292945 4288516499
0.00092569634 0.014002323 0.086097978 4288910741
0.0026070692 0.013953395 0.085903019 4288253325
0.0042884401 0.013904467 0.085708052 4288451219
0.005969815 0.013855539 0.085513093 4288385683
0.0076511856 0.013806611 0.085318126 4288451476
0.0093325591 0.013757684 0.085123166 4288517269
0.011013932 0.013708756 0.0849282 4288517269
0.012695304 0.013659828 0.084733233 4288517269
0.014324517 0.015610729 0.084313184 4288451476
0.016002199 0.015561909 0.084118649 4288451476
0.017679879 0.015513089 0.083924107 4288451476
0.019420791 0.013464116 0.083953381 4288451476
0.021102168 0.013415189 0.083758421 4288385683
0.022783538 0.013366261 0.083563454 4288385683
0.024464911 0.013317334 0.083368495 4288385683
0.026146283 0.013268406 0.083173528 4288319890
0.027827656 0.013219478 0.082978562 4288319890
0.029509028 0.01317055 0.082783602 4288320143
0.031190401 0.013121622 0.082588635 4288254340
0.032871775 0.013072695 0.082393676 4288583044
0.034553144 0.013023767 0.082198709 4288977032
0.03623452 0.012974839 0.08200375 4288713603
0.037915885 0.012925911 0.081808783 4287923319
0.039597265 0.012876983 0.081613816 4284962634
0.041278638 0.012828055 0.081418857 4281606680
0.042960003 0.012779128 0.08122389 4281343254
-0.012354898 0.0090189651 0.089934357 4283518802
-0.010664 0.0089697605 0.089738294 4283781974
-0.0089731021 0.008920555 0.089542225 4287136649
-0.0072892313 0.011940612 0.088986367 4288649888
-0.0056040026 0.011891573 0.088790953 4288386457
-0.0039187716 0.011842532 0.088595539 4288254099
-0.0022335425 0.011793492 0.088400133 4288451219
-0.0005483136 0.011744453 0.088204719 4288450704
0.0011128504 0.013784184 0.087766752 4288910740
0.0027942231 0.013735256 0.087571785 4288319373
0.004475594 0.013686328 0.087376818 4288451217
0.0061569689 0.0136374 0.087181859 4288451476
0.0078383395 0.013588472 0.086986892 4288517269
0.009519713 0.013539545 0.086791933 4288517269
0.011201086 0.013490617 0.086596966 4288583062
0.012882458 0.013441689 0.086402006 4288517269
0.014511261 0.015393069 0.085978292 4288517269
0.016188942 0.015344248 0.085783757 4288517269
0.017866623 0.015295427 0.085589223 4288451476
0.019607946 0.013245977 0.085622147 4288451476
0.021289323 0.013197049 0.085427187 4288385683
0.022970691 0.013148122 0.085232221 4288385683
0.024652064 0.013099195 0.085037261 4288319890
0.026333438 0.013050267 0.084842294 4288254097
0.028014811 0.013001339 0.084647328 4288254097
0.029696183 0.012952411 0.084452368 4288254350
0.031377558 0.012903483 0.084257402 4287859582
0.03305893 0.012854555 0.084062442 4288649349
0.034740299 0.012805628 0.083867475 4289240974
0.036421675 0.0127567 0.083672516 4288845446
0.03810304 0.012707772 0.083477549 4287134317
0.03978442 0.012658844 0.08328259 4283844153
0.041582413 0.010518451 0.083319455 4280883216
0.043267645 0.010469411 0.083124042 4280422666
-0.012166684 0.0087995902 0.091612585 4279966493
-0.010472106 0.011820053 0.091049783 4282466373
-0.0087868758 0.011771012 0.090854377 4286808454
-0.0071016476 0.011721972 0.090658963 4288518302
-0.0054164184 0.011672933 0.090463556 4288452250
-0.0037311877 0.011623892 0.090268143 4288385685
-0.0020459588 0.011574852 0.090072729 4288451217
-0.0003607297 0.011525813 0.089877322 4288253837
0.0013000061 0.013566043 0.089435533 4288648336
0.0029813789 0.013517115 0.089240566 4288385164
0.0046627498 0.013468187 0.089045599 4288451217
0.0063441247 0.013419259 0.08885064 4288451476
0.0080254953 0.013370331 0.088655673 4288517269
0.0097068688 0.013321403 0.088460714 4288517269
0.011388241 0.013272476 0.088265747 4288583062
0.013069614 0.013223548 0.088070787 4288517269
0.014698005 0.015175408 0.0876434 4288517269
0.016375687 0.015126587 0.087448865 4288517269
0.018053368 0.015077767 0.087254331 4288451476
0.019795101 0.013027837 0.087290928 4288451476
0.021476477 0.012978909 0.087095968 4288385683
0.023157848 0.012929982 0.086901002 4288319890
0.024839221 0.012881054 0.086706042 4288319890
0.026520593 0.012832126 0.086511075 4288254097
0.028201966 0.012783198 0.086316116 4288254097
0.029883338 0.01273427 0.086121149 4288188558
0.031564713 0.012685342 0.085926183 4288451729
0.033246085 0.012636414 0.085731223 4288846228
0.034927454 0.012587487 0.085536256 4288912019
0.03660883 0.012538559 0.085341297 4288779920
0.038290195 0.012489631 0.08514633 4287068788
0.040084768 0.010348851 0.085187465 4283910211
0.041769996 0.010299811 0.084992051 4281673249
0.043455228 0.01025077 0.084796645 4281081112
-0.010284522 0.011601413 0.092722386 4283782233
-0.0085992916 0.011552372 0.092526972 4287137419
-0.0069140638 0.011503332 0.092331566 4288584863
-0.0052288347 0.011454293 0.092136152 4288583836
-0.0035436037 0.011405252 0.091940738 4288452246
-0.0018583748 0.011356212 0.091745332 4288582803
-0.00019421279 0.013396832 0.091299258 4288188298
0.0014871601 0.013347904 0.091104299 4288516748
0.0031685329 0.013298976 0.090909332 4288254091
0.0048499038 0.013250048 0.090714373 4288451217
0.0065312786 0.01320112 0.090519406 4288385683
0.0082126493 0.013152192 0.090324439 4288451476
0.0098940227 0.013103264 0.09012948 4288517269
0.01152939 0.015055387 0.089697585 4288517269
0.013207068 0.015006566 0.08950305 4288517269
0.014884748 0.014957746 0.089308515 4288451476
0.01656243 0.014908926 0.089113981 4288451476
0.018300883 0.012858626 0.089154661 4288385683
0.019982256 0.012809698 0.088959701 4288385683
0.021663632 0.01276077 0.088764735 4288319890
0.023345001 0.012711843 0.088569768 4288319890
0.025026374 0.012662915 0.088374808 4288319890
0.026707748 0.012613987 0.088179842 4288254097
0.02838912 0.012565059 0.087984882 4288254097
0.030070493 0.012516131 0.087789916 4288254097
0.031751867 0.012467203 0.087594956 4288714650
0.03343324 0.012418275 0.087399989 4288385685
0.03501692 0.014371902 0.086974084 4288187793
0.036795985 0.01232042 0.087010063 4288911770
0.03847735 0.012271492 0.086815096 4288121741
0.04015873 0.012222564 0.086620137 4286081642
0.041840103 0.012173636 0.08642517 4285489504
0.043521468 0.012124708 0.086230211 4285357918
-0.010096937 0.011382773 0.094394982 4284769129
-0.0084117083 0.011333732 0.094199575 4287663763
-0.0067264796 0.011284692 0.094004162 4288716449
-0.005041251 0.011235652 0.093808755 4288386457
-0.00335602 0.011186612 0.093613341 4288189074
-0.001670791 0.011137572 0.093417928 4288582803
-7.0571095e-06 0.01317869 0.092968039 4288319884
0.0016743158 0.013129763 0.09277308 4288582541
0.0033556886 0.013080835 0.092578113 4288188296
0.0050370595 0.013031907 0.092383154 4288385424
0.0067184344 0.012982979 0.092188187 4288319890
0.0083998051 0.012934051 0.09199322 4288385683
0.010081179 0.012885123 0.091798261 4288451476
0.011716134 0.014837726 0.091362692 4288451476
0.013393812 0.014788906 0.091168158 4288451476
0.015071493 0.014740085 0.090973623 4288451476
0.016749173 0.014691265 0.090779088 4288385683
0.018426856 0.014642444 0.090584554 4288319890
0.020169411 0.012591557 0.090628482 4288319890
0.021850787 0.012542629 0.090433516 4288319890
0.023532158 0.012493701 0.090238549 4288319890
0.02521353 0.012444774 0.090043589 4288254097
0.026815258 0.014398343 0.089611873 4288254097
0.028576275 0.012346918 0.089653663 4288254097
0.030257648 0.01229799 0.089458697 4288254099
0.031939022 0.012249062 0.089263737 4288188825
0.033620395 0.012200134 0.08906877 4288056985
0.035203665 0.01415424 0.0886392 4288122264
0.03698314 0.012102279 0.088678844 4289108644
0.038664505 0.012053351 0.088483877 4287398279
0.040345885 0.012004423 0.088288918 4285095265
0.042027257 0.011955495 0.088093951 4286082158
0.043708622 0.011906567 0.087898992 4287200637
-0.0099093542 0.011164133 0.096067585 4287466642
-0.0082241241 0.011115093 0.095872171 4287926680
-0.0065388959 0.011066052 0.095676765 4288584865
-0.0048536668 0.011017012 0.095481351 4287860370
-0.0031826452 0.013058405 0.095026746 4287860109
-0.0015012724 0.013009477 0.094831787 4288451730
0.00018009856 0.012960549 0.09463682 4288451470
0.0018614714 0.012911622 0.094441861 4288648334
0.0035428442 0.012862694 0.094246894 4288254089
0.0052242153 0.012813766 0.094051935 4288319631
0.0069055897 0.012764839 0.093856968 4288319890
0.0085869608 0.012715911 0.093662009 4288385683
0.010225196 0.014668886 0.093222342 4288385683
0.011949707 0.012618055 0.093272075 4288451476
0.013631079 0.012569127 0.093077116 4288385683
0.015312452 0.0125202 0.092882149 4288385683
0.016993824 0.012471272 0.09268719 4288385683
0.018675195 0.012422344 0.092492223 4288254097
0.020356568 0.012373416 0.092297263 4288254097
0.022037944 0.012324488 0.092102297 4288254097
0.023719313 0.01227556 0.09190733 4288254097
0.025400685 0.012226633 0.091712371 4288254097
0.027002001 0.014180682 0.091276988 4288319890
0.028679684 0.014131861 0.091082446 4288319890
0.030444805 0.012079849 0.091127478 4288319892
0.032126177 0.012030921 0.090932518 4287991699
0.03380755 0.011981993 0.090737551 4288517789
0.035488918 0.011933065 0.090542592 4288845984
0.037170295 0.011884137 0.090347625 4288780445
0.03885166 0.01183521 0.090152659 4284832350
0.04053304 0.011786282 0.089957699 4280884770
0.042214412 0.011737354 0.089762732 4282463543
0.043895781 0.011688426 0.089567773 4284634710
-0.00972177 0.010945492 0.097740181 4285888123
-0.0080365399 0.010896453 0.097544774 4288058779
-0.0063513122 0.010847412 0.097349361 4288124314
-0.004666083 0.010798372 0.097153954 4288255128
-0.0029808523 0.010749332 0.09695854 4288320660
-0.0012956233 0.010700292 0.096763127 4288385937
0.00036725259 0.01274241 0.096305586 4288451470
0.0020486254 0.012693482 0.096110627 4288516748
0.0037299984 0.012644555 0.09591566 4288451470
0.0054113693 0.012595627 0.095720701 4288122252
0.0070927441 0.012546699 0.095525734 4288056718
0.0087741148 0.012497772 0.095330775 4288056718
0.010411941 0.014451224 0.09488745 4288056718
0.012089622 0.014402403 0.094692916 4288056718
0.013818233 0.012350988 0.094745882 4288056718
0.015499606 0.012302061 0.094550915 4288122511
0.017180979 0.012253133 0.094355956 4288122511
0.018862348 0.012204205 0.094160989 4288122511
0.020543721 0.012155277 0.09396603 4288122511
0.022225097 0.012106349 0.093771063 4288122511
0.023833383 0.014060661 0.093331166 4288122511
0.025511065 0.01401184 0.093136631 4288122511
0.027188746 0.01396302 0.092942096 4288122511
0.028866427 0.0139142 0.092747562 4288122511
0.030544108 0.01386538 0.092553027 4288122765
0.032313332 0.011812782 0.092601284 4288189579
0.033994704 0.011763854 0.092406318 4288386956
0.035577152 0.013718918 0.091969416 4288715151
0.03735745 0.011665998 0.092016391 4287267707
0.039038815 0.011617071 0.091821432 4281608998
0.040720195 0.011568143 0.091626465 4279306243
0.042401567 0.011519215 0.091431499 4279437575
-0.0095338272 0.012817838 0.099144138 4285493111
-0.0078489548 0.01067781 0.099217385 4288058781
-0.0061637266 0.01062877 0.099021979 4288058779
-0.0044784974 0.01057973 0.098826565 4288255128
-0.0028083371 0.012622127 0.098364286 4288255382
-0.0011269643 0.012573199 0.098169319 4288385937
0.00055440661 0.012524271 0.09797436 4288320143
0.0022357795 0.012475343 0.097779393 4288319884
0.0039171521 0.012426416 0.097584426 4288319884
0.0055985232 0.012377488 0.097389467 4287991179
0.007279898 0.01232856 0.0971945 4287990925
0.0089612687 0.012279633 0.096999541 4287990925
0.010598685 0.014233563 0.096552558 4287925132
0.012276365 0.014184743 0.096358024 4287925132
0.014005387 0.012132849 0.096414648 4287925132
0.01568676 0.012083922 0.096219681 4287925132
0.017368132 0.012034994 0.096024722 4287925132
0.019049503 0.011986066 0.095829755 4287859339
0.020664768 0.013940641 0.09538535 4287859339
0.022412252 0.01188821 0.095439829 4287925132
0.02409362 0.011839282 0.09524487 4287990925
0.025697809 0.01379418 0.094801739 4288056718
0.027375489 0.013745359 0.094607204 4288122511
0.02913774 0.011692499 0.094659977 4288122511
0.030730853 0.013647718 0.094218135 4288188557
0.032408535 0.013598898 0.0940236 4288123783
0.034086216 0.013550078 0.093829066 4287992449
0.035763897 0.013501258 0.093634531 4288781197
0.037441574 0.013452437 0.093439996 4287004788
0.039119251 0.013403617 0.093245454 4283977542
0.040796936 0.013354796 0.093050919 4281082652
0.042588722 0.011301076 0.093100265 4280621849
-0.0093466723 0.012599697 0.10081292 4286019455
-0.0076613706 0.01045917 0.10088999 4288058781
-0.0059761428 0.01041013 0.10069457 4288058779
-0.0042909137 0.01036109 0.10049917 4288320923
-0.0026211815 0.012403986 0.10003307 4288255128
-0.00092045381 0.01026301 0.10010834 4288385683
0.00074156228 0.01230613 0.099643141 4288254350
0.0024229351 0.012257203 0.099448174 4288188298
0.0041043079 0.012208275 0.099253215 4288122251
0.005785679 0.012159348 0.099058248 4287925386
0.0074670538 0.01211042 0.098863281 4287925132
0.0091484245 0.012061492 0.098668322 4287859339
0.010829797 0.012012564 0.098473355 4287859339
0.01251117 0.011963636 0.098278396 4287793546
0.014192543 0.011914708 0.098083429 4287793546
0.015873916 0.01186578 0.09788847 4287793546
0.017555289 0.011816853 0.097693503 4287727753
0.019236658 0.011767925 0.097498536 4287596167
0.02091803 0.011718997 0.097303577 4287596167
0.022599407 0.011670069 0.09710861 4287727753
0.024280777 0.011621141 0.096913651 4287859339
0.025884552 0.013576519 0.096466854 4287990925
0.027562235 0.013527698 0.09627232 4288056718
0.029324895 0.011474358 0.096328758 4288188304
0.030917596 0.013430057 0.095883243 4288254351
0.032595277 0.013381237 0.095688708 4288123016
0.034272958 0.013332416 0.095494173 4288649358
0.035950642 0.013283596 0.095299639 4288714640
0.037628319 0.013234776 0.095105104 4287727745
0.039305996 0.013185956 0.094910569 4285951336
0.040983681 0.013137135 0.094716035 4284832601
-0.0091595175 0.012381558 0.10248169 4286677387
-0.0074737868 0.01024053 0.10256258 4288124574
-0.0057967734 0.012283703 0.10209176 4288124574
-0.0041154004 0.012234775 0.10189679 4288189852
-0.0024340276 0.012185847 0.10170183 4288255128
-0.00073286996 0.01004437 0.10178094 4288189074
0.00092871633 0.012087991 0.10131191 4288122765
0.002610089 0.012039063 0.10111694 4288056458
0.0042914618 0.011990136 0.10092198 4287924872
0.0059728329 0.011941209 0.10072701 4287925386
0.0076542078 0.011892281 0.10053205 4287925132
0.0093355784 0.011843353 0.10033709 4287859339
0.011016952 0.011794425 0.10014212 4287793546
0.012698324 0.011745497 0.099947162 4287793546
0.014379697 0.011696569 0.099752195 4287727753
0.016061069 0.011647641 0.099557236 4287727753
0.017742442 0.011598714 0.099362269 4287661960
0.019423813 0.011549786 0.09916731 4287596167
0.021105185 0.011500858 0.098972343 4287596167
0.022786561 0.01145193 0.098777376 4287727753
0.02446793 0.011403002 0.098582417 4287793546
0.026149303 0.011354074 0.09838745 4287925132
0.027830675 0.011305146 0.098192491 4288056718
0.02951205 0.011256219 0.097997524 4288188304
0.031104341 0.013212396 0.097548358 4288188304
0.032782022 0.013163576 0.097353816 4287991179
0.034459703 0.013114755 0.097159281 4289438112
0.036137383 0.013065935 0.096964747 4287266943
0.03781506 0.013017114 0.096770212 4286872185
0.039325915 0.016079558 0.096184641 4283450949
0.04099787 0.016030904 0.09599077 4284701016
-0.0072862031 0.01002189 0.10423519 4288124320
-0.0056096176 0.012065562 0.10376054 4288124574
-0.0039282446 0.012016634 0.10356557 4288124059
-0.0022468718 0.011967706 0.10337061 4288123544
-0.00056549901 0.011918779 0.10317565 4288057490
0.0011158719 0.011869851 0.10298069 4287990925
0.0027972448 0.011820923 0.10278572 4287924873
0.0044786176 0.011771995 0.10259076 4287793287
0.0061599887 0.011723068 0.1023958 4287990925
0.0078413635 0.01167414 0.10220084 4287925132
0.0095227342 0.011625212 0.10200587 4287925132
0.011204107 0.011576284 0.1018109 4287859339
0.01288548 0.011527356 0.10161594 4287859339
0.014566853 0.011478428 0.10142098 4287793546
0.016248226 0.0114295 0.10122602 4287727753
0.017929599 0.011380572 0.10103105 4287727753
0.019610967 0.011331645 0.10083609 4287793546
0.02129234 0.011282717 0.10064112 4287793546
0.022973716 0.011233789 0.10044616 4287859339
0.024655087 0.011184861 0.1002512 4287925132
0.02625804 0.013141196 0.09979707 4287990925
0.027935721 0.013092376 0.099602535 4288056718
0.029613404 0.013043555 0.099408001 4288122511
0.031291083 0.012994736 0.099213466 4288188306
0.032968767 0.012945915 0.099018931 4288187797
0.034646448 0.012897095 0.098824397 4289174180
0.036324129 0.012848274 0.098629862 4286081909
0.038001806 0.012799454 0.098435327 4284766048
0.039679483 0.012750633 0.098240785 4280686882
0.041357167 0.012701813 0.098046251 4281673775
-0.0071038338 0.011896349 0.10562429 4288190113
-0.0054224618 0.011847421 0.10542932 4288058527
-0.003741089 0.011798494 0.10523436 4288058268
-0.0020597163 0.011749566 0.1050394 4287861142
-0.00037834333 0.011700638 0.10484443 4287925906
0.0013030276 0.01165171 0.10464947 4287794318
0.0029844004 0.011602782 0.1044545 4287859082
0.0046657734 0.011553854 0.10425954 4287859082
0.0063471445 0.011504926 0.10406458 4287990925
0.0080285193 0.011455999 0.10386962 4287990925
0.00970989 0.011407071 0.10367465 4287925132
0.011391263 0.011358143 0.10347968 4287925132
0.013072636 0.011309215 0.10328472 4287859339
0.014754009 0.011260287 0.10308976 4287859339
0.016435381 0.011211359 0.1028948 4287859339
0.018116754 0.011162431 0.10269983 4287793546
0.019798124 0.011113504 0.10250487 4287925132
0.021479497 0.011064576 0.1023099 4287925132
0.023160873 0.011015648 0.10211495 4287990925
0.024842242 0.01096672 0.10191998 4287990925
0.026444785 0.012923535 0.10146219 4288056718
0.028122466 0.012874715 0.10126764 4288122511
0.029800147 0.012825894 0.10107311 4288122511
0.031477828 0.012777074 0.10087857 4288188047
0.033155508 0.012728253 0.10068404 4288647833
0.034833189 0.012679433 0.1004895 4288384661
0.036510874 0.012630613 0.10029497 4287134594
0.038188551 0.012581793 0.10010044 4285489769
0.039866228 0.012532972 0.099905901 4284042323
0.041543912 0.012484152 0.099711366 4283647819
-0.0069166799 0.01167821 0.10729305 4288124835
-0.0052353078 0.011629282 0.10709809 4288058527
-0.0035539351 0.011580355 0.10690313 4287926682
-0.0018725621 0.011531427 0.10670816 4287729301
-0.00019118932 0.011482499 0.1065132 4287794066
0.0014901817 0.011433571 0.10631824 4287728525
0.0031715545 0.011384643 0.10612327 4287858828
0.0048529273 0.011335715 0.10592831 4287859082
0.0065342984 0.011286787 0.10573334 4287925132
0.0082156733 0.011237859 0.10553838 4287925132
0.0098970439 0.011188932 0.10534342 4287859339
0.011578416 0.011140004 0.10514846 4287859339
0.01325979 0.011091076 0.10495349 4287859339
0.014941162 0.011042148 0.10475852 4287859339
0.016622536 0.01099322 0.10456356 4287859339
0.018303908 0.010944292 0.1043686 4287859339
0.019985277 0.010895365 0.10417364 4287925132
0.02166665 0.010846437 0.10397867 4287925132
0.023348026 0.010797509 0.10378371 4287990925
0.025029397 0.010748581 0.10358874 4287990925
0.026631529 0.012705875 0.10312729 4288056718
0.028309209 0.012657054 0.10293276 4288122511
0.02998689 0.012608234 0.10273822 4288122511
0.031664573 0.012559413 0.10254369 4288253837
0.033342253 0.012510593 0.10234915 4288714127
0.035019934 0.012461772 0.10215461 4288187266
0.036697615 0.012412951 0.10196008 4288713611
0.038375292 0.012364131 0.10176554 4288318855
0.040052973 0.012315311 0.10157101 4288253578
-0.0067295255 0.01146007 0.10896182 4288190367
-0.0050481539 0.011411143 0.10876685 4288058781
-0.0033667809 0.011362215 0.10857189 4287860887
-0.0016854082 0.011313288 0.10837693 4287794579
-4.035292e-06 0.01126436 0.10818197 4287662734
0.0016773357 0.011215432 0.107987 4287793550
0.0033587085 0.011166504 0.10779203 4287924621
0.0050400812 0.011117576 0.10759708 4287924621
0.0067214523 0.011068648 0.10740211 4287793546
0.0084028272 0.01101972 0.10720715 4287793800
0.010084198 0.010970793 0.10701218 4287793800
0.011765571 0.010921865 0.10681722 4287859593
0.013446944 0.010872937 0.10662226 4287859339
0.015128316 0.010824009 0.1064273 4287859339
0.016809689 0.010775081 0.10623233 4287859339
0.018491061 0.010726153 0.10603736 4287859339
0.020172432 0.010677226 0.1058424 4287793546
0.021853805 0.010628298 0.10564744 4287793546
0.023535181 0.01057937 0.10545248 4287859339
0.02521655 0.010530442 0.10525751 4287925132
0.026897922 0.010481514 0.10506255 4288056718
0.028579295 0.010432586 0.10486759 4288122511
0.030260669 0.010383658 0.10467262 4288188306
0.03194204 0.01033473 0.10447766 4288188558
0.033528998 0.012292932 0.10401426 4288451216
0.035206679 0.012244111 0.10381973 4287990406
0.03688436 0.012195291 0.10362519 4288319371
0.038562037 0.01214647 0.10343065 4289240732
0.040239714 0.01209765 0.10323612 4287859079
-0.006548597 0.013246962 0.11034821 4287992726
-0.0048709167 0.013198142 0.11015368 4288057749
-0.0031796254 0.011144074 0.11024068 4287860370
-0.0014982525 0.011095147 0.11004571 4287662734
0.00018312038 0.011046219 0.10985075 4287531146
0.0018644914 0.010997291 0.10965578 4287596169
0.0035458643 0.010948363 0.10946082 4287727244
0.005227237 0.010899435 0.10926586 4287793035
0.0069086081 0.010850507 0.10907089 4287793800
0.008589983 0.010801579 0.10887593 4287531397
0.010271354 0.010752652 0.10868096 4287662983
0.011952726 0.010703724 0.108486 4287926155
0.0136341 0.010654796 0.10829104 4287860363
0.015372111 0.0085098073 0.10838526 4287531398
0.016996846 0.01055694 0.10790111 4287465605
0.018678218 0.010508012 0.10770614 4287794570
0.020359587 0.010459084 0.10751119 4288319890
0.022040959 0.010410157 0.10731622 4287925132
0.023722336 0.010361229 0.10712126 4287727755
0.025403706 0.010312301 0.10692629 4287859341
0.027085079 0.010263373 0.10673133 4287990927
0.028766451 0.010214445 0.10653637 4287990927
0.030447824 0.010165517 0.10634141 4288122515
0.032129198 0.010116589 0.10614644 4288385433
0.033810571 0.010067661 0.10595147 4287925148
0.035491943 0.010018734 0.10575651 4287069841
0.037173312 0.0099698063 0.10556155 4287596185
-0.0063552177 0.011023792 0.11229935 4288123794
-0.0046738456 0.010974864 0.11210439 4287992208
-0.0029924728 0.010925937 0.11190943 4287860109
-0.0013111001 0.010877009 0.11171446 4287728523
0.00037027276 0.010828082 0.1115195 4287859339
0.0020516438 0.010779154 0.11132453 4287990925
0.0037330166 0.010730226 0.11112957 4288188047
0.0054143895 0.010681298 0.11093461 4288188304
0.0070957602 0.01063237 0.11073965 4288057742
0.0087771351 0.010583442 0.11054468 4287860363
0.010458506 0.010534515 0.11034971 4287794570
0.012139879 0.010485587 0.11015476 4287926156
0.013821252 0.010436659 0.10995979 4287991949
0.015502624 0.010387731 0.10976483 4287860363
0.017244928 0.0082421284 0.10986243 4287860363
0.018865371 0.010289875 0.1093749 4287926156
0.02054674 0.010240947 0.10917994 4287661960
0.022228112 0.01019202 0.10898498 4287859339
0.023909489 0.010143092 0.10879001 4288056718
0.025590857 0.010094164 0.10859504 4288188304
0.02727223 0.010045236 0.10840008 4288319892
0.028953604 0.009996308 0.10820512 4288517271
0.030547122 0.011955252 0.10773354 4288648857
0.032316349 0.0098984521 0.10781519 4288649376
0.033997722 0.0098495251 0.10762023 4287332762
0.035679094 0.0098005971 0.10742527 4285885579
0.037360463 0.0097516691 0.1072303 4286346898
-0.0061680619 0.010805652 0.11396813 4288123794
-0.0044866903 0.010756724 0.11377317 4287926415
-0.0028053173 0.010707796 0.11357821 4287728523
-0.0011050102 0.0085629271 0.11368456 4287531398
0.0005574284 0.010609941 0.11318828 4287728006
0.0022654478 0.0084648477 0.11329374 4287793799
0.0039201723 0.010512085 0.11279836 4287859592
0.0056015449 0.010463157 0.11260339 4287859592
0.007282916 0.010414229 0.11240843 4287728525
0.0089642908 0.010365301 0.11221346 4287662732
0.010645662 0.010316373 0.1120185 4287465353
0.012327035 0.010267446 0.11182354 4287333767
0.014008407 0.010218518 0.11162857 4287465351
0.015689781 0.01016959 0.11143361 4287662730
0.017371153 0.010120662 0.11123864 4287662730
0.019052526 0.010071734 0.11104368 4287465351
0.020733895 0.010022806 0.11084872 4287662214
0.022415267 0.009973879 0.11065376 4287925386
0.024096644 0.009924951 0.11045879 4287991179
0.025778014 0.009876023 0.11026382 4287728007
0.027459387 0.0098270951 0.11006887 4287793800
0.029140759 0.0097781671 0.1098739 4288188558
0.030733865 0.011737591 0.10939865 4288188557
0.032503504 0.0096803112 0.10948397 4287794320
0.034184877 0.0096313832 0.10928901 4285490811
0.035866249 0.0095824562 0.10909405 4283451234
0.037547618 0.0095335282 0.10889909 4284241774
-0.005973116 0.0084914099 0.11594339 4287992210
-0.0042878878 0.0084423693 0.11574797 4287794829
-0.0026026587 0.0083933296 0.11555256 4287662984
-0.00091742794 0.0083442889 0.11535715 4287597190
0.00076780107 0.0082952492 0.11516174 4287794053
0.0024530301 0.0082462095 0.11496633 4287859844
0.0041073263 0.010293946 0.11446712 4287859842
0.0057886993 0.010245018 0.11427215 4287859846
0.0074700699 0.01019609 0.1140772 4287794320
0.0091514448 0.010147162 0.11388223 4287991445
0.010832815 0.010098234 0.11368727 4287925652
0.012514189 0.010049307 0.1134923 4287728527
0.014195561 0.010000379 0.11329734 4287728527
0.015876934 0.0099514509 0.11310238 4287925904
0.017558306 0.0099025229 0.11290741 4287925904
0.019239681 0.0098535949 0.11271245 4287728523
0.02092105 0.009804667 0.11251748 4288188558
0.022602422 0.009755739 0.11232252 4288320144
0.024283798 0.009706812 0.11212756 4288122764
0.025965167 0.009657884 0.1119326 4287859592
0.02764654 0.0096089561 0.11173763 4288254350
0.029327914 0.0095600281 0.11154266 4288780948
0.031009287 0.0095111001 0.11134771 4288254604
0.032690659 0.0094621722 0.11115274 4287004800
0.034372032 0.0094132442 0.11095778 4282530635
0.036053404 0.0093643172 0.11076281 4280490802
-0.0057855304 0.0082727671 0.117616 4287465612
-0.0041003022 0.0082237273 0.11742058 4287531659
-0.0024150733 0.0081746876 0.11722518 4287728523
-0.0007298424 0.008125647 0.11702976 4287794569
0.00095538655 0.0080766072 0.11683436 4287991430
0.0026406155 0.0080275675 0.11663894 4288057476
0.0042944835 0.010075803 0.11613592 4288057474
0.0059758564 0.010026875 0.11594095 4288123014
0.0076572276 0.009977947 0.11574599 4287596171
0.0093386024 0.009929019 0.11555102 4287990678
0.011019973 0.0098800911 0.11535607 4288188057
0.012701346 0.0098311631 0.1151611 4288056469
0.014382719 0.0097822361 0.11496614 4287924882
0.016064091 0.0097333081 0.11477117 4287925136
0.017745465 0.0096843801 0.11457621 4287990927
0.019426838 0.0096354522 0.11438125 4287990925
0.021108206 0.0095865242 0.11418628 4287597191
0.022789579 0.0095375963 0.11399132 4287794570
0.024470955 0.0094886683 0.11379635 4287860362
0.026152326 0.0094397413 0.11360139 4288123532
0.027833698 0.0093908133 0.11340643 4288715669
0.029515071 0.0093418853 0.11321146 4288452751
0.031196443 0.0092929574 0.1130165 4286413168
0.032877818 0.0092440294 0.11282153 4284110162
0.03455919 0.0091951014 0.11262657 4280228133
0.036240563 0.0091461735 0.11243161 4278780436
-0.0055979481 0.0080541298 0.11928859 4287005064
-0.0039127199 0.0080050891 0.11909317 4287399819
-0.002227491 0.0079560494 0.11889776 4287860111
-0.00054226018 0.0079070088 0.11870235 4287926156
0.0011188937 0.0099555189 0.11819461 4287794051
0.0028002649 0.0099065918 0.11799965 4287465339
0.0044816374 0.0098576639 0.11780468 4287333749
0.0061630104 0.0098087359 0.11760972 4287333753
0.007844381 0.009759808 0.11741476 4287596169
0.0095257564 0.00971088 0.11721979 4287661713
0.011254342 0.0075637288 0.11733448 4287859090
0.0128885 0.0096130241 0.11682986 4288056469
0.014624801 0.0074656485 0.11694366 4287990675
0.016251246 0.0095151691 0.11643994 4287793550
0.017932618 0.0094662411 0.11624497 4287859341
0.019613991 0.0094173132 0.11605001 4288122513
0.021295361 0.0093683852 0.11585505 4287925902
0.022976734 0.0093194572 0.11566009 4288123535
0.02465811 0.0092705293 0.11546512 4288255120
0.026339479 0.0092216022 0.11527016 4288189327
0.028020851 0.0091726743 0.11507519 4287662981
0.029702224 0.0091237463 0.11488023 4285754984
0.031383596 0.0090748183 0.11468527 4282399795
0.033064969 0.0090258904 0.1144903 4279504652
-0.0054103625 0.0078354869 0.1209612 4287464850
-0.0037251345 0.0077864472 0.12076578 4288188571
-0.0020399054 0.0077374075 0.12057038 4288978340
-0.00035467467 0.0076883673 0.12037496 4289044383
0.0013305544 0.0076393271 0.12017956 4288583569
0.0030157834 0.0075902869 0.11998414 4287991683
0.0046687918 0.0096395249 0.11947345 4287728507
0.0063501643 0.0095905969 0.11927849 4287794304
0.0080315359 0.0095416689 0.11908352 4288320144
0.0097129103 0.009492741 0.11888856 4287596171
0.011394281 0.009443813 0.1186936 4287398792
0.013127159 0.0072960467 0.11881168 4287990929
0.014757027 0.0093459571 0.11830367 4288319894
0.0164384 0.00929703 0.1181087 4288122513
0.018119773 0.0092481021 0.11791375 4288122513
0.019801145 0.0091991741 0.11771878 4288517271
0.021482514 0.0091502462 0.11752381 4288254869
0.023163887 0.0091013182 0.11732885 4288057488
0.024845263 0.0090523902 0.11713389 4287531144
0.026526634 0.0090034632 0.11693893 4286478456
0.028208006 0.0089545352 0.11674396 4284636506
0.029889379 0.0089056073 0.116549 4282333751
0.031570751 0.0088566793 0.11635403 4280030996
-0.0052227769 0.0076168454 0.12263381 4288188320
-0.0035375489 0.0075678052 0.1224384 4289307056
-0.00185232 0.0075187651 0.12224299 4290425533
-0.00016708917 0.0074697253 0.12204758 4290820798
0.0015181398 0.0074206851 0.12185217 4290491313
0.0032033687 0.007371645 0.12165676 4290031013
0.0048885979 0.0073226048 0.12146135 4289965473
0.0065738289 0.007273565 0.12126593 4290162852
0.0082590561 0.0072245249 0.12107053 4287793799
0.0099442843 0.0071754847 0.12087511 4286346354
0.011581435 0.009225674 0.12036236 4285820010
0.013262808 0.009176746 0.1201674 4286675065
0.014944181 0.009127818 0.11997244 4287398788
0.016625553 0.009078891 0.11977747 4287201409
0.018306926 0.0090299631 0.11958251 4287135618
0.019988298 0.0089810351 0.11938754 4287596169
0.021669669 0.0089321071 0.11919259 4285820528
