# .PCD v0.7 - Point Cloud Data file format
VERSION 0.7
FIELDS x y z rgb
SIZE 4 4 4 4
TYPE F F F U
COUNT 1 1 1 1
WIDTH 981
HEIGHT 1
VIEWPOINT 0 0 0 1 0 0 0
POINTS 981
DATA ascii
-0.017194627 0.0090989107 -0.024367582 4285687649
-0.015500792 0.0089372331 -0.024298411 4285424479
-0.013836289 0.009026926 -0.022226091 4285950823
-0.012138698 0.0088648899 -0.022156766 4285950825
-0.010441108 0.0087028528 -0.02208744 4286147434
-0.0087435162 0.0085408166 -0.022018114 4286344300
-0.0070459247 0.0083787804 -0.021948788 4284698959
-0.0053483332 0.0082167443 -0.021879463 4281738015
-0.098921373 0.017331932 -0.037724979 4287859341
-0.09724652 0.017172066 -0.037656583 4287793548
-0.095355988 0.016736163 -0.039608542 4288912031
-0.093474016 0.016302235 -0.041551694 4289833133
-0.091806747 0.016143093 -0.041483607 4289767340
-0.090139478 0.01598395 -0.04141552 4289701547
-0.088472217 0.015824808 -0.041347433 4289701547
-0.086610049 0.015393905 -0.043282293 4289767340
-0.085137673 0.015506524 -0.041211255 4289767086
-0.083470404 0.015347382 -0.041143168 4289767086
-0.081803136 0.01518824 -0.041075081 4289701293
-0.080135867 0.015029098 -0.041006994 4289569707
-0.078468598 0.014869955 -0.040938906 4289503914
-0.07680133 0.014710814 -0.040870819 4289372328
-0.075134061 0.014551671 -0.040802732 4289306535
-0.073466793 0.01439253 -0.040734645 4289306535
-0.071799517 0.014233387 -0.040666558 4289438121
-0.070132256 0.014074245 -0.040598467 4289503914
-0.06846498 0.013915103 -0.04053038 4289503914
-0.066648044 0.013488517 -0.042467091 4289438121
-0.064984545 0.013329734 -0.042399157 4289767086
-0.063321039 0.013170952 -0.042331222 4289569707
-0.061657544 0.01301217 -0.042263288 4289438121
-0.059994042 0.012853387 -0.042195354 4289438121
-0.058330543 0.012694605 -0.042127423 4289503914
-0.056667041 0.012535823 -0.042059489 4289569707
-0.054819655 0.011981899 -0.044983353 4289569707
-0.053161774 0.011823653 -0.04491565 4289307305
-0.051503897 0.011665408 -0.044847947 4288913061
-0.050013039 0.011900693 -0.041787755 4289044393
-0.048349541 0.01174191 -0.04171982 4288978604
-0.046686038 0.011583128 -0.041651886 4288583591
-0.045022536 0.011424346 -0.041583952 4288122529
-0.043359037 0.011265564 -0.041516021 4287925148
-0.041788679 0.01136883 -0.039440982 4288450977
-0.04012141 0.011209687 -0.039372895 4288845987
-0.038626511 0.011576743 -0.035262674 4288648859
-0.037076231 0.011814157 -0.032138169 4289043354
-0.035395633 0.011653744 -0.032069538 4288648849
-0.033787951 0.011748718 -0.030030517 4287793540
-0.032103658 0.011587951 -0.029961735 4287727234
-0.030419366 0.011427185 -0.029892951 4287727234
-0.028735075 0.011266418 -0.029824169 4286477169
-0.027111497 0.011370967 -0.027696343 4284897365
-0.02542334 0.011209832 -0.027627401 4285029454
-0.023735184 0.011048696 -0.027558461 4287003242
-0.02204703 0.01088756 -0.027489521 4288121725
-0.020358874 0.010726424 -0.02742058 4288319620
-0.018670717 0.010565288 -0.02735164 4288385416
-0.017037729 0.01079087 -0.024254913 4287267194
-0.015343894 0.010629192 -0.024185739 4286542960
-0.013650061 0.010467514 -0.024116568 4287135099
-0.011956225 0.010305836 -0.024047395 4286937465
-0.010262392 0.010144158 -0.023978224 4288055432
-0.0085862707 0.010236521 -0.021905195 4287791746
-0.0068886797 0.010074485 -0.021835869 4286738544
-0.0051910882 0.0099124489 -0.021766543 4282856242
-0.0034934988 0.0097504128 -0.021697218 4285158740
-0.0017959074 0.0095883757 -0.021627892 4287723895
-0.09876623 0.019004926 -0.037613574 4287925136
-0.097091377 0.018845061 -0.037545174 4287727757
-0.095416524 0.018685194 -0.037476778 4288846238
-0.093530141 0.018245863 -0.039429147 4289701547
-0.091652311 0.017808491 -0.041372705 4289767340
-0.089985043 0.017649349 -0.041304618 4289701547
-0.088119462 0.017214341 -0.043239575 4289701547
-0.086455964 0.017055558 -0.04317164 4289767340
-0.084983237 0.017171923 -0.041100357 4289833133
-0.083315969 0.017012781 -0.041032266 4289767340
-0.0816487 0.016853638 -0.040964179 4289635754
-0.079981431 0.016694495 -0.040896092 4289569961
-0.078314163 0.016535355 -0.040828004 4289569961
-0.076646894 0.016376212 -0.040759917 4289504168
-0.074979626 0.01621707 -0.04069183 4289372582
-0.073312357 0.016057929 -0.040623743 4289372582
-0.071484454 0.015626516 -0.042560238 4289438375
-0.06997782 0.015739644 -0.040487569 4289504168
-0.068310544 0.015580502 -0.040419482 4289504168
-0.066493958 0.01515017 -0.042356439 4289438375
-0.06483046 0.014991388 -0.042288505 4289635754
-0.063166954 0.014832605 -0.04222057 4289635754
-0.061503459 0.014673823 -0.042152636 4289635754
-0.059839956 0.01451504 -0.042084705 4289701547
-0.058176458 0.014356258 -0.042016771 4289701547
-0.056639668 0.014466507 -0.039942868 4289569961
-0.054849453 0.014038693 -0.041880902 4289240996
-0.053185955 0.013879911 -0.041812968 4288846754
-0.051522452 0.013721128 -0.041745037 4289176233
-0.049858954 0.013562346 -0.041677102 4289242542
-0.048195451 0.013403564 -0.041609168 4289570741
-0.046531953 0.013244782 -0.041541234 4288715177
-0.044868451 0.013085999 -0.041473303 4287728284
-0.043204952 0.012927216 -0.041405369 4287267733
-0.04154145 0.012768434 -0.041337434 4287069839
-0.039877951 0.012609652 -0.0412695 4287464848
-0.038385343 0.012982249 -0.037177157 4287596941
-0.036920559 0.013492881 -0.03202638 4287859339
-0.035239965 0.013332468 -0.031957749 4287728006
-0.030263357 0.01310958 -0.029780919 4287003771
-0.028579064 0.012948813 -0.029712137 4286609015
-0.023526186 0.012466512 -0.029505787 4290030751
-0.021890659 0.012573834 -0.027377229 4290293925
-0.020202503 0.012412698 -0.027308289 4289701533
-0.018514346 0.012251562 -0.027239349 4289438365
-0.015138036 0.01192929 -0.027101468 4287661701
-0.01344988 0.011768155 -0.027032528 4288845977
-0.011761723 0.011607019 -0.026963588 4287858571
-0.010105495 0.011836103 -0.023865554 4288910489
-0.0084290262 0.011932226 -0.021792276 4286936440
-0.0067314347 0.01177019 -0.02172295 4286540912
-0.0050239926 0.011351069 -0.023658037 4282922038
-0.003320944 0.01080134 -0.026618885 4287000691
-0.0016327885 0.010640205 -0.026549945 4289171089
-0.098611094 0.02067792 -0.037502166 4287925136
-0.096936241 0.020518055 -0.03743377 4287727757
-0.09526138 0.020358188 -0.037365373 4288780445
-0.093375355 0.019915052 -0.039317992 4289569961
-0.091497876 0.01947392 -0.041261803 4289701547
-0.089830607 0.019314777 -0.041193716 4289701547
-0.087965377 0.018875979 -0.043128923 4289701547
-0.086496063 0.018996494 -0.041057538 4289767340
-0.084828801 0.018837351 -0.040989451 4289833133
-0.083161533 0.018678209 -0.040921364 4289767340
-0.081494264 0.018519066 -0.040853277 4289635754
-0.079826988 0.018359926 -0.04078519 4289504168
-0.078159727 0.018200783 -0.040717103 4289701547
-0.076320872 0.017764503 -0.042653389 4289569961
-0.07482519 0.0178825 -0.040580928 4289438375
-0.073157914 0.017723357 -0.040512841 4289372582
-0.071330369 0.017288156 -0.04244959 4289438375
-0.06966687 0.017129373 -0.042381655 4289504168
-0.068003371 0.01697059 -0.042313721 4289569961
-0.066339873 0.016811809 -0.042245787 4289504168
-0.064676374 0.016653026 -0.042177852 4289635754
-0.063012868 0.016494244 -0.042109922 4289569961
-0.06134937 0.016335461 -0.042041987 4289372582
-0.059685867 0.016176678 -0.041974053 4289306789
-0.058152497 0.016291078 -0.039900053 4289306789
-0.056358866 0.015859114 -0.041838184 4289438375
-0.054695368 0.015700331 -0.041770253 4289635754
-0.053031869 0.01554155 -0.041702319 4289702063
-0.051368367 0.015382767 -0.041634385 4289505198
-0.049704868 0.015223985 -0.04156645 4289045163
-0.048041366 0.015065202 -0.041498519 4289110190
-0.046223123 0.01450274 -0.044424281 4288320419
-0.044565242 0.014344494 -0.044356573 4287662491
-0.042907365 0.014186247 -0.04428887 4287399317
-0.041249484 0.014028002 -0.044221167 4286938508
-0.039723866 0.01427129 -0.041158851 4286938504
-0.038145266 0.014381372 -0.039083004 4286873218
-0.036559504 0.014491935 -0.036997762 4287004800
-0.035084296 0.01501119 -0.031845961 4287333248
-0.030107344 0.014792004 -0.029668884 4287069823
-0.028361918 0.014369534 -0.031571437 4287332997
-0.026681324 0.014209121 -0.031502802 4287793546
-0.025054466 0.014309703 -0.029462537 4288715155
-0.023370173 0.014148936 -0.029393753 4290623150
-0.02168588 0.013988169 -0.029324971 4290886838
-0.020046132 0.014098972 -0.027195998 4290689461
-0.018357977 0.013937837 -0.027127057 4291281599
-0.016669821 0.0137767 -0.027058117 4291215552
-0.014981665 0.013615564 -0.026989177 4291741898
-0.013293509 0.013454429 -0.026920237 4293781483
-0.011605353 0.013293293 -0.026851296 4292135634
-0.0099171977 0.013132158 -0.026782356 4294109167
-0.0082547646 0.01336637 -0.023683714 4292726999
-0.0065609305 0.013204692 -0.023614541 4294042345
-0.0048527294 0.01264875 -0.026575534 4290817205
-0.0031645738 0.012487615 -0.026506593 4294370281
-0.001476418 0.012326479 -0.026437653 4293514459
0.00021173946 0.012165342 -0.026368713 4293843937
-0.098455951 0.022350915 -0.037390757 4288254101
-0.093220569 0.021584241 -0.03920684 4289701547
-0.09134344 0.021139333 -0.041150901 4289833133
-0.089474782 0.02069643 -0.043086205 4289833133
-0.08800891 0.02082105 -0.041014723 4289833133
-0.086341627 0.020661907 -0.040946636 4289833133
-0.084674366 0.020502765 -0.040878549 4289833133
-0.082820788 0.020061301 -0.042814471 4289833133
-0.081157289 0.019902518 -0.042746536 4289767338
-0.079493791 0.019743735 -0.042678602 4289701545
-0.077830285 0.019584952 -0.042610671 4289767340
-0.076166786 0.019426171 -0.042542737 4289635754
-0.074670754 0.019547913 -0.040470026 4289504168
-0.073003478 0.019388771 -0.040401939 4289438375
-0.071176283 0.018949823 -0.042338934 4289372582
-0.069512784 0.01879104 -0.042271003 4289438375
-0.067849286 0.018632259 -0.042203069 4289504168
-0.066185787 0.018473476 -0.042135134 4289569961
-0.064522281 0.018314693 -0.0420672 4289635754
-0.062858783 0.018155912 -0.041999269 4289635754
-0.061195284 0.017997129 -0.041931335 4289504168
-0.059531782 0.017838346 -0.0418634 4289438375
-0.057998061 0.017956492 -0.039789151 4289438375
-0.056204777 0.017520782 -0.041727532 4289504168
-0.054541279 0.017362 -0.041659601 4289504168
-0.05287778 0.017203217 -0.041591667 4289439145
-0.051214278 0.017044434 -0.041523732 4289505197
-0.049550779 0.016885653 -0.041455798 4289373611
-0.047887277 0.01672687 -0.041387867 4288715428
-0.046069555 0.016158782 -0.044314001 4287794328
-0.044411674 0.016000535 -0.044246297 4287267986
-0.042753797 0.015842291 -0.044178594 4287267984
-0.041095916 0.015684044 -0.044110887 4287202189
-0.039438039 0.015525798 -0.044043183 4287005063
-0.037906274 0.015774176 -0.040980265 4286939007
-0.036323562 0.015887644 -0.038904011 4287005053
-0.034733664 0.016001621 -0.036818366 4287005051
-0.033136524 0.016116126 -0.034723263 4287005051
-0.031567436 0.016369086 -0.03159691 4287070846
-0.029786808 0.015796391 -0.034586467 4287268226
-0.028206248 0.016048258 -0.031459648 4287531146
-0.026525654 0.015887843 -0.031391017 4287794318
-0.02484506 0.015727431 -0.031322382 4288255380
-0.02321416 0.015831361 -0.029281719 4288453529
-0.021529866 0.015670594 -0.029212937 4288782494
-0.019845575 0.015509827 -0.029144153 4288913826
-0.018161282 0.015349059 -0.029075371 4289505965
-0.016476989 0.015188293 -0.029006587 4291019206
-0.014792698 0.015027526 -0.028937805 4293255913
-0.013108405 0.014866759 -0.028869022 4294900735
-0.011424112 0.014705991 -0.02880024 4294571005
-0.0097398199 0.014545225 -0.028731458 4294965759
-0.0080726724 0.014657295 -0.026601125 4294965247
-0.0063845147 0.01449616 -0.026532184 4294832637
-0.0046963589 0.014335024 -0.026463242 4294965503
-0.0030026508 0.013902157 -0.028456327 4293976299
-0.0013200477 0.014012752 -0.026325362 4294173165
0.00036810988 0.013851617 -0.026256422 4292462547
0.0020562636 0.013690481 -0.026187481 4291279555
-0.099975683 0.024183774 -0.037347749 4288977824
-0.093065783 0.023253445 -0.039095685 4289175203
-0.091394737 0.023093941 -0.039027445 4289175203
-0.089521736 0.022645606 -0.040971909 4289240996
-0.087854467 0.022486463 -0.040903822 4289306789
-0.086187191 0.022327321 -0.040835734 4289306789
-0.08451993 0.022168178 -0.040767647 4289372582
-0.082852662 0.022009037 -0.04069956 4289372582
-0.081185393 0.021849895 -0.040631473 4289372580
-0.079518117 0.021690752 -0.040563386 4289306787
-0.077850856 0.02153161 -0.040495299 4289372582
-0.07618358 0.021372467 -0.040427212 4289306789
-0.074516319 0.021213327 -0.040359125 4289175203
-0.072849043 0.021054184 -0.040291037 4289109410
-0.071022198 0.020611461 -0.042228285 4289109410
-0.069358699 0.02045268 -0.042160351 4289109410
-0.0676952 0.020293897 -0.042092416 4289175203
-0.066031702 0.020135114 -0.042024486 4289240996
-0.064368196 0.019976333 -0.041956551 4289306789
-0.062704697 0.01981755 -0.041888617 4289240996
-0.061041195 0.019658769 -0.041820683 4289240996
-0.059377693 0.019499986 -0.041752748 4289175203
-0.057843626 0.019621905 -0.03967825 4289175203
-0.056176357 0.019462764 -0.039610162 4289175203
-0.054387193 0.019023638 -0.041548949 4289240996
-0.052723695 0.018864855 -0.041481014 4289306789
-0.051060192 0.018706074 -0.041413084 4289241764
-0.049396694 0.018547291 -0.041345149 4289044644
-0.047733191 0.018388508 -0.041277215 4288452510
-0.046069693 0.018229727 -0.04120928 4287662994
-0.04425811 0.017656563 -0.044136021 4287202189
-0.042600229 0.017498316 -0.044068314 4287202443
-0.040942352 0.017340071 -0.044000611 4287136649
-0.039284471 0.017181825 -0.043932907 4286939522
-0.037752189 0.017435815 -0.040869612 4286939261
-0.036169127 0.017553058 -0.038793109 4287005051
-0.034501858 0.017393917 -0.038725022 4287071098
-0.032907821 0.017511321 -0.036638971 4287136891
-0.031306528 0.017629253 -0.034543458 4287202430
-0.029631669 0.017469386 -0.034475062 4287399812
-0.027956812 0.01730952 -0.034406662 4287662732
-0.026281955 0.017149653 -0.034338266 4287794577
-0.024607098 0.016989786 -0.034269869 4287926933
-0.023008795 0.01724574 -0.031141963 4288059032
-0.021373855 0.017353004 -0.029100902 4288190364
-0.019689562 0.017192237 -0.029032119 4288124571
-0.018005271 0.01703147 -0.028963337 4288190365
-0.016320977 0.016870702 -0.028894555 4288979883
-0.014636686 0.016709935 -0.028825771 4290361536
-0.012952393 0.016549168 -0.028756989 4291413970
-0.0112681 0.016388401 -0.028688205 4292269279
-0.0096044578 0.016504705 -0.026557773 4292663780
-0.0079163015 0.016343569 -0.026488833 4292333534
-0.0062281443 0.016182434 -0.026419893 4291477455
-0.0045399885 0.016021298 -0.026350953 4291213770
-0.0028518329 0.015860163 -0.026282011 4289437359
-0.0011636772 0.015699027 -0.02621307 4289634481
0.0005244803 0.015537891 -0.02614413 4288384410
0.0022126341 0.015376755 -0.02607519 4288055698
-0.092910998 0.024922634 -0.038984533 4288385687
-0.091239952 0.02476313 -0.03891629 4288517273
-0.0893673 0.024311019 -0.040861007 4288583066
-0.087897837 0.024444122 -0.038779806 4288648857
-0.086032756 0.023992734 -0.040724833 4288780443
-0.084365487 0.023833591 -0.040656745 4288846236
-0.082698226 0.023674451 -0.040588658 4288846236
-0.08103095 0.023515308 -0.040520571 4288846236
-0.079363681 0.023356166 -0.040452484 4288846236
-0.07769642 0.023197023 -0.040384397 4288846236
-0.076029144 0.023037883 -0.04031631 4288780443
-0.074361883 0.02287874 -0.040248223 4288714650
-0.072694607 0.022719597 -0.040180136 4288648857
-0.071027339 0.022560455 -0.040112045 4288583064
-0.069204614 0.022114318 -0.042049702 4288648857
-0.067541108 0.021955535 -0.041981768 4288714650
-0.065877609 0.021796754 -0.041913833 4288780443
-0.06421411 0.021637971 -0.041845899 4288780443
-0.062550612 0.021479188 -0.041777965 4288780443
-0.060887109 0.021320406 -0.041710034 4288714650
-0.059223607 0.021161623 -0.0416421 4288714650
-0.057560109 0.021002842 -0.041574165 4288714650
-0.055896606 0.020844059 -0.041506231 4288780443
-0.054233108 0.020685276 -0.0414383 4288780443
-0.052569609 0.020526495 -0.041370366 4288846236
-0.050906107 0.020367712 -0.041302431 4288715418
-0.049242605 0.020208929 -0.041234497 4288518039
-0.047579106 0.020050148 -0.041166563 4288057492
-0.045915607 0.019891364 -0.041098632 4287465101
-0.044104543 0.019312605 -0.044025742 4287136137
-0.042446665 0.019154359 -0.043958038 4287136136
-0.040788785 0.018996114 -0.043890335 4287070597
-0.039130908 0.018837867 -0.043822631 4287004800
-0.037598103 0.019097453 -0.040758964 4286873467
-0.036014691 0.019218471 -0.038682207 4287005305
-0.034347422 0.01905933 -0.03861412 4287136891
-0.032753035 0.01918051 -0.036527816 4287268477
-0.03108198 0.019021006 -0.036459576 4287399809
-0.029410925 0.018861502 -0.036391333 4287597191
-0.027739871 0.018701999 -0.036323089 4287794318
-0.026126815 0.018822648 -0.034226857 4287926163
-0.024451958 0.018662781 -0.034158461 4287992728
-0.022853125 0.018924464 -0.031030176 4288058778
-0.021217842 0.019035429 -0.028988868 4288059292
-0.019533549 0.018874662 -0.028920084 4287861659
-0.017849257 0.018713893 -0.028851302 4287664280
-0.016164964 0.018553127 -0.028782519 4287795868
-0.014480672 0.01839236 -0.028713737 4288256419
-0.01279638 0.018231593 -0.028644955 4288651179
-0.011136241 0.018352116 -0.026514422 4288388007
-0.0094480868 0.01819098 -0.026445482 4288848045
-0.0077599315 0.018029844 -0.026376542 4288847533
-0.0060717738 0.017868707 -0.026307601 4288452005
-0.004383618 0.017707571 -0.026238661 4288385699
-0.0026954624 0.017546436 -0.026169721 4287595669
-0.0010073069 0.0173853 -0.026100781 4288187293
0.0006808507 0.017224165 -0.026031839 4287661202
0.0023622513 0.01678469 -0.02802591 4285884527
0.0040465458 0.016623924 -0.027957126 4286345330
-0.092756212 0.026591823 -0.038873378 4287596171
-0.091085166 0.026432319 -0.038805138 4288188308
-0.089212865 0.025976432 -0.040750105 4288254101
-0.087743051 0.026113311 -0.038668651 4288319892
-0.08587832 0.025658147 -0.040613931 4288385685
-0.084211051 0.025499007 -0.040545844 4288385685
-0.08254379 0.025339864 -0.040477756 4288385685
-0.080876514 0.025180722 -0.040409669 4288385685
-0.079209246 0.025021579 -0.040341582 4288385685
-0.077541977 0.024862438 -0.040273495 4288254099
-0.075874709 0.024703296 -0.040205408 4288188306
-0.07420744 0.024544153 -0.040137321 4288188306
-0.072540171 0.024385011 -0.04006923 4288122513
-0.070872903 0.024225868 -0.040001143 4288122513
-0.069050521 0.023775985 -0.04193905 4288122513
-0.067387022 0.023617204 -0.041871116 4288188306
-0.065723523 0.023458421 -0.041803181 4288188306
-0.064060025 0.023299638 -0.041735247 4288188306
-0.062396519 0.023140857 -0.041667312 4288188306
-0.06073302 0.022982074 -0.041599382 4288188306
-0.059069522 0.022823291 -0.041531447 4288188306
-0.057406023 0.02266451 -0.041463513 4288254099
-0.055742517 0.022505727 -0.041395579 4288254099
-0.054079019 0.022346945 -0.041327644 4288319892
-0.05241552 0.022188162 -0.041259713 4288319892
-0.050752018 0.022029379 -0.041191779 4287991695
-0.049088519 0.021870598 -0.041123845 4287860109
-0.047425017 0.021711815 -0.04105591 4287531146
-0.045761518 0.021553032 -0.04098798 4287202183
-0.043950979 0.020968633 -0.043915465 4287004550
-0.042293098 0.020810386 -0.043847762 4286939011
-0.040635221 0.020652141 -0.043780055 4287004802
-0.03897734 0.020493895 -0.043712351 4287005054
-0.037444014 0.020759121 -0.040648311 4286807672
-0.035860255 0.020883886 -0.038571306 4286939512
-0.034192987 0.020724744 -0.038503218 4287136889
-0.03259825 0.020849699 -0.036416665 4287334270
-0.030927194 0.020690195 -0.036348421 4287465604
-0.029321391 0.020815374 -0.034252245 4287662730
-0.027646534 0.020655507 -0.034183849 4287860113
-0.026058644 0.020924 -0.031055652 4288057238
-0.02437805 0.020763585 -0.030987021 4288189337
-0.02274612 0.02087862 -0.028945616 4288189852
-0.021061828 0.020717854 -0.028876832 4288190365
-0.019377535 0.020557085 -0.02880805 4288256158
-0.017693242 0.020396318 -0.028739268 4288321953
-0.016044339 0.020521795 -0.026608953 4288190624
-0.014324659 0.020074785 -0.028601702 4288256419
-0.012640366 0.019914018 -0.028532919 4288256419
-0.010979871 0.020038389 -0.026402131 4288059042
-0.0092917169 0.019877253 -0.026333191 4288255908
-0.007603561 0.019716118 -0.02626425 4288386981
-0.0059154034 0.019554982 -0.02619531 4288452260
-0.0042272476 0.019393846 -0.02612637 4288517285
-0.002539092 0.019232711 -0.02605743 4287990941
-0.0008509364 0.019071573 -0.025988489 4287858841
0.0008372211 0.018910438 -0.025919549 4287398030
0.0025182646 0.018467115 -0.027913876 4285753452
0.0042025591 0.018306348 -0.027845092 4286740341
0.0058868504 0.018145582 -0.02777631 4287990153
-0.092601426 0.028261026 -0.038762223 4286740862
-0.090930372 0.028101522 -0.038693983 4287859343
-0.089259319 0.027942019 -0.03862574 4287859343
-0.087588258 0.027782515 -0.038557496 4287859341
-0.085917205 0.027623013 -0.038489256 4287925134
-0.084056623 0.027164405 -0.040434942 4287925132
-0.082389355 0.027005263 -0.040366855 4287859339
-0.080722086 0.02684612 -0.040298767 4287793546
-0.07905481 0.026686978 -0.04023068 4287793546
-0.077387549 0.026527837 -0.040162593 4287661962
-0.075720273 0.026368694 -0.040094506 4287661962
-0.074053012 0.026209552 -0.040026419 4287661962
-0.072385736 0.026050411 -0.039958332 4287661962
-0.070718467 0.025891269 -0.039890245 4287661962
-0.068896435 0.025437625 -0.041828398 4287661962
-0.067232937 0.025278842 -0.041760463 4287727755
-0.065569438 0.025120059 -0.041692529 4287727755
-0.063905939 0.024961278 -0.041624598 4287727755
-0.062242433 0.024802495 -0.041556664 4287727755
-0.060578935 0.024643712 -0.041488729 4287727755
-0.058915433 0.024484931 -0.041420795 4287727755
-0.057251934 0.024326148 -0.041352864 4287727755
-0.055588432 0.024167364 -0.04128493 4287727755
-0.053924933 0.024008583 -0.041216996 4287727755
-0.052261434 0.0238498 -0.041149061 4287727755
-0.050597932 0.023691017 -0.041081127 4287398788
-0.04893443 0.023532236 -0.041013196 4287267202
-0.047270931 0.023373453 -0.040945262 4287135618
-0.045607433 0.023214672 -0.040877327 4287069827
-0.04394393 0.023055889 -0.040809393 4287003780
-0.04213953 0.022466429 -0.043737482 4287004034
-0.04061693 0.022738324 -0.040673528 4287069825
-0.038953431 0.022579541 -0.040605593 4287135870
-0.037289929 0.022420758 -0.040537659 4286872951
-0.03570582 0.022549285 -0.038460407 4287070328
-0.034038551 0.022390142 -0.03839232 4287267707
-0.032371283 0.022231 -0.038324229 4287465088
-0.030772407 0.022359399 -0.036237266 4287596421
-0.029101351 0.022199895 -0.036169026 4287793548
-0.027430298 0.022040391 -0.036100782 4288056468
-0.025816537 0.022168634 -0.034004044 4288188055
-0.024274401 0.022721782 -0.028902365 4288188824
-0.02259011 0.022561016 -0.028833583 4288254617
-0.020905817 0.022400247 -0.028764799 4288320923
-0.019264281 0.022530342 -0.026634542 4288518302
-0.017576125 0.022369206 -0.026565602 4288650403
-0.015887968 0.02220807 -0.026496662 4288781989
-0.014168648 0.02175718 -0.02848967 4288716196
-0.012511658 0.021885799 -0.026358781 4288650916
-0.010823501 0.021724662 -0.026289841 4288848297
-0.0091353459 0.021563526 -0.026220899 4288650405
-0.0074471906 0.021402391 -0.026151959 4288716200
-0.0057590329 0.021241255 -0.026083019 4289110188
-0.0040708771 0.02108012 -0.026014078 4288978091
-0.0023786011 0.020631811 -0.028008191 4288582563
-0.000694566 0.020757848 -0.025876198 4287134604
0.00098998437 0.020310277 -0.027870625 4286345340
0.0026742753 0.02014951 -0.027801841 4286411634
0.0043477234 0.01971527 -0.029708494 4287069817
0.0060580568 0.020113306 -0.025600435 4287924872
0.007746214 0.019952169 -0.025531495 4288911767
0.0094343675 0.019791033 -0.025462555 4288451217
0.011122522 0.019629898 -0.025393615 4286016878
-0.090775587 0.029770711 -0.038582828 4287267206
-0.089104533 0.029611208 -0.038514588 4287267206
-0.087433472 0.029451704 -0.038446344 4287267204
-0.085762419 0.029292202 -0.038378101 4287267204
-0.08390218 0.028829819 -0.04032404 4287267202
-0.082234919 0.028670676 -0.040255953 4287201409
-0.08056765 0.028511534 -0.040187865 4287135616
-0.078900374 0.028352393 -0.040119778 4287135616
-0.077233113 0.02819325 -0.040051691 4287201411
-0.075565837 0.028034108 -0.039983604 4287201411
-0.073898576 0.027874967 -0.039915517 4287201411
-0.0722313 0.027715825 -0.03984743 4287201411
-0.070564032 0.027556682 -0.039779343 4287267204
-0.06874235 0.027099263 -0.041717745 4287267204
-0.067078851 0.02694048 -0.041649815 4287267204
-0.065415353 0.026781699 -0.04158188 4287267204
-0.063751847 0.026622916 -0.041513946 4287201411
-0.062088348 0.026464133 -0.041446012 4287267204
-0.060424849 0.026305351 -0.041378081 4287267204
-0.058761347 0.026146568 -0.041310146 4287267204
-0.057097849 0.025987785 -0.041242212 4287267204
-0.055434346 0.025829004 -0.041174278 4287201411
-0.053770848 0.025670221 -0.041106343 4287135618
-0.052107349 0.02551144 -0.041038413 4287135618
-0.050443847 0.025352657 -0.040970478 4286806653
-0.048780344 0.025193874 -0.040902544 4286675067
-0.047116846 0.025035093 -0.040834609 4286675069
-0.045453347 0.02487631 -0.040766675 4286806401
-0.043789845 0.024717527 -0.040698744 4286937987
-0.042126343 0.024558745 -0.04063081 4286872194
-0.040462844 0.024399962 -0.040562876 4287004032
-0.038799342 0.024241179 -0.040494941 4287201663
-0.037218653 0.024373841 -0.038417593 4287004283
-0.035551384 0.024214698 -0.038349506 4287136121
-0.033884116 0.024055555 -0.038281415 4287267709
-0.032288674 0.024188092 -0.036194354 4287464834
-0.030617621 0.024028588 -0.036126114 4287596167
-0.028946565 0.023869084 -0.036057871 4287793550
-0.027336257 0.024001494 -0.033961035 4288056471
-0.0256614 0.023841629 -0.033892639 4288253850
-0.024066709 0.024121031 -0.030763444 4288648346
-0.022386115 0.023960618 -0.030694811 4288582551
-0.020749804 0.024082672 -0.028652765 4288648344
-0.019065512 0.023921905 -0.028583983 4288714650
-0.017381219 0.023761138 -0.028515199 4288781215
-0.015731599 0.023894344 -0.02638437 4288912801
-0.014043443 0.023733208 -0.02631543 4288913058
-0.012355287 0.023572072 -0.02624649 4288847265
-0.01066713 0.023410937 -0.02617755 4288781474
-0.0089789759 0.023249801 -0.02610861 4288452509
-0.0072908201 0.023088666 -0.026039669 4288715169
-0.0056026625 0.02292753 -0.025970727 4288978341
-0.0039145071 0.022766393 -0.025901787 4288517022
-0.0022225878 0.022314236 -0.027896155 4288253337
-0.0005381956 0.022444122 -0.025763907 4286279549
0.001149962 0.022282986 -0.025694966 4285819249
0.0028381157 0.02212185 -0.025626026 4287266942
0.0045145834 0.021671167 -0.027621025 4287859331
0.0062144268 0.021799579 -0.025488146 4288385675
0.007902585 0.021638444 -0.025419204 4289240986
0.0095907385 0.021477308 -0.025350263 4287924872
0.011318794 0.021739608 -0.022246804 4284569430
0.013012625 0.021577932 -0.022177631 4282135089
0.014740368 0.021695657 -0.020100608 4280490266
0.016437959 0.02153362 -0.020031283 4281806385
-0.092291854 0.031599402 -0.038539916 4285359209
-0.090620801 0.0314399 -0.038471676 4286609274
-0.088949747 0.031280398 -0.038403433 4286609274
-0.087278686 0.031120893 -0.038335189 4286675067
-0.085607633 0.030961391 -0.038266949 4286675067
-0.083747745 0.030495232 -0.040213138 4286675065
-0.082080483 0.030336089 -0.040145051 4286675065
-0.080413207 0.030176949 -0.040076964 4286675065
-0.078745939 0.030017806 -0.040008876 4286609272
-0.07707867 0.029858664 -0.039940789 4286740860
-0.075411402 0.029699521 -0.039872702 4286740860
-0.073744141 0.02954038 -0.039804615 4286806653
-0.072076865 0.029381238 -0.039736528 4286872446
-0.070409596 0.029222095 -0.039668441 4286872446
-0.068588264 0.028760916 -0.041607097 4286872446
-0.066924766 0.028602133 -0.041539162 4286872446
-0.065261267 0.028443351 -0.041471228 4286872446
-0.063597761 0.028284568 -0.041403294 4286806653
-0.061934263 0.028125787 -0.041335359 4286806653
-0.060270764 0.027967004 -0.041267429 4286872446
-0.058607262 0.027808221 -0.041199494 4286872446
-0.056943763 0.02764944 -0.04113156 4286806653
-0.055280257 0.027490657 -0.041063625 4286675067
-0.053616762 0.027331874 -0.040995695 4286609274
-0.05195326 0.027173093 -0.04092776 4286543481
-0.050289758 0.02701431 -0.040859826 4286411382
-0.048626259 0.026855526 -0.040791892 4286279798
-0.046962757 0.026696745 -0.040723957 4286411386
-0.045400564 0.026834965 -0.038647126 4286740096
-0.043635756 0.026379181 -0.040588092 4286937475
-0.041972257 0.026220398 -0.040520158 4286937475
-0.040308755 0.026061615 -0.040452223 4287069314
-0.038645256 0.025902834 -0.040384293 4287398531
-0.037064217 0.026039254 -0.038306691 4287266943
-0.035396948 0.025880111 -0.038238604 4287332989
-0.03372968 0.025720969 -0.038170513 4287399041
-0.032133888 0.025857281 -0.036083203 4287464835
-0.030462833 0.025697777 -0.036014959 4287596169
-0.02879178 0.025538273 -0.035946719 4287859089
-0.027181117 0.025674488 -0.033849631 4288187803
-0.025591634 0.02596017 -0.030720286 4288450716
-0.023911038 0.025799755 -0.030651655 4288976284
-0.022278083 0.025925849 -0.028609514 4288976280
-0.020593792 0.025765082 -0.02854073 4288976280
-0.018909499 0.025604315 -0.028471949 4288911257
-0.017225206 0.025443548 -0.028403167 4288911770
-0.015540915 0.025282782 -0.028334383 4288977563
-0.013887071 0.025419496 -0.026203139 4289043613
-0.012198916 0.02525836 -0.026134199 4289043613
-0.010510758 0.025097225 -0.026065256 4289175971
-0.0088226041 0.024936089 -0.025996316 4289044385
-0.0071344483 0.024774954 -0.025927376 4289306789
-0.0054462906 0.024613818 -0.025858436 4288977313
-0.003758135 0.024452683 -0.025789496 4287266440
-0.0020665757 0.023996646 -0.027784122 4287003011
-0.0003818238 0.024130411 -0.025651615 4285423725
0.0013063337 0.023969274 -0.025582673 4286147699
0.0029944875 0.023808138 -0.025513733 4288056712
0.0046826433 0.023647003 -0.025444793 4288715406
0.0063707987 0.023485867 -0.025375852 4288320393
0.0080589559 0.023324732 -0.025306912 4287991430
0.0097471103 0.023163596 -0.025237972 4285753957
0.011435264 0.023002461 -0.025169032 4282727225
0.013169521 0.023269875 -0.022064963 4282135089
0.014932022 0.023675777 -0.017970655 4281740331
0.016633386 0.02351338 -0.017901175 4282266677
-0.088794954 0.0329496 -0.038292278 4286149495
-0.087123901 0.032790098 -0.038224038 4286346104
-0.085452847 0.032630593 -0.038155794 4286281079
-0.083781794 0.032471091 -0.038087554 4286477688
-0.08211074 0.032311589 -0.038019311 4286346870
-0.080439679 0.032152083 -0.037951067 4286477686
-0.078591503 0.031683218 -0.039897975 4286477686
-0.076924235 0.031524077 -0.039829887 4286477688
-0.075256966 0.031364936 -0.0397618 4286477688
-0.073589697 0.031205794 -0.039693713 4286543481
-0.071922429 0.031046651 -0.039625626 4286609274
-0.07025516 0.030887509 -0.039557539 4286609274
-0.068587892 0.030728368 -0.039489448 4286609274
-0.066920623 0.030569226 -0.039421361 4286609274
-0.065253355 0.030410083 -0.039353274 4286609272
-0.063443676 0.029946223 -0.041292641 4286543481
-0.061780173 0.02978744 -0.041224711 4286609272
-0.060116675 0.029628657 -0.041156776 4286609274
-0.058453172 0.029469876 -0.041088842 4286609272
-0.056789674 0.029311093 -0.041020907 4286477688
-0.055126172 0.02915231 -0.040952977 4286346100
-0.053462673 0.028993528 -0.040885042 4286214516
-0.051799174 0.028834745 -0.040817108 4286148721
-0.050135672 0.028675962 -0.040749174 4286082930
-0.048580665 0.028818661 -0.038672399 4285951344
-0.046913393 0.028659521 -0.038604312 4286214005
-0.045246124 0.028500378 -0.038536225 4286609276
-0.043578856 0.028341236 -0.038468137 4286937730
-0.041818168 0.027882051 -0.040409505 4286872448
-0.040244322 0.028022952 -0.038331963 4287069312
-0.03857705 0.02786381 -0.038263876 4287332995
-0.036992267 0.028004995 -0.036176775 4287464322
-0.03532121 0.027845491 -0.036108531 4287399041
-0.033650156 0.027685987 -0.036040291 4287464834
-0.031979103 0.027526485 -0.035972048 4287530628
-0.030308045 0.027366981 -0.035903808 4287661962
-0.028700838 0.027507335 -0.033806622 4287924882
-0.027025979 0.027347468 -0.033738222 4288253850
-0.025435964 0.027638894 -0.030608498 4288582300
-0.023806363 0.02776904 -0.028566262 4288713110
-0.02212207 0.027608274 -0.02849748 4288844435
-0.020437779 0.027447507 -0.028428696 4288844948
-0.018795168 0.027589178 -0.026297668 4288910741
-0.017069193 0.027125973 -0.02829113 4288845462
-0.015418856 0.027266907 -0.026159788 4288911768
-0.0137307 0.027105771 -0.026090847 4289043354
-0.012042545 0.026944635 -0.026021907 4289109147
-0.010354389 0.0267835 -0.025952967 4288517269
-0.0086662332 0.026622364 -0.025884025 4288780441
-0.0069780778 0.026461229 -0.025815085 4289306274
-0.0052899201 0.026300091 -0.025746144 4288714137
-0.0036017648 0.026138956 -0.025677204 4286542970
-0.0019105622 0.025679071 -0.027672088 4286805629
-0.00022626939 0.025518304 -0.027603304 4286213492
0.0014580234 0.025357535 -0.027534522 4288187536
0.003150858 0.025494413 -0.025401443 4288122505
0.0048390138 0.025333278 -0.025332501 4288846739
0.0065271691 0.025172142 -0.025263561 4287530881
0.0082153268 0.025011007 -0.025194621 4285754470
0.0099034803 0.024849871 -0.02512568 4282727225
0.011632589 0.025123512 -0.022021465 4280358678
0.013326419 0.024961835 -0.021952292 4281411368
0.015020253 0.024800157 -0.021883121 4282069298
0.016714087 0.02463848 -0.021813948 4282003251
0.018407924 0.0244768 -0.021744777 4282266423
-0.088640168 0.034618791 -0.038181126 4286018169
-0.086969115 0.034459285 -0.038112883 4286412413
-0.085298061 0.034299783 -0.038044643 4286215545
-0.083627008 0.034140278 -0.037976399 4286083700
-0.081955954 0.033980776 -0.037908155 4286150006
-0.080284894 0.033821274 -0.037839916 4286346870
-0.078437068 0.033348635 -0.039787073 4286346870
-0.076769799 0.03318949 -0.039718986 4286346870
-0.07510253 0.03303035 -0.039650898 4286412663
-0.073435262 0.032871209 -0.039582811 4286412663
-0.071767993 0.032712065 -0.039514724 4286412663
-0.070100725 0.032552924 -0.039446633 4286281077
-0.068433456 0.03239378 -0.039378546 4286281077
-0.066766188 0.032234639 -0.039310459 4286281077
-0.065098919 0.032075498 -0.039242372 4286347124
-0.06328959 0.031607874 -0.041181993 4286478456
-0.061626088 0.031449094 -0.041114058 4286412917
-0.059962589 0.031290311 -0.041046124 4286281077
-0.058299087 0.031131528 -0.04097819 4286281331
-0.056635588 0.030972745 -0.040910259 4286346870
-0.054972082 0.030813964 -0.040842324 4286347124
-0.053308588 0.030655181 -0.04077439 4286215284
-0.051645085 0.030496398 -0.040706456 4286149745
-0.049981583 0.030337617 -0.040638521 4286149744
-0.048318084 0.030178834 -0.040570591 4286083951
-0.046758957 0.030324934 -0.03849341 4286148974
-0.045091689 0.030165792 -0.038425323 4286215537
-0.04342442 0.030006649 -0.038357235 4286675319
-0.041664083 0.029543703 -0.040298853 4286873468
-0.040089883 0.029688366 -0.038221061 4287201662
-0.038422614 0.029529223 -0.038152974 4287070846
-0.036837477 0.029674184 -0.036065619 4287267455
-0.035166424 0.02951468 -0.03599738 4287268225
-0.03349537 0.029355176 -0.035929136 4287399811
-0.031824317 0.029195674 -0.035860896 4287465604
-0.030220555 0.029340195 -0.03376361 4287597191
-0.028545698 0.029180327 -0.033695213 4287794316
-0.026960887 0.02947803 -0.030565342 4288123283
-0.025334641 0.029612232 -0.028523009 4288451478
-0.02365035 0.029451465 -0.028454227 4288253586
-0.021966057 0.029290698 -0.028385444 4288517012
-0.020326953 0.029436588 -0.026254319 4288648598
-0.018638797 0.029275453 -0.026185377 4288648598
-0.016950641 0.029114315 -0.026116436 4288780184
-0.015262485 0.02895318 -0.026047496 4289043613
-0.01357433 0.028792044 -0.025978556 4289109406
-0.011886175 0.028630909 -0.025909616 4288977820
-0.010198018 0.028469773 -0.025840675 4289109660
-0.0085098632 0.028308637 -0.025771735 4289307039
-0.0068217074 0.028147502 -0.025702795 4288254097
-0.0051335501 0.027986366 -0.025633853 4286346100
-0.0034453943 0.027825231 -0.025564913 4285820010
-0.0017572386 0.027664095 -0.025495972 4287003771
-6.9082991e-05 0.02750296 -0.025427032 4287990666
0.0016190745 0.027341822 -0.025358092 4288056461
0.0032983278 0.026879193 -0.027353704 4288517269
0.0049953838 0.027019551 -0.025220212 4286806653
0.0066835396 0.026858415 -0.02515127 4284240726
0.0083716968 0.02669728 -0.025082329 4281937971
0.010059851 0.026536144 -0.025013389 4280819490
0.011748005 0.026375009 -0.024944449 4280951078
0.013436166 0.026213873 -0.024875509 4281740594
0.01512432 0.026052738 -0.024806568 4282464317
0.016812477 0.0258916 -0.024737628 4282069559
0.018564822 0.026168745 -0.021632107 4282003766
-0.090156443 0.03644748 -0.038138214 4284965227
-0.088286243 0.0359689 -0.040084697 4285754743
-0.086618982 0.035809759 -0.040016606 4286347134
-0.085143276 0.035968971 -0.037933487 4286347133
-0.083472222 0.035809468 -0.037865244 4286215545
-0.081801169 0.035649966 -0.037797004 4286281592
-0.080130108 0.035490461 -0.03772876 4286347385
-0.078282632 0.035014048 -0.039676171 4286347383
-0.076615363 0.034854904 -0.039608084 4286149491
-0.074948095 0.034695763 -0.039539997 4286215284
-0.073280826 0.034536622 -0.039471909 4286281077
-0.071613558 0.034377478 -0.039403822 4286215284
-0.069946289 0.034218337 -0.039335731 4286149491
-0.06827902 0.034059193 -0.039267644 4286083698
-0.066611752 0.033900052 -0.039199557 4286149745
-0.064944483 0.033740912 -0.03913147 4286215538
-0.063277215 0.033581767 -0.039063383 4286215538
-0.061609942 0.033422627 -0.038995296 4286149745
-0.059942678 0.033263486 -0.038927209 4286083952
-0.058275405 0.033104341 -0.038859122 4286083952
-0.056608137 0.032945201 -0.038791034 4286215284
-0.054940872 0.032786056 -0.038722947 4286215538
-0.0532736 0.032626916 -0.03865486 4286149491
-0.051491 0.032158036 -0.040595807 4286083952
-0.049939062 0.032308631 -0.038518682 4286412914
-0.048271794 0.03214949 -0.038450595 4286281582
-0.046604522 0.031990346 -0.038382508 4286215535
-0.044937253 0.031831205 -0.038314421 4286412914
-0.043269984 0.031672064 -0.038246334 4286741879
-0.041602716 0.03151292 -0.038178246 4287005051
-0.039935447 0.031353779 -0.038110159 4287202432
-0.038268179 0.031194637 -0.038042072 4287202432
-0.036682691 0.031343371 -0.035954468 4287334018
-0.035011638 0.031183869 -0.035886224 4287399811
-0.033340584 0.031024365 -0.035817984 4287531398
-0.031669527 0.030864863 -0.035749741 4287597191
-0.030065417 0.031013189 -0.033652205 4287728777
-0.028485812 0.031317152 -0.030522186 4287926156
-0.026862925 0.031455394 -0.028479759 4288255121
-0.025178632 0.031294629 -0.028410977 4288452246
-0.023494339 0.03113386 -0.028342195 4288451478
-0.021858739 0.031283997 -0.026210967 4288583064
-0.020170582 0.031122861 -0.026142027 4288517271
-0.018482428 0.030961726 -0.026073087 4288451476
-0.016794272 0.03080059 -0.026004145 4288648855
-0.015106115 0.030639455 -0.025935205 4288977820
-0.01341796 0.030478319 -0.025866264 4289109406
-0.011729804 0.030317184 -0.025797324 4288912027
-0.010041648 0.030156048 -0.025728384 4288912027
-0.0083534932 0.029994911 -0.025659444 4288780695
-0.0066653369 0.029833775 -0.025590504 4287859593
-0.0049771797 0.029672639 -0.025521563 4286346354
-0.0032890239 0.029511504 -0.025452621 4285951596
-0.0016008682 0.029350368 -0.025383681 4286741111
8.7287415e-05 0.029189233 -0.025314741 4287399041
0.001775445 0.029028097 -0.025245801 4287464835
0.0034635987 0.028866962 -0.02517686 4285030244
0.0051517542 0.028705826 -0.02510792 4283845716
0.0068399101 0.02854469 -0.02503898 4282200891
0.0085280677 0.028383553 -0.02497004 4281082410
0.010216221 0.028222417 -0.024901098 4280819238
0.011904375 0.028061282 -0.024832157 4281213996
0.013592537 0.027900146 -0.024763217 4281806133
0.01528069 0.027739011 -0.024694277 4282135098
0.016968848 0.027577875 -0.024625337 4282003512
-0.088131808 0.037634313 -0.039973792 4285031020
-0.086464547 0.037475172 -0.039905705 4286083962
-0.08498849 0.037638176 -0.037822332 4286412926
-0.083317436 0.03747867 -0.037754092 4286347131
-0.081646383 0.037319168 -0.037685849 4286281592
-0.079975322 0.037159666 -0.037617609 4286215799
-0.078304268 0.037000161 -0.037549365 4286215799
-0.076460928 0.036520317 -0.039497182 4286149491
-0.074962161 0.036681157 -0.037412882 4286215284
-0.073291108 0.036521651 -0.037344638 4286281077
-0.071459122 0.036042891 -0.03929292 4286215284
-0.069791853 0.035883751 -0.03922483 4286149491
-0.068124585 0.03572461 -0.039156742 4286149491
-0.066457316 0.035565466 -0.039088655 4286215284
-0.064790048 0.035406325 -0.039020568 4286281077
-0.063122779 0.035247181 -0.038952481 4286346870
-0.061455507 0.03508804 -0.038884394 4286281077
-0.059788242 0.034928899 -0.038816307 4286215284
-0.058120966 0.034769755 -0.03874822 4286215284
-0.056453701 0.034610614 -0.038680132 4286346872
-0.054786433 0.03445147 -0.038612045 4286412663
-0.053119164 0.034292329 -0.038543954 4286346872
-0.051451895 0.034133188 -0.038475867 4286281077
-0.049784627 0.033974044 -0.03840778 4286083951
-0.048117358 0.033814903 -0.038339693 4286083949
-0.046450086 0.033655763 -0.038271606 4286083951
-0.044782817 0.033496618 -0.038203519 4286215537
-0.043115549 0.033337478 -0.038135432 4286478709
-0.04144828 0.033178333 -0.038067345 4286741881
-0.039781012 0.033019193 -0.037999257 4286939261
-0.038113743 0.032860052 -0.03793117 4287005054
-0.036527906 0.033012576 -0.035843313 4287070847
-0.034856852 0.032853074 -0.035775069 4287136640
-0.033185795 0.032693569 -0.035706829 4287202179
-0.031585135 0.032846048 -0.033609197 4287267972
-0.029910278 0.032686181 -0.033540796 4287399558
-0.028330142 0.032995876 -0.030410398 4287728523
-0.026649548 0.032835461 -0.030341767 4288057488
-0.025022618 0.032977052 -0.028298942 4288320662
-0.023338325 0.032816283 -0.028230159 4288648857
-0.021702368 0.032970272 -0.026098676 4288648857
-0.020014212 0.032809135 -0.026029736 4288517271
-0.018326057 0.032648001 -0.025960796 4288517271
-0.016637901 0.032486863 -0.025891855 4288912029
-0.014949745 0.03232573 -0.025822913 4289306787
-0.013261589 0.032164592 -0.025753973 4289240994
-0.011573434 0.032003459 -0.025685033 4288912027
-0.0098852767 0.031842321 -0.025616093 4288648855
-0.0081971223 0.031681184 -0.025547152 4287398788
-0.0065089664 0.03152005 -0.025478212 4286148721
-0.0048208092 0.031358913 -0.025409272 4285951596
-0.0031326534 0.031197779 -0.025340332 4286675319
-0.0014444978 0.031036641 -0.02527139 4286741112
0.00024365782 0.030875506 -0.025202449 4285556838
0.0019318153 0.03071437 -0.025133509 4284174931
0.0036199691 0.030553235 -0.025064569 4282135350
0.0053081247 0.030392099 -0.024995629 4281609008
0.0070217708 0.030684378 -0.021890976 4281082664
0.0086844377 0.030069828 -0.024857748 4281082664
0.010372592 0.029908692 -0.024788808 4281543215
0.012060746 0.029747557 -0.024719868 4282003766
0.013748907 0.029586419 -0.024650926 4282069559
-0.088175811 0.039626371 -0.037847664 4283912539
-0.086504757 0.039466869 -0.037779421 4285360239
-0.076478429 0.038509846 -0.03736997 4286149491
-0.074807376 0.038350344 -0.037301727 4286215284
-0.073136322 0.038190842 -0.037233487 4286281077
-0.071465269 0.038031336 -0.037165243 4286281077
-0.069637418 0.037549164 -0.039113928 4286215284
-0.067970149 0.037390023 -0.039045841 4286215284
-0.066302881 0.037230879 -0.038977753 4286281077
-0.064635612 0.037071738 -0.038909666 4286346870
-0.062968343 0.036912594 -0.038841579 4286281077
-0.061301071 0.036753453 -0.038773492 4286215286
-0.059633806 0.036594313 -0.038705405 4286149493
-0.05796653 0.036435168 -0.038637318 4286149493
-0.056299265 0.036276028 -0.038569231 4286215288
-0.054631997 0.036116887 -0.038501143 4286215288
-0.052964725 0.035957742 -0.038433053 4286149495
-0.051297456 0.035798602 -0.038364965 4286083700
-0.049630187 0.035639457 -0.038296878 4286215284
-0.047962923 0.035480317 -0.038228791 4286215538
-0.04629565 0.035321176 -0.038160704 4286347124
-0.044628382 0.035162032 -0.038092617 4286478710
-0.042961113 0.035002891 -0.03802453 4286741628
-0.041293845 0.03484375 -0.037956443 4287004800
-0.039626576 0.034684606 -0.037888356 4287202179
-0.037959307 0.034525465 -0.037820268 4287333765
-0.03637312 0.034681763 -0.035732161 4287399560
-0.034702066 0.034522261 -0.035663918 4287399560
-0.033031009 0.034362759 -0.035595674 4287531146
-0.031429995 0.034519043 -0.033497788 4287596939
-0.029855067 0.034835014 -0.03036724 4287794320
-0.028174473 0.0346746 -0.030298609 4288057492
-0.026550896 0.034820244 -0.02825569 4288452250
-0.024866605 0.034659475 -0.028186908 4288781215
-0.023234153 0.034817681 -0.026055325 4288517273
-0.021545999 0.034656547 -0.025986385 4288517273
-0.019857842 0.03449541 -0.025917444 4288517273
-0.018169686 0.034334272 -0.025848504 4288648857
-0.01648153 0.034173138 -0.025779564 4288977822
-0.014793375 0.034012001 -0.025710624 4289175201
-0.013105219 0.033850867 -0.025641683 4288780443
-0.011417063 0.03368973 -0.025572741 4288188306
-0.0097289067 0.033528596 -0.025503801 4287135618
-0.0080407523 0.033367459 -0.025434861 4285885549
-0.0063393875 0.032891039 -0.027430298 4285030240
-0.0046644388 0.033045188 -0.025296981 4285622377
-0.002976283 0.03288405 -0.02522804 4286148721
-0.0012881274 0.032722916 -0.0251591 4285096287
0.00040002825 0.032561779 -0.025090158 4282793532
0.0020881856 0.032400645 -0.025021218 4280951074
0.0037763396 0.032239508 -0.024952278 4281543213
0.0054848348 0.032538 -0.021847479 4281477420
0.007178667 0.032376323 -0.021778308 4281543215
0.0088725016 0.032214645 -0.021709135 4281872178
0.010566339 0.032052968 -0.021639962 4282201145
0.012217116 0.031433832 -0.024607576 4282332729
-0.088021025 0.041295562 -0.037736509 4282794312
-0.069639429 0.039541021 -0.036985848 4286346872
-0.067968369 0.039381519 -0.036917605 4286346872
-0.066297315 0.039222017 -0.036849365 4286412665
-0.064626262 0.039062511 -0.036781121 4286478458
-0.062955208 0.038903009 -0.036712881 4286215286
-0.061146636 0.038418867 -0.03866259 4286083702
-0.059479371 0.038259726 -0.038594503 4286017909
-0.057812095 0.038100582 -0.038526416 4286017909
-0.05614483 0.037941441 -0.038458329 4286017655
-0.054477561 0.0377823 -0.038390242 4286017655
-0.052810289 0.037623156 -0.038322151 4285951862
-0.05114302 0.037464015 -0.038254064 4285820530
-0.049475752 0.037304871 -0.038185976 4285886321
-0.047808483 0.03714573 -0.038117889 4286017905
-0.046141215 0.036986589 -0.038049802 4286149493
-0.044473946 0.036827445 -0.037981715 4286412665
-0.042806678 0.036668304 -0.037913628 4286610044
-0.041139409 0.036509164 -0.037845541 4286873216
-0.03947214 0.036350019 -0.037777454 4287070595
-0.037804872 0.036190879 -0.037709367 4287202181
-0.036218334 0.036350954 -0.035621006 4287333769
-0.034624573 0.036511768 -0.033523176 4287399562
-0.032876223 0.036031947 -0.035484523 4287531148
-0.031274859 0.036192037 -0.033386383 4287596941
-0.029699396 0.036513738 -0.030255452 4287794066
-0.028018802 0.036353324 -0.030186821 4288057238
-0.026394885 0.036502652 -0.028143656 4288386203
-0.024710592 0.036341887 -0.028074874 4288649375
-0.023077784 0.036503956 -0.025943033 4288451996
-0.021342007 0.036020353 -0.027937308 4288451996
-0.019701472 0.036181685 -0.025805153 4288451996
-0.018013315 0.036020547 -0.025736213 4288386457
-0.016325159 0.035859413 -0.025667273 4288386457
-0.014637004 0.035698276 -0.025598332 4288057492
-0.012948848 0.035537139 -0.025529392 4287202183
-0.011236253 0.035055749 -0.027524613 4286346872
-0.00955196 0.034894984 -0.027455829 4285096805
-0.0078676688 0.034734216 -0.027387047 4284833633
-0.0061833756 0.034573451 -0.027318263 4284833633
-0.0044990829 0.034412682 -0.027249482 4284702047
-0.0028199127 0.034570325 -0.025115749 4283583566
-0.001131757 0.034409191 -0.025046809 4281872946
0.00055639865 0.034248054 -0.024977868 4280886051
0.0022445561 0.034086917 -0.024908926 4280886051
0.0039327098 0.033925783 -0.024839986 4281609774
0.0056208656 0.033764645 -0.024771046 4281741360
0.0073355637 0.034068268 -0.021665638 4281938741
0.0090293977 0.03390659 -0.021596467 4282004532
0.010723235 0.033744909 -0.021527294 4281938741
-0.087866239 0.042964764 -0.037625358 4282070589
-0.086390011 0.04314062 -0.035532087 4283386449
-0.08471515 0.042980753 -0.035463691 4284833895
-0.062800422 0.040572211 -0.036601726 4286478460
-0.061129365 0.040412709 -0.036533482 4286412667
-0.059458312 0.040253207 -0.036465243 4286280827
-0.057787258 0.040093701 -0.036396999 4286280827
-0.056116201 0.039934199 -0.036328755 4286346620
