# .PCD v0.7 - Point Cloud Data file format
VERSION 0.7
FIELDS x y z rgb
SIZE 4 4 4 4
TYPE F F F U
COUNT 1 1 1 1
WIDTH 980
HEIGHT 1
VIEWPOINT 0 0 0 1 0 0 0
POINTS 980
DATA ascii
0.028232915 0.0091273291 0.020144705 4282923567
0.028229658 0.010519714 0.02015778 4280555797
0.028226398 0.011912099 0.020170854 4281348142
0.0061889347 0.032005295 0.015604864 4287063136
0.0041565304 0.033498712 0.015180224 4287130210
0.0031345487 0.034968451 0.014973784 4286671975
0.0041498006 0.036374871 0.015207232 4287134068
0.0041464358 0.037812952 0.015220736 4286673776
0.0031244406 0.039288502 0.015014351 4287727236
0.0031210713 0.040728521 0.015027874 4285029468
0.003117702 0.042168535 0.015041396 4286477427
0.0011258043 0.043693051 0.014625814 4285819756
0.0011224261 0.04513685 0.014639372 4285951342
0.0011190479 0.04658065 0.014652929 4286083700
0.0011156696 0.048024449 0.014666487 4285491563
-0.00088683603 0.049568404 0.01424879 4285688170
-0.0018649633 0.051066689 0.014052126 4286477686
-0.0038831965 0.052624751 0.013631189 4286543222
-0.003886597 0.054078043 0.013644836 4285424739
-0.0059189498 0.057105362 0.01323537 4283714121
-0.0059223594 0.058562506 0.013249054 4284109138
0.027230468 0.0035600057 0.018480094 4290229437
0.027227206 0.0049543083 0.018493187 4290557875
0.027223943 0.0063486104 0.018506279 4289438866
0.027220681 0.0077429134 0.018519374 4287266667
0.027217418 0.009137216 0.018532466 4282988590
0.028222084 0.010532771 0.018765409 4280950553
0.028218826 0.011925157 0.018778482 4281479982
0.0071354774 0.031992696 0.014378569 4285418311
0.0071321256 0.0334251 0.01439202 4283445802
0.0061744228 0.034887183 0.014197603 4286079838
0.0071254224 0.036289912 0.014418922 4285620829
0.0061677112 0.037755623 0.014224539 4285292123
0.0041352496 0.039264519 0.013796169 4285358686
0.0041318848 0.040702596 0.013809673 4285424226
0.0041285199 0.042140678 0.013823178 4286543220
0.0031065007 0.043622058 0.013614926 4286806651
0.0031031312 0.045062076 0.013628448 4286477686
0.0030997619 0.046502095 0.01364197 4286741630
0.0011078172 0.048037991 0.013222694 4286412665
0.0011044389 0.049481791 0.013236253 4286477686
-0.0018728464 0.051080283 0.012602701 4286609272
-0.0018762379 0.052529745 0.012616311 4286280048
-0.0018796293 0.053979196 0.012629922 4285227360
0.027222885 0.003573081 0.0170858 4290097334
0.027219621 0.0049673836 0.017098892 4290228394
0.02721636 0.0063616862 0.017111985 4288846471
0.027213097 0.0077559887 0.017125079 4286608989
0.027209835 0.0091502918 0.017138172 4283054635
0.027206572 0.010544594 0.017151264 4282001698
0.02720331 0.011938897 0.017164359 4282266417
0.0091407737 0.031951156 0.013388538 4288843397
0.011139784 0.033321239 0.013841926 4288712322
0.011136451 0.034746006 0.013855306 4290883753
0.0091307461 0.036236882 0.013428782 4289765788
0.0091274036 0.037665457 0.013442198 4288318601
0.0071109291 0.039168153 0.013013445 4286345581
0.0071075773 0.040600557 0.013026896 4287266430
0.0041206987 0.042154163 0.012385122 4287266943
0.0041173338 0.043592241 0.012398626 4287464581
0.0030952995 0.04507558 0.012188454 4286872444
0.0030919299 0.046515599 0.012201977 4286412663
0.0010999648 0.048051529 0.011778931 4286215284
0.0010965866 0.049495328 0.011792489 4286148721
-0.0018807297 0.051093876 0.01115326 4286082928
-0.0018841211 0.052543335 0.011166872 4285951083
-0.0018875126 0.053992789 0.011180483 4285490532
0.027215302 0.0035861563 0.015691521 4289900207
0.027212039 0.0049804589 0.015704613 4289965218
0.027208777 0.006374761 0.015717706 4288320123
0.027205514 0.007769064 0.0157308 4286213716
0.027202252 0.0091633666 0.015743893 4283054634
0.027198989 0.010557669 0.015756985 4282659114
0.027195727 0.011951972 0.01577008 4282856244
0.025221605 0.013351395 0.01534585 4283185722
0.025218334 0.014749446 0.015358978 4283055413
0.016149668 0.031772811 0.0135152 4291543479
0.016146356 0.033188041 0.01352849 4292267200
0.016143044 0.034603268 0.01354178 4293450707
0.011125368 0.036184132 0.012443935 4292594887
0.011122035 0.037608899 0.012457313 4289700254
0.011118701 0.039033666 0.012470692 4286937718
0.0091129486 0.040536001 0.012040477 4286871927
0.006142043 0.042085182 0.011396534 4286872185
0.006138687 0.043519404 0.011410002 4286609272
0.0041061477 0.045043807 0.010974059 4286806651
0.0041027828 0.046481889 0.010987563 4286610042
0.0030807287 0.047969121 0.010775491 4286478456
0.001088734 0.04950887 0.010348696 4286411893
-0.00091384258 0.051056731 0.0099196211 4286280561
-0.0018920043 0.052556928 0.0097174309 4286280048
-0.0018953958 0.054006383 0.0097310422 4285885290
0.027207719 0.0035992314 0.01429724 4289702824
0.027201194 0.0063878363 0.014323426 4287004515
0.027197931 0.0077821389 0.01433652 4284832318
0.027194669 0.0091764424 0.014349613 4283712818
0.028199365 0.010571944 0.014588307 4284106814
0.028196108 0.011964329 0.014601381 4283382329
0.02819285 0.013356714 0.014614456 4283382588
0.028189592 0.014749099 0.014627532 4282134311
0.028186334 0.016141484 0.014640607 4282266928
0.01614197 0.031786084 0.012099987 4292728526
0.01613866 0.033201311 0.012113276 4292794572
0.014159681 0.034678075 0.011684986 4294503395
0.012114856 0.036164537 0.011242063 4292792264
0.011114285 0.037622262 0.011032578 4288976785
0.011110952 0.039047025 0.011045957 4286411374
0.0091051785 0.040549397 0.010611927 4286740341
0.009101836 0.041977976 0.010625343 4287069564
0.0070852931 0.043492232 0.010189009 4286609272
0.0070819417 0.044924639 0.01020246 4286675065
0.0061241752 0.046401288 0.01000274 4286544249
0.003072897 0.047982626 0.0093354974 4286346870
-0.00091832853 0.049622703 0.0084584495 4286412147
-0.00092171569 0.051070306 0.0084720431 4286477940
-0.0018998876 0.052570522 0.0082679912 4286411634
-0.001903279 0.054019976 0.0082816025 4285753703
-0.0019066705 0.055469431 0.0082952129 4284700758
0.027200134 0.0036123067 0.012902946 4288453010
0.027196873 0.005006609 0.01291604 4288715402
0.02719361 0.0064009116 0.012929132 4286346584
0.027190348 0.0077952142 0.012942226 4284700730
0.028195051 0.0091926148 0.013182874 4284041781
0.028191792 0.010585001 0.01319595 4284698951
0.028188534 0.011977386 0.013209024 4282725169
0.027177298 0.013372425 0.012994599 4282396720
0.027174035 0.014766729 0.013007691 4282266924
0.028178761 0.016154541 0.01324825 4282071089
0.020165954 0.030281564 0.011579735 4293844451
0.019132482 0.031717319 0.011360701 4293320152
0.017114831 0.033185791 0.010919861 4292201667
0.01612765 0.034629811 0.010711351 4294371809
0.014148644 0.036110371 0.010279342 4292726471
0.012103789 0.037600748 0.0098325666 4288910992
0.011103203 0.039060388 0.0096212067 4286279786
0.0090974094 0.040562797 0.0091833631 4286608755
0.0090940669 0.041991375 0.0091967778 4287003770
0.007077503 0.043505665 0.0087566301 4286543733
0.0070741512 0.044938073 0.0087700812 4286675065
0.0061163749 0.04641474 0.008568543 4286544249
0.0040837754 0.047946941 0.0081249401 4286346870
0.0010730292 0.049535949 0.0074611404 4286346354
-0.00092958874 0.051083881 0.0070244656 4286346354
-0.0019077708 0.052584115 0.0068185506 4286345840
-0.0019111622 0.054033566 0.0068321619 4285687910
-0.00093975011 0.055426687 0.0070652468 4284700758
-0.00094313727 0.05687429 0.0070788404 4283779913
0.027192552 0.003625382 0.011508667 4287268736
0.02718929 0.0050196843 0.01152176 4287596921
0.027186027 0.0064139869 0.011534853 4285622862
0.028190736 0.0078132879 0.011777412 4284305974
0.028187478 0.0092056729 0.011790487 4283975990
0.030191885 0.010600374 0.012260574 4284502601
0.030188635 0.01198894 0.012273613 4282793018
0.030185387 0.013377506 0.012286652 4281281575
0.027166452 0.014779803 0.011613412 4281480744
0.022156181 0.030243866 0.010626436 4294039524
0.020155005 0.031702332 0.010185412 4293514968
0.020151712 0.033109896 0.01019863 4293779161
0.017103838 0.034612399 0.0095197959 4294239710
0.016116641 0.03605831 0.0093094418 4292594885
0.01209605 0.037614089 0.0084097236 4288845199
0.012092721 0.039036959 0.0084230844 4286148200
0.011092121 0.040498514 0.0082098357 4286411376
0.0090862969 0.042004772 0.0077682277 4286872184
0.0070697125 0.043519095 0.0073242355 4286543733
0.0070663607 0.044951502 0.0073376866 4286609526
0.0061085746 0.046428189 0.0071343309 4286478456
0.0040759542 0.047960427 0.0066868835 4286346870
0.0010651767 0.049549486 0.0060173473 4286346354
-0.00093746185 0.051097456 0.0055768881 4286346354
-0.00094084896 0.052545059 0.0055904817 4286280047
-0.00094423606 0.053992663 0.0056040753 4285622117
-0.00094762322 0.055440262 0.0056176693 4284700756
-0.00095101033 0.056887865 0.0056312629 4283911753
0.028228775 -0.01166705 0.010202003 4289896855
0.028225515 -0.010274664 0.010215078 4283448622
0.03321413 -0.0059777247 0.011402701 4284173134
0.033210892 -0.004594848 0.011415686 4283385409
0.033207659 -0.0032119716 0.011428673 4282531379
0.033204421 -0.0018290948 0.011441658 4282071338
0.033201188 -0.00044621917 0.011454644 4282269234
0.028183162 0.007826345 0.010385055 4284240441
0.028179904 0.00921873 0.01039813 4283779128
0.030184332 0.010613395 0.010872016 4284304967
0.030181084 0.012001961 0.010885055 4283713608
0.030177835 0.013390527 0.010898095 4282464567
0.022148548 0.030257031 0.0092226947 4294172138
0.02014735 0.031715531 0.0087778717 4292990423
0.019113852 0.033153277 0.0085549373 4291148983
0.017096151 0.034625653 0.008106445 4294042846
0.016108945 0.03607158 0.0078942282 4292594885
0.016105633 0.037486807 0.0079075173 4288845199
0.014126569 0.038974956 0.0074680531 4286016614
0.014123249 0.040393941 0.007481378 4286279788
0.011081038 0.04193664 0.0067984494 4286806391
0.011077704 0.04336141 0.0068118288 4286543733
0.0070585702 0.044964936 0.0059053074 4286543733
0.0061007743 0.046441637 0.0057001337 4286412663
0.0040681325 0.047973916 0.005248812 4286281077
0.0010573243 0.049563028 0.0045735692 4286412147
0.0010539461 0.05100682 0.0045871269 4286412147
-0.00094872218 0.052558634 0.0041428744 4286280047
0.0010471896 0.053894423 0.0046142428 4285622117
0.0010438114 0.055338223 0.004627801 4284700756
0.0010404332 0.056782026 0.0046413587 4283911753
0.028221201 -0.011653992 0.0088096308 4289238927
0.031225154 -0.010172432 0.0095195184 4283317037
0.031221909 -0.0087857665 0.0095325401 4282659368
0.034253415 -0.0073206569 0.010248621 4284303948
0.033206608 -0.0059647565 0.010019835 4284831323
0.033203371 -0.0045818798 0.010032821 4283779913
0.033200137 -0.0031990034 0.010045807 4283057725
0.0331969 -0.0018161268 0.010058792 4282203696
0.031202443 -0.00046578114 0.0096106688 4281874991
0.030199524 0.00090645481 0.0093921982 4281084974
0.028188622 0.0022698608 0.0089403819 4282400068
0.028185364 0.0036622467 0.0089534568 4285426281
0.028182106 0.0050546313 0.0089665325 4286281582
0.028178848 0.0064470172 0.0089796074 4285359699
0.028175591 0.0078394022 0.0089926831 4284569156
0.03018003 0.009237851 0.0094704339 4283778878
0.030176781 0.010626417 0.0094834734 4284106311
0.033164546 0.012012636 0.010188651 4284104518
0.033161309 0.013395512 0.010201637 4284565580
0.020139694 0.03172873 0.0073703164 4291614421
0.017091772 0.033225555 0.0066798357 4293653226
0.016104558 0.034669627 0.0064657237 4293781214
0.016101249 0.036084853 0.0064790137 4292726471
0.014122171 0.037569277 0.0060357591 4288976785
0.014118851 0.038988262 0.006049084 4285950821
0.011076623 0.040525239 0.0053603346 4286148202
0.011073289 0.041950002 0.005373714 4286740598
0.0090674153 0.043460138 0.0049245129 4286543733
0.0070507796 0.044978369 0.0044729128 4286543733
0.006092974 0.046455089 0.0042659366 4286347124
0.0030415694 0.048036639 0.0035754943 4286281331
0.0010494718 0.049576566 0.0031297761 4286477940
0.0010460936 0.051020361 0.0031433341 4286477940
-0.00095659529 0.052572209 0.0026952967 4286280047
-0.0009599824 0.054019812 0.0027088905 4285556324
-0.0019382033 0.055523802 0.0024974523 4284634963
-0.0019415948 0.05697326 0.0025110636 4283845960
0.030221213 -0.011577619 0.0078863017 4290159519
0.033208795 -0.010100419 0.0085980268 4282527269
0.033205558 -0.0087175397 0.0086110123 4282066977
0.034245905 -0.0073077078 0.0088677518 4283646022
0.033199087 -0.0059517887 0.008636984 4284107602
0.033195853 -0.0045689121 0.0086499704 4283253570
0.033192616 -0.0031860352 0.0086629558 4282860092
0.033189379 -0.0018031587 0.0086759413 4282071857
0.033186145 -0.000420283 0.0086889276 4281545774
0.031191656 0.00093388761 0.0082370397 4281084721
0.030188723 0.002308042 0.0080166953 4281939778
0.033160258 0.010642728 0.0087928148 4282790198
0.034200668 0.012024768 0.0090492936 4283182648
0.03715561 0.013397658 0.0097523788 4284037955
0.037152391 0.014772922 0.0097652925 4283054134
0.039159324 0.016135102 0.010247072 4282464567
0.039156117 0.017506544 0.010259951 4281084469
0.020138627 0.028926801 0.0059363404 4287794075
0.019105116 0.030360665 0.0057094498 4292204515
0.019101817 0.031770188 0.0057226862 4292010721
0.017084084 0.03323881 0.0052664988 4291615184
0.017080778 0.034652162 0.0052797711 4293716191
0.01609355 0.036098123 0.0050637992 4292924105
0.014114453 0.037582584 0.00461679 4289174162
0.014111133 0.039001569 0.0046301149 4286016614
0.011068873 0.040538598 0.0039355843 4286082409
0.01106554 0.041963361 0.0039489632 4286806645
0.0090596452 0.043473534 0.0034959628 4286609526
0.0070429896 0.044991802 0.0030405335 4286609526
0.0060851737 0.046468537 0.0028317245 4286347124
0.0030337377 0.048050143 0.0021355008 4286347124
0.0010416195 0.049590103 0.0016859981 4286412147
0.0010382412 0.051033899 0.001699556 4286280561
0.0010348629 0.052477702 0.001713114 4286016875
-0.00096785551 0.054033387 0.0012613127 4285293152
-0.00097124261 0.055480991 0.0012749064 4284503377
-0.0019494781 0.056986853 0.0010616233 4283845706
0.03021366 -0.011564597 0.0064977445 4290225061
0.033201274 -0.01008745 0.0072151609 4282132513
0.033198036 -0.008704572 0.0072281468 4280751118
0.034238394 -0.0072947582 0.0074868682 4281935150
0.034235161 -0.005913869 0.0074998355 4282791489
0.034231931 -0.0045329756 0.0075128027 4282332729
0.034228701 -0.0031520864 0.00752577 4282136629
0.033181857 -0.0017901905 0.0072930758 4281676847
0.034222238 -0.00039030422 0.0075517041 4281545521
0.033175386 0.00097556086 0.0073190476 4281348154
0.033172153 0.0023584375 0.0073320335 4281939781
0.030177921 0.0037096299 0.0066411765 4284308067
0.039171118 0.0079193218 0.0087983785 4284108617
0.036174417 0.0092818281 0.0081070457 4282265396
0.036171194 0.010658963 0.0081199771 4281343785
0.037151348 0.012035291 0.0083641978 4281869357
0.039158285 0.013405083 0.0088498928 4282001965
0.039155073 0.014776523 0.0088627711 4280820509
0.040178347 0.016141264 0.0091170203 4280756516
0.040175144 0.017510751 0.00912988 4280100397
0.020130971 0.02894 0.0045287851 4287725461
0.017083012 0.030425349 0.0038266031 4291675862
0.017079704 0.031838704 0.0038398751 4291152077
0.017076397 0.03325206 0.0038531472 4292731614
0.016089166 0.034696169 0.0036353103 4294043873
0.016085854 0.036111396 0.0036486001 4293121484
0.014106737 0.03759589 0.0031978209 4289371541
0.014103416 0.039014876 0.0032111458 4286082407
0.011061125 0.04055196 0.0025108338 4286082409
0.011057791 0.041976724 0.0025242132 4286806645
0.0090518761 0.04348693 0.002067398 4286675319
0.0070351991 0.045005232 0.0016081394 4286675319
0.0060773729 0.046481986 0.0013975272 4286544503
0.0030259057 0.048063647 0.00069547765 4286281331
0.001033767 0.049603645 0.00024221999 4286083182
0.0010303888 0.051047441 0.00025577791 4285754217
-0.00097234151 0.052599359 -0.0001998735 4285424738
0.0010236322 0.05393504 0.00028289386 4284832601
0.0010202541 0.055378839 0.00029645182 4284371791
-0.0019573611 0.057000443 -0.00038781686 4283911499
0.030206108 -0.011551576 0.0051092017 4290225320
0.033193752 -0.010074482 0.0058323098 4282592813
0.034234114 -0.0086627016 0.0060930317 4280289804
0.036205593 -0.0072308732 0.0065747327 4280751648
0.034227651 -0.0059009194 0.0061189663 4282003000
0.034224421 -0.0045200265 0.0061319335 4282070329
0.034221191 -0.0031391371 0.0061449008 4281808182
0.034217957 -0.0017582451 0.0061578681 4281611057
0.034214728 -0.00037735479 0.0061708353 4281939770
0.034211498 0.0010035373 0.0061838026 4281216055
0.033164632 0.0023714055 0.0059491829 4281545022
0.033161394 0.0037542821 0.0059621688 4283781982
0.03016712 0.0051112166 0.0052656732 4285032554
0.030163871 0.0064997831 0.0052787126 4285097056
0.03916366 0.0079321824 0.0074269567 4284306257
0.039160453 0.0093036229 0.007439835 4282396984
0.037147086 0.010672923 0.0069760466 4281212199
0.039154034 0.012046503 0.0074655921 4281277990
0.040177308 0.013415131 0.0077218297 4281477161
0.040174104 0.014784618 0.0077346899 4281019431
0.040170901 0.016154107 0.0077475496 4280626731
0.040167693 0.017523594 0.0077604097 4278786079
0.019093081 0.028977579 0.002877184 4287921813
0.017075324 0.030438602 0.0024132812 4292858598
0.017072018 0.031851958 0.0024265533 4291874521
0.01706871 0.033265315 0.0024398253 4293256425
0.016081469 0.034709439 0.0022200812 4294175208
0.016078157 0.036124665 0.0022333709 4293187283
0.014099019 0.037609197 0.0017788517 4289502875
0.014095698 0.039028183 0.0017921767 4286148202
0.012050699 0.040526547 0.0013221855 4286082668
0.011050042 0.041990083 0.0010994626 4286872184
0.0090441061 0.043500327 0.00063883309 4286741112
0.0070274086 0.045018665 0.00017574508 4286675319
0.0060695726 0.046495438 -3.6670008e-05 4286676089
0.0030180737 0.048077151 -0.00074451574 4286281331
0.0010259144 0.049617182 -0.0012015729 4285754987
0.0010225363 0.051060978 -0.0011880151 4285293666
0.0010191581 0.052504782 -0.001174457 4284833115
0.0030045963 0.053837221 -0.00069042598 4284438357
0.0030012268 0.05527724 -0.00067690352 4284174671
0.031198232 -0.011507081 0.0039599105 4290358187
0.033186231 -0.010061514 0.0044494444 4281802276
0.034226604 -0.0086497525 0.0047121481 4279959818
0.036198102 -0.007217959 0.0051976335 4281344042
0.03422014 -0.0058879699 0.0047380822 4281675318
0.034216911 -0.0045070769 0.0047510494 4281545271
0.036188435 -0.0030865551 0.0052364296 4281216819
0.034210447 -0.0017452955 0.004776984 4281939772
0.034207217 -0.00036440522 0.0047899513 4281807417
0.034203988 0.0010164869 0.0048029185 4281609784
0.034200754 0.002397377 0.0048158858 4281807933
0.033153873 0.0037672503 0.0045793029 4283914847
0.031159297 0.0051328908 0.0041161678 4285034094
0.03015632 0.0065128049 0.0038901549 4284900964
0.03015307 0.0079013705 0.0039031941 4283978576
0.039152991 0.0093164835 0.0060683978 4282528309
0.039149784 0.010687924 0.0060812761 4281934889
0.039146576 0.012059364 0.0060941549 4282330160
0.040169861 0.013427974 0.006352359 4281674540
0.040166654 0.014797461 0.0063652191 4281282351
0.04016345 0.01616695 0.0063780793 4280561200
0.040160246 0.017536437 0.0063909395 4278983973
0.019085417 0.028990796 0.0014676766 4286738309
0.019082118 0.030400321 0.0014809127 4290752968
0.019078819 0.031809844 0.0014941489 4292597997
0.017061023 0.03327857 0.0010264736 4293321716
0.016073771 0.034722712 0.00080488191 4294175218
0.016070459 0.036137938 0.00081817154 4293253597
0.016067149 0.037553165 0.00083146122 4289766568
0.014087982 0.039041489 0.00037322252 4286542968
0.01204296 0.040539891 -0.00010067263 4286411636
0.011042293 0.042003445 -0.00032527288 4287069566
0.0090363361 0.043513726 -0.00078970194 4286938237
0.0060651284 0.045074668 -0.0014843501 4286938237
0.0040323911 0.046603262 -0.0019549888 4286610296
0.003010242 0.048090655 -0.0021845091 4286083952
0.0010180621 0.049630724 -0.002645351 4285228389
0.0010146839 0.05107452 -0.002631793 4284373080
0.0010113056 0.052518323 -0.0026182351 4283780943
0.0010079273 0.053962119 -0.0026046771 4283517771
0.0029933951 0.055290744 -0.0021168969 4283451978
0.030191004 -0.011525533 0.0023321013 4290096042
0.033178709 -0.010048546 0.0030665935 4282328109
0.033175476 -0.0086656678 0.0030795794 4280222733
0.03717396 -0.0071797161 0.0040576709 4281147431
0.036187392 -0.0058279103 0.0038334364 4281478451
0.036184169 -0.0044507761 0.0038463685 4281414198
0.037164304 -0.0030539238 0.0040964144 4281282613
0.037161089 -0.0016786596 0.0041093286 4282202175
0.034199707 -0.00035145579 0.0034090821 4282004283
0.034196477 0.0010294362 0.0034220493 4281412146
0.033149589 0.0023973417 0.0031834661 4281545014
0.031155 0.0037592305 0.002716481 4283586394
0.030152015 0.0051372596 0.0024885728 4284705899
0.030148767 0.0065258262 0.0025016121 4284639075
0.030145518 0.0079143923 0.0025146515 4284044626
0.037135344 0.0093234526 0.0042126435 4283119674
0.037132129 0.010698717 0.0042255581 4282658353
0.039139114 0.012072225 0.0047227326 4282593330
0.040162411 0.013440817 0.0049828887 4281608747
0.040159207 0.014810303 0.0049957489 4280953134
0.039129488 0.016186547 0.004761368 4280231981
0.03711604 0.017575037 0.00429013 4278917410
0.037112821 0.018950302 0.0043030442 4279246893
0.034151241 0.020361913 0.0036035904 4283785583
0.030113028 0.021800052 0.0026450444 4289244092
0.028101889 0.023220927 0.0021746638 4291017421
0.028098632 0.024613312 0.0021877389 4288383645
0.028095372 0.026005697 0.0022008142 4283381581
0.028092114 0.027398081 0.0022138893 4286934403
0.020108005 0.028979599 0.00030613347 4290685889
0.019074451 0.030413538 7.1405288e-05 4293713655
0.019071154 0.031823061 8.4641382e-05 4293255674
0.017053338 0.033291824 -0.00038684826 4292137446
0.016066074 0.034735981 -0.00061033235 4293649392
0.016062763 0.036151208 -0.00059704267 4292135122
0.016059451 0.037566438 -0.00058375305 4288779934
0.014080264 0.039054796 -0.0010457466 4286082419
0.012035222 0.040553235 -0.0015235158 4285753454
0.011034545 0.042016804 -0.0017500382 4286279796
0.009028567 0.043527123 -0.0022182669 4286082928
0.0070118275 0.045045532 -0.0026890286 4285688170
0.0060539721 0.046522334 -0.0029050794 4284504920
0.0030024101 0.04810416 -0.0036245026 4284241748
0.0010102097 0.049644262 -0.0040891292 4283781456
0.0010068314 0.051088057 -0.0040755714 4283452491
0.0010034532 0.052531861 -0.0040620132 4283189321
0.001000075 0.05397566 -0.0040484555 4283057735
0.033174425 -0.011418452 0.0016707419 4289635493
0.036189567 -0.0099463994 0.0024175264 4282196521
0.036186345 -0.0085692648 0.0024304583 4279894022
0.039176583 -0.0071150805 0.0031710116 4280621341
0.0361799 -0.0058149961 0.0024563223 4280820773
0.036176678 -0.004437862 0.0024692542 4280887852
0.037156828 -0.0030410271 0.0027211476 4280822061
0.034195427 -0.0017193966 0.0020152458 4281806903
0.034192197 -0.00033850633 0.0020282131 4281608754
0.034188967 0.0010423857 0.0020411804 4281148203
0.033142067 0.0024103099 0.0018006006 4281281070
0.031147458 0.0037722341 0.0013298306 4283257170
0.030144464 0.0051502809 0.0011000152 4284507748
0.030141216 0.0065388479 0.0011130546 4284506719
0.030137965 0.0079274131 0.0011260938 4284110162
0.030134717 0.0093159797 0.0011391331 4283382589
0.036141235 0.010710619 0.0026115056 4283118133
0.03712143 0.012086878 0.002863206 4282856757
0.039128449 0.013456526 0.0033641886 4281805611
0.04015176 0.014823146 0.0036262786 4281216047
0.03912203 0.016199406 0.0033899455 4280692019
0.037108559 0.017587934 0.0029148634 4279377703
0.034146961 0.01899397 0.0022097542 4279509549
0.033100005 0.020387704 0.0019694166 4283916653
0.028097574 0.021841599 0.00076921657 4289178297
0.028094316 0.023233984 0.0007822917 4291675349
0.028091058 0.024626369 0.00079536688 4288778402
0.0280878 0.026018754 0.00080844201 4284105559
0.028084543 0.027411139 0.00082151714 4287395209
0.022098389 0.028945412 -0.00061673392 4290685889
0.020097056 0.030400362 -0.0010882043 4292398306
0.019063488 0.031836279 -0.0013248661 4290887124
0.017045651 0.033305079 -0.0018002 4289439931
0.016058378 0.034749255 -0.0020255465 4290293949
0.016055066 0.036164481 -0.002012257 4288516507
0.016051754 0.037579708 -0.0019989673 4286214007
0.014072546 0.039068103 -0.0024647156 4284569180
0.012027483 0.040566575 -0.0029463887 4283911763
0.011026795 0.042030167 -0.0031747886 4284306519
0.009020797 0.043540519 -0.0036468317 4284306517
0.0060495278 0.045101568 -0.0043527596 4283582794
0.0060461718 0.046535786 -0.0043392912 4282596923
0.0060428157 0.047970012 -0.0043258234 4282662716
0.0060394602 0.04940423 -0.0043123555 4282728255
0.00099897897 0.051101599 -0.0055193491 4282794048
0.00099560083 0.052545398 -0.0055057914 4282728770
0.030179149 -0.012888054 -0.00045805314 4291676364
0.0301759 -0.01149949 -0.00044501384 4290556082
0.034207303 -0.009991793 0.0005565735 4282657070
0.036178857 -0.0085563511 0.0010533442 4280288777
0.037159 -0.0071539227 0.0013071678 4281081374
0.036172412 -0.0058020819 0.0010792081 4281281322
0.03616919 -0.0044249478 0.00109214 4281413937
0.036165968 -0.0030478123 0.001105072 4281348144
0.034187917 -0.0017064471 0.00063437683 4282135352
0.034184687 -0.0003255569 0.00064734404 4281740081
0.033137783 0.0010404014 0.00040474895 4280884770
0.033134546 0.0024232781 0.00041773482 4281083945
0.030140162 0.0037747372 -0.00030158166 4283322447
0.030136911 0.0051633026 -0.00028854239 4284573539
0.030133663 0.0065518692 -0.00027550309 4284572253
0.030130414 0.0079404349 -0.00026246379 4284175184
0.030127166 0.0093290014 -0.00024942451 4283316795
0.036133744 0.010723534 0.0012343914 4283052340
0.03711395 0.012099775 0.0014879691 4282329900
0.039120991 0.013469387 0.0019927663 4281410853
0.03911778 0.014840827 0.0020056448 4281281324
0.039114572 0.016212268 0.0020185232 4281019955
0.039111361 0.017583707 0.0020314017 4279574566
0.03611441 0.018986342 0.001311983 4279377704
0.034136221 0.020387812 0.00084185234 4283390307
0.031097738 0.021811875 0.00011245883 4288651694
0.030094676 0.023214662 -0.00011903162 4290886601
0.030091425 0.024603227 -0.00010599233 4288779170
0.031088004 0.025971867 0.00015152313 4285487723
0.028076969 0.027424196 -0.00057084003 4287329927
0.023058895 0.0289356 -0.0017837979 4288317852
0.02208747 0.030362342 -0.0020072928 4287595415
0.020086108 0.031821128 -0.0024825272 4285229181
0.019052524 0.033259023 -0.0027211374 4284044903
0.017034655 0.034731686 -0.0032002646 4285951611
0.017031349 0.036145043 -0.0031869926 4284963685
0.016044058 0.037592981 -0.0034141666 4284437596
0.014064829 0.03908141 -0.0038836848 4283845457
0.012019744 0.040579919 -0.0043692319 4282793282
0.011019046 0.042043526 -0.0045995391 4282793280
0.0069995984 0.043639988 -0.0055672382 4283056450
0.006041727 0.045115016 -0.0057869717 4282464313
0.0060383715 0.046549235 -0.0057735033 4282333751
0.0060350155 0.04798346 -0.0057600355 4282399544
0.0060316599 0.049417678 -0.0057465676 4282530876
0.027168918 -0.018552709 -0.0026436914 4287727771
0.030174846 -0.0142636 -0.0018596351 4289110186
0.030171597 -0.012875034 -0.0018465959 4293781742
0.033159383 -0.011392516 -0.0010949746 4288911259
0.034199793 -0.0099788439 -0.00082429557 4282196774
0.036171366 -0.0085434364 -0.00032378492 4279894017
0.037151519 -0.0071410257 -6.8083857e-05 4280752408
0.036164921 -0.0057891677 -0.00029792104 4281083683
0.036161698 -0.0044120331 -0.0002849891 4281216297
0.036158476 -0.0030348978 -0.00027205714 4281018918
0.034180406 -0.0016934976 -0.00074649224 4281740333
0.034177177 -0.00031260747 -0.00073352503 4281213476
0.033130262 0.0010533694 -0.00097810186 4280489753
0.031135619 0.0024115772 -0.0014564766 4280951844
0.030132608 0.0037877588 -0.0016901244 4283519311
0.03012936 0.0051763239 -0.0016770851 4284902245
0.031125886 0.0065715704 -0.0014174124 4284900705
0.030122861 0.0079534566 -0.0016510065 4284240464
0.033110846 0.0093506286 -0.00090018671 4283118903
0.036126252 0.010736449 -0.00014273773 4282657836
0.037106469 0.012112672 0.00011271743 4282395691
0.039113529 0.013482248 0.00062134402 4281805096
0.039110322 0.014853688 0.00063422252 4281675567
0.039107114 0.016225129 0.00064710097 4281282612
0.039103903 0.017596569 0.00065997941 4279705637
0.036106922 0.018999256 -6.5146065e-05 4279771691
0.034128711 0.020400761 -0.00053901674 4283784807
0.034125481 0.021781651 -0.00052604952 4288849072
0.033078492 0.023179393 -0.0007703281 4291741908
0.033075254 0.024562268 -0.0007573422 4289240232
0.033072017 0.025945146 -0.00074435637 4285422696
0.033068784 0.027328022 -0.00073137053 4284764766
0.033065546 0.028710898 -0.00071838463 4284305246
0.033062313 0.030093774 -0.00070539879 4283714651
0.017033583 0.031918228 -0.0046401457 4283189594
0.017030276 0.033331584 -0.0046268734 4283847778
0.01702697 0.034744941 -0.0046136016 4284438370
0.017023662 0.036158297 -0.0046003293 4284700513
0.019034963 0.037500817 -0.0040909364 4285358955
0.01603305 0.039021481 -0.0048161061 4285096037
0.014053791 0.040513702 -0.0052893288 4283319626
0.014050471 0.041932687 -0.0052760039 4282661694
0.0010001651 0.04390968 -0.0084747253 4282924864
0.00099678687 0.04535348 -0.0084611671 4282661692
-0.0010060318 0.0468904 -0.0089397589 4282728509
-0.0010094189 0.048338003 -0.0089261653 4282728509
0.030167295 -0.014250578 -0.0032481779 4286610052
0.030164044 -0.012862012 -0.0032351385 4289636784
0.034195513 -0.011346787 -0.0022181468 4289371810
0.034192283 -0.0099658938 -0.0022051795 4282328358
0.036163874 -0.0085305218 -0.0017008991 4280156673
0.037144043 -0.0071281292 -0.0014433207 4280818453
0.036157429 -0.0057762535 -0.0016750352 4280952095
0.036154211 -0.0043991189 -0.0016621033 4280953378
0.034176126 -0.0030614401 -0.0021403434 4281018401
0.034172896 -0.0016805481 -0.0021273762 4281871659
0.033125974 -0.00031653812 -0.0023739533 4281673510
0.033122741 0.0010663376 -0.0023609677 4280226064
0.031128079 0.0024245807 -0.0028431271 4280885534
0.030121809 0.0051893452 -0.0030656278 4285099109
0.031118345 0.006584574 -0.0028040628 4284769118
0.033103324 0.0093635973 -0.0022830523 4282395434
0.036118764 0.010749362 -0.001519852 4281802014
0.037098989 0.012125568 -0.0012625194 4282198566
0.039106071 0.013495109 -0.00075007824 4281607715
0.039102864 0.01486655 -0.00073719979 4281017891
0.037089337 0.016251361 -0.0012237763 4280427044
0.037086118 0.017626625 -0.0012108618 4279375643
0.037082903 0.019001888 -0.0011979474 4279903018
0.036096208 0.020389305 -0.0014293283 4283915878
0.033074204 0.021809485 -0.0021661797 4288388775
0.03307097 0.023192361 -0.0021531938 4288781221
0.033067733 0.024575237 -0.0021402079 4287529612
0.034108277 0.025937276 -0.0018680318 4285686380
0.034105044 0.027318165 -0.0018550646 4285423208
0.034101814 0.028699057 -0.0018420974 4285424238
0.034098584 0.030079948 -0.0018291302 4284767850
0.045079604 0.03115798 0.00091055938 4283913571
0.045076422 0.032517981 0.00092333043 4284308328
0.017019283 0.034758192 -0.006026953 4285293679
0.017015975 0.036171552 -0.0060136812 4286279545
0.017012669 0.037584905 -0.0060004089 4286806401
0.017009361 0.038998265 -0.0059871371 4285753967
0.017006055 0.040411621 -0.0059738648 4283648591
0.014042754 0.041945994 -0.006694973 4282595901
0.00099231279 0.043923222 -0.0099184886 4282661692
0.00098893454 0.045367021 -0.0099049304 4282727485
-0.0010139049 0.046903975 -0.010387352 4282794302
-0.001017292 0.048351578 -0.010373757 4282728509
0.030156493 -0.012848991 -0.0046236813 4288584096
0.03314434 -0.011366581 -0.0038606911 4286608504
0.034184773 -0.0099529447 -0.0035860485 4281473049
0.036156386 -0.008517608 -0.0030780134 4279369728
0.037136562 -0.0071152323 -0.0028185723 4279371008
0.036149941 -0.0057633389 -0.0030521494 4279175938
0.036146719 -0.0043862048 -0.0030392176 4279176195
0.036143497 -0.0030090695 -0.0030262854 4279307781
0.034165386 -0.0016675986 -0.0035082453 4280753176
0.033118453 -0.00030357009 -0.0037568042 4281081114
0.033115219 0.0010793057 -0.0037438185 4281015321
0.030120755 0.0024252352 -0.0044802492 4281674791
0.030114256 0.005202367 -0.0044541704 4285690731
0.031110803 0.0065975776 -0.0041907132 4285031774
0.030107759 0.0079794992 -0.0044280919 4283648068
0.033095803 0.009376565 -0.0036659031 4281999906
0.034136306 0.010760422 -0.0033915404 4281078291
0.03610805 0.012139412 -0.0028840341 4281014292
0.037088294 0.013513729 -0.0026248565 4280423695
0.039095402 0.01487941 -0.0021086221 4279898639
0.039092194 0.016250851 -0.0020957435 4279242255
0.037078641 0.017639522 -0.0025861135 4278849041
0.037075423 0.019014785 -0.0025731991 4280099368
0.037072204 0.020390049 -0.0025602847 4283389018
0.033066683 0.021822453 -0.0035490305 4286743178
0.034107227 0.023188442 -0.0032748354 4287202442
0.034103997 0.024569333 -0.0032618681 4286477690
0.034100767 0.025950225 -0.0032489009 4285555562
0.034091074 0.030092897 -0.0032099993 4285820790
0.045072205 0.031170733 -0.00044940459 4285558393
0.045069024 0.032530732 -0.00043663353 4286150530
0.045065843 0.033890732 -0.00042386251 4286148988
0.045062661 0.035250731 -0.00041109149 4287135367
0.016998367 0.040424876 -0.0073872018 4282990661
0.028150931 -0.017079903 -0.0065587186 4281872447
0.03014894 -0.012835969 -0.006012239 4287136396
0.033136819 -0.011353612 -0.005243557 4286279798
0.036152117 -0.009881828 -0.0044680745 4283447352
0.036148895 -0.0085046934 -0.0044551427 4280815371
0.037129082 -0.0071023358 -0.0041938238 4280884244
0.03614245 -0.0057504247 -0.0044292784 4280360210
0.037122644 -0.0043518087 -0.0041679954 4280294930
0.036136005 -0.0029961551 -0.0044034147 4280754968
0.034157876 -0.001654649 -0.0048891292 4282595378
0.033110935 -0.00029060192 -0.0051396699 4283318074
0.03111624 0.0010639238 -0.0056294343 4282462767
0.030106705 0.0052153883 -0.0058427281 4286677369
0.031103261 0.0066105812 -0.0055773486 4285623911
0.031100016 0.0079972455 -0.0055643274 4283911240
0.033088285 0.0093895327 -0.0050487691 4281999906
0.033085048 0.010772409 -0.0050357832 4281012496
0.034125566 0.012154263 -0.004759457 4281277462
0.037080813 0.013526626 -0.0040001082 4280884246
0.037077595 0.014901889 -0.003987194 4280490263
0.037074376 0.016277153 -0.0039742794 4280228634
0.037071161 0.017652418 -0.0039613652 4280426790
0.037067942 0.019027682 -0.0039484506 4281874750
0.037064724 0.020402946 -0.0039355364 4284374630
0.043084648 0.032601826 -0.0022948731 4285689720
0.045058444 0.033903487 -0.0017838563 4286544000
0.045055263 0.035263486 -0.0017710853 4287266953
0.036144629 -0.0098689133 -0.0058451886 4286342760
0.036141407 -0.0084917797 -0.0058322567 4285618519
0.037121601 -0.0070894388 -0.0055690757 4284371789
0.036134962 -0.0057375105 -0.0058063925 4283781705
0.03613174 -0.0043603759 -0.0057934606 4283782473
0.036128517 -0.0029832409 -0.0057805288 4285032026
0.033106647 -0.0016605096 -0.0065355068 4286345063
0.031111943 -0.00030973757 -0.0070291064 4286409829
0.031108698 0.0010769275 -0.0070160846 4283843648
0.031095719 0.0066235848 -0.006963999 4287202943
0.031092474 0.0080102487 -0.0069509777 4284700756
0.033080764 0.0094025014 -0.0064316196 4283447352
0.033077527 0.010785378 -0.0064186337 4284499525
0.034118056 0.012167212 -0.0061403261 4284172867
0.036089849 0.013542375 -0.0056253457 4283844929
0.036086626 0.014919509 -0.0056124134 4283516741
0.037066899 0.01629005 -0.0053495313 4283517771
0.037063681 0.017665314 -0.0053366167 4283913560
0.04307723 0.032614615 -0.0036586069 4286215548
0.045051049 0.033916239 -0.0031438351 4287201930
0.045047868 0.035276238 -0.0031310641 4285557105
0.036133915 -0.008478865 -0.0072093708 4288185218
0.037114121 -0.0070765419 -0.0069443271 4287596161
0.037110902 -0.0057012779 -0.006931413 4287334529
0.036124248 -0.0043474617 -0.0071705752 4287138431
0.034146085 -0.0030096422 -0.0076638497 4287795078
0.034142856 -0.00162875 -0.0076508825 4288384648
0.031104401 -0.0002967339 -0.0084157567 4287988607
0.02808366 0.005224376 -0.00913426 4287927434
0.028080402 0.0066167619 -0.0091211852 4287399809
0.028077144 0.0080091469 -0.0091081094 4286016616
0.028073886 0.0094015319 -0.0090950346 4285815900
0.028070627 0.010793917 -0.0090819597 4287262831
0.034110546 0.012180162 -0.0075212102 4287002480
0.036082361 0.013555289 -0.0070024598 4286740591
0.036079139 0.014932424 -0.006989528 4286609012
0.036126427 -0.0084659504 -0.0085864998 4288777361
0.036123205 -0.0070888163 -0.0085735684 4288517523
0.036119983 -0.0057116821 -0.0085606361 4288321941
0.03611676 -0.0043345476 -0.0085477037 4287993488
0.034138575 -0.0029966927 -0.0090447189 4288255631
0.033091605 -0.0016345733 -0.0093012378 4288318601
0.033088371 -0.00025169758 -0.0092882523 4287593849
0.028085859 0.0010602777 -0.010565843 4285225301
0.028079344 0.0038450486 -0.010539693 4287794567
0.028076086 0.0052374331 -0.010526617 4288716952
0.028072828 0.0066298191 -0.010513542 4288386704
0.028069571 0.008022204 -0.010500467 4287398269
0.028066313 0.009414589 -0.010487392 4286934897
0.028063055 0.010806974 -0.010474317 4287921276
0.036112491 -0.0056987675 -0.0099377502 4287927444
0.036109269 -0.0043216334 -0.0099248188 4287533197
0.034131065 -0.0029837431 -0.010425603 4287729804
0.033084083 -0.0016216051 -0.010684104 4287990408
0.03308085 -0.00023872942 -0.010671118 4287528058
0.027066899 0.0024533584 -0.012207294 4286805362
0.028071772 0.003858106 -0.01193208 4289044634
0.028068515 0.0052504907 -0.011919004 4289703847
0.028065255 0.0066428767 -0.011905929 4289110940
0.028061997 0.0080352612 -0.011892854 4287925126
0.028058739 0.0094276462 -0.011879778 4286869104
0.028055482 0.010820032 -0.011866704 4286935151
0.027059317 0.0024664337 -0.013601588 4288252810
0.027056053 0.0038607367 -0.013588495 4289768872
0.027052792 0.0052550393 -0.013575402 4289835179
0.027049528 0.0066493419 -0.013562309 4289045149
0.027046267 0.008043644 -0.013549215 4288188044
0.027043004 0.0094379475 -0.013536123 4287329656
0.027051732 0.002479509 -0.014995867 4288450959
0.02704847 0.0038738118 -0.014982775 4290032044
0.027045207 0.0052681142 -0.014969681 4289967278
0.027041946 0.0066624167 -0.014956588 4289177249
0.027038682 0.0080567198 -0.014943495 4288385936
0.027035421 0.0094510224 -0.014930402 4287527548
0.027032157 0.010845325 -0.014917308 4287527547
0.023034068 0.0038455918 -0.017441738 4289965996
0.023030788 0.0052475147 -0.017428575 4290164658
0.023027508 0.0066494383 -0.01741541 4289374629
0.023024227 0.0080513619 -0.017402245 4288320144
0.030044092 0.009472237 -0.015523454 4287198583
0.030040843 0.010860804 -0.015510415 4287133302
0.023026444 0.0038587383 -0.018843632 4289834410
0.023023164 0.0052606617 -0.018830467 4289966766
0.023019882 0.0066625853 -0.018817304 4289176480
0.025052203 0.0080738366 -0.018259499 4287925386
0.027020253 0.009477173 -0.017718975 4286804852
0.027016992 0.010871476 -0.017705882 4287133817
0.022050625 0.0038619414 -0.020506473 4289702313
0.022047341 0.0052657062 -0.020493291 4290162864
0.023012258 0.0066757319 -0.020219211 4289569957
0.0250446 0.0080869468 -0.019657534 4288122254
0.028020876 0.0094929328 -0.018841609 4287265916
0.028017618 0.010885318 -0.018828534 4286870904
0.020044802 0.0038546191 -0.022452554 4289898922
0.022039706 0.00527887 -0.021897048 4290425266
0.02203642 0.0066826344 -0.021883866 4289767079
0.025036996 0.008100058 -0.021055583 4288319633
0.025033725 0.0094981091 -0.021042455 4287266430
0.028010044 0.010898375 -0.020220907 4286871674
0.020037146 0.0038678187 -0.02386011 4289964715
0.022032071 0.0052920342 -0.023300789 4290425266
0.022028787 0.0066957986 -0.023287607 4289832872
0.022993729 0.0081039481 -0.023009863 4288517012
0.025026122 0.0095112203 -0.022440489 4287398016
0.025022849 0.010909271 -0.02242736 4286871674
0.018999126 0.0038704914 -0.02555123 4289964715
0.020026198 0.0052885828 -0.025254432 4290425266
0.022021152 0.0067089624 -0.024691362 4289898665
0.022017866 0.0081127277 -0.02467818 4288648598
0.022982823 0.0095190192 -0.024398606 4287463809
0.022979543 0.010920942 -0.024385441 4286806394
0.018991459 0.0038837092 -0.026960736 4289898922
0.020018542 0.0053017824 -0.026661988 4290359473
0.020015247 0.0067093484 -0.026648769 4289898665
0.022010231 0.0081258919 -0.026081922 4288780184
0.022006948 0.0095296567 -0.02606874 4287529602
0.022003664 0.010933422 -0.026055558 4286674808
0.02001418 0.0039074179 -0.028082745 4289898922
0.022009166 0.005331526 -0.027512042 4290293680
0.020007594 0.0067225476 -0.02805631 4289964458
0.020004299 0.0081301127 -0.028043093 4288911770
0.020001005 0.0095376773 -0.028029876 4287661188
0.019997712 0.010945243 -0.028016657 4286609015
0.022004817 0.0039409255 -0.028928965 4289964715
0.020003231 0.0053281817 -0.029477084 4290359473
0.019999938 0.0067357477 -0.029463867 4290030251
0.019996643 0.0081433123 -0.029450648 4289109149
0.01999335 0.0095508769 -0.02943743 4287792774
0.019990057 0.010958442 -0.029424213 4286674808
0.021997182 0.0039540892 -0.03033272 4290030508
0.021993898 0.0053578541 -0.030319538 4290425266
0.019992283 0.0067489468 -0.030871406 4290161837
0.019988989 0.0081565119 -0.030858189 4289240735
0.019985694 0.0095640766 -0.030844972 4287924360
0.02295782 0.0039770589 -0.031460807 4290030508
0.021986263 0.0053710183 -0.03172328 4290293680
0.021982977 0.0067747822 -0.031710096 4290161837
0.021979693 0.008178548 -0.031696916 4289043356
0.019978039 0.0095772762 -0.032252528 4287595395
0.019974746 0.010984842 -0.03223931 4286937978
0.022950197 0.0039902055 -0.032862701 4290030508
0.022946917 0.0053921286 -0.032849535 4290293680
0.021975344 0.0067879464 -0.033113852 4290161837
0.021972058 0.0081917113 -0.033100672 4289043356
0.021968774 0.0095954761 -0.033087488 4287661188
0.01996709 0.010998041 -0.033646848 4286937980
0.021974279 0.0039935815 -0.034543958 4290030508
0.021970993 0.0053973459 -0.034530777 4290293680
0.021967709 0.0068011102 -0.034517594 4290227630
0.021964423 0.0082048755 -0.034504414 4289109149
0.021969927 0.0026029798 -0.035960898 4288979105
0.021966644 0.0040067453 -0.035947714 4290030508
0.021963358 0.0054105101 -0.035934534 4290227887
0.021960074 0.0068142745 -0.03592135 4290227630
0.02195679 0.0082180398 -0.03590817 4289174942
0.021968862 -0.00019138584 -0.037390999 4287465612
0.021965578 0.0012123793 -0.037377819 4287860624
0.021962292 0.0026161436 -0.037364636 4289044898
0.021959009 0.0040199095 -0.037351456 4289964715
0.021955723 0.0054236739 -0.037338272 4290227887
0.021952439 0.0068274383 -0.037325092 4290293423
0.021949155 0.008231204 -0.037311908 4289240735
0.021961227 -0.00017822179 -0.038794756 4287531405
0.021957943 0.0012255434 -0.038781576 4287992210
0.021954658 0.0026293078 -0.038768392 4289110691
0.021951374 0.0040330733 -0.038755212 4289964715
0.02194809 0.0054368381 -0.038742028 4290227887
0.021944804 0.0068406025 -0.038728848 4290293423
0.02194152 0.0082443673 -0.038715664 4289372321
0.021938235 0.0096481321 -0.038702484 4287924360
0.021953592 -0.00016505786 -0.040198497 4287531405
0.021950308 0.0012387073 -0.040185317 4288058003
0.021947024 0.0026424716 -0.040172134 4289110691
0.021943739 0.0040462371 -0.040158954 4289964715
0.021940455 0.0054500019 -0.04014577 4290227887
0.021937169 0.0068537663 -0.04013259 4290359216
0.021933885 0.0082575316 -0.040119406 4289372321
0.021930601 0.0096612964 -0.040106226 4287924360
0.019947506 -0.00018328184 -0.042197894 4287465612
0.019944213 0.001224283 -0.042184677 4288123542
0.021939389 0.0026556356 -0.04157589 4289176484
0.021936104 0.0040594013 -0.04156271 4289833901
0.02193282 0.0054631662 -0.041549526 4290227887
0.021929534 0.0068669305 -0.041536342 4290359216
0.02192625 0.0082706958 -0.041523162 4289438112
0.021922966 0.0096744606 -0.041509978 4287990153
0.016894411 -0.00021786104 -0.044518922 4287531407
0.019936558 0.0012374825 -0.043592218 4287991958
0.019933265 0.0026450474 -0.043579001 4288649886
0.01992997 0.0040526134 -0.04356578 4289636522
0.019926677 0.005460178 -0.043552563 4290294450
0.019923383 0.0068677436 -0.043539345 4290162094
0.01992009 0.0082753086 -0.043526128 4289109660
0.019916797 0.0096828733 -0.043512911 4287859080
0.018901695 -0.00017303127 -0.045324042 4287531408
0.018898398 0.001236493 -0.045310806 4288189337
0.019925609 0.002658247 -0.044986553 4288847265
0.019922314 0.0040658135 -0.044973336 4289833903
0.019919021 0.0054733776 -0.044960119 4290360243
0.019915728 0.0068809437 -0.044946902 4290162094
0.019912435 0.0082885083 -0.044933684 4289109660
0.019909142 0.0096960729 -0.044920467 4287859079
0.019905848 0.011103638 -0.04490725 4286938491
0.01889403 -0.00015981327 -0.046733547 4287531408
0.018890731 0.001249711 -0.046720311 4288386716
0.019917954 0.0026714467 -0.046394095 4289044644
0.019914661 0.0040790127 -0.046380877 4289965489
0.019911366 0.0054865773 -0.04636766 4290426036
0.019908072 0.0068941428 -0.046354443 4290227887
0.019904779 0.0083017079 -0.046341226 4289175453
0.019901486 0.0097092725 -0.046328008 4287859079
0.019898193 0.011116838 -0.046314791 4286872698
0.019916885 -0.00013048333 -0.047828086 4287531408
0.019913591 0.0012770816 -0.047814868 4288255130
0.019910298 0.0026846463 -0.047801651 4289044644
0.019907005 0.0040922128 -0.047788434 4290031282
0.02190228 0.0055158222 -0.047164518 4290360243
0.021898996 0.0069195866 -0.047151338 4290162094
0.019897124 0.0083149076 -0.047748782 4289175453
0.021892427 0.0097271167 -0.047124974 4287924872
0.021889143 0.011130881 -0.047111791 4286872698
0.019909229 -0.00011728377 -0.049235627 4287531408
0.019905936 0.0012902811 -0.04922241 4288123544
0.019902643 0.0026978459 -0.049209192 4288978851
0.021897931 0.0041252212 -0.048581444 4289965489
0.021894647 0.005528986 -0.04856826 4290228657
0.021891361 0.0069327503 -0.04855508 4290096301
0.021888077 0.0083365152 -0.048541896 4289241246
0.021884792 0.00974028 -0.048528716 4287990665
0.021881508 0.011144045 -0.048515532 4286806905
0.018871032 -0.00012015925 -0.050962072 4287531408
0.019898281 0.0013034807 -0.050629966 4288057751
0.019894987 0.0027110456 -0.050616749 4288978851
0.019891694 0.004118612 -0.050603528 4289965489
0.019888401 0.0055261762 -0.05059031 4290162864
0.019885106 0.0069337417 -0.050577093 4290030508
0.019881813 0.0083413068 -0.050563876 4289307039
0.01987852 0.0097488714 -0.050550658 4288056458
0.019875227 0.011156437 -0.050537441 4286806905
0.019871933 0.012564003 -0.050524224 4286609274
0.01986864 0.013971568 -0.050511006 4286741632
0.018863365 -0.00010694125 -0.05237158 4287531408
0.019890625 0.0013166803 -0.052037504 4288189337
0.019887332 0.0027242452 -0.052024286 4289176230
0.019884039 0.0041318112 -0.052011069 4290097075
0.019880746 0.0055393758 -0.051997852 4290228657
0.019877451 0.0069469414 -0.051984634 4290030508
0.019874157 0.0083545065 -0.051971417 4289307039
0.019870864 0.0097620711 -0.0519582 4288056458
0.019867571 0.011169637 -0.051944982 4286741112
0.018833684 0.012578782 -0.052252453 4286609274
0.018830385 0.013988307 -0.052239217 4286610046
0.018855698 -9.3723116e-05 -0.0537811 4287465615
0.01988297 0.00132988 -0.05344506 4288386716
0.019879676 0.0027374448 -0.053431842 4289373609
0.019876383 0.0041450108 -0.053418625 4290294454
0.01987309 0.0055525755 -0.053405408 4290360243
0.019869797 0.006960141 -0.05339219 4290096301
0.019866502 0.0083677061 -0.053378973 4289372832
0.019863209 0.0097752707 -0.053365756 4288056458
0.019859916 0.011182836 -0.053352538 4286675319
0.018826017 0.012592 -0.053661976 4286609274
0.018822718 0.014001525 -0.05364874 4286478460
0.018848034 -8.050511e-05 -0.055190608 4287465615
0.019875314 0.0013430796 -0.054852601 4288255130
0.019872021 0.0027506445 -0.054839384 4289373609
0.019868728 0.0041582105 -0.054826166 4290162868
0.019865435 0.0055657751 -0.054812949 4290097071
0.021860823 0.0069854064 -0.054170072 4289898922
0.021857537 0.0083891712 -0.054156892 4289307039
0.019855553 0.0097884703 -0.054773293 4288122251
0.01985226 0.011196036 -0.054760076 4286675319
0.019848967 0.012603601 -0.054746859 4286543481
0.019845674 0.014011167 -0.054733641 4285952116
0.019870952 -5.1285566e-05 -0.056273375 4287662994
0.019867659 0.0013562792 -0.056260157 4288386716
0.019864365 0.0027638441 -0.05624694 4289439402
0.019861072 0.0041714101 -0.056233723 4290294454
0.019857779 0.0055789747 -0.056220505 4290228657
0.019854486 0.0069865403 -0.056207284 4290030508
0.019851191 0.0083941054 -0.056194067 4289504418
0.019847898 0.00980167 -0.05618085 4288319630
0.019844605 0.011209236 -0.056167632 4286872698
0.019841311 0.012616801 -0.056154415 4286411895
0.019838018 0.014024367 -0.056141198 4285162600
0.018832702 -5.4069249e-05 -0.05800961 4287860373
0.019860003 0.0013694789 -0.057667699 4288452509
0.01985671 0.0027770437 -0.057654481 4289439402
0.019853417 0.0041846097 -0.05764126 4290228661
0.019850124 0.0055921744 -0.057628043 4290228657
