# .PCD v0.7 - Point Cloud Data file format
VERSION 0.7
FIELDS x y z rgb
SIZE 4 4 4 4
TYPE F F F U
COUNT 1 1 1 1
WIDTH 1060
HEIGHT 1
VIEWPOINT 0 0 0 1 0 0 0
POINTS 1060
DATA ascii
0.015339624 -0.020145105 0.12951688 10658072
0.015332049 -0.018946188 0.12952667 10592534
0.015324414 -0.017747264 0.12953645 11118376
0.015316719 -0.01654833 0.12954623 12691275
0.015309143 -0.01534938 0.12955602 13082703
0.015301448 -0.014150421 0.12956579 11708989
0.015293812 -0.012951449 0.12957557 11381041
0.015286237 -0.011752461 0.12958536 12691790
0.015278601 -0.010553462 0.12959513 12887631
0.015270966 -0.0093544526 0.12960492 12887375
0.015263271 -0.0081554316 0.1296147 12887375
0.015255695 -0.0069563934 0.12962447 12887374
0.015248059 -0.0057573463 0.12963426 12887374
0.015240364 -0.0045582885 0.12964404 13017421
0.015232729 -0.003359216 0.12965381 13212748
0.015225152 -0.0021601308 0.1296636 13017934
0.015217457 -0.00096103537 0.12967338 12887374
0.015209881 0.0002380752 0.12968317 12821838
0.015202185 0.0014371957 0.12969294 12822093
0.015194549 0.0026363293 0.12970273 12692561
0.015186913 0.0038354755 0.12971251 10526483
0.015179277 0.0050346339 0.1297223 13017935
0.015171641 0.0062338049 0.12973207 12363846
0.015164005 0.0074329879 0.12974186 10066179
0.015156309 0.0086321831 0.12975164 10131973
0.015148733 0.0098313913 0.12976143 10197766
0.015141097 0.011030612 0.1297712 10131973
0.015360455 -0.027337767 0.12825137 10066179
0.01535276 -0.026138637 0.12826115 10066179
0.015345184 -0.02493949 0.12827092 10131972
0.015337549 -0.023740333 0.1282807 10131974
0.015329913 -0.022541165 0.12829047 11708469
0.015322338 -0.021341978 0.12830026 13407818
0.015314643 -0.020142788 0.12831004 13407819
0.015307067 -0.01894358 0.12831981 13343053
0.015299432 -0.017744362 0.12832959 13344080
0.015291796 -0.016545132 0.12833937 13344595
0.01528416 -0.01534589 0.12834914 11709241
0.015276466 -0.014146636 0.12835892 12036929
0.015268889 -0.012947366 0.12836871 13279828
0.015261195 -0.011748089 0.12837847 10723867
0.015253559 -0.010548797 0.12838826 10131972
0.015245923 -0.0093494924 0.12839803 10066179
0.015238287 -0.0081501752 0.12840781 10066179
0.015230711 -0.0069508427 0.12841758 10066179
0.015223015 -0.0057515032 0.12842736 10066179
0.015215379 -0.0045521487 0.12843713 10723867
0.015207743 -0.0033527832 0.12844692 11708985
0.015200107 -0.0021534045 0.1284567 10723867
0.015192471 -0.00095401279 0.12846647 10066179
0.015184836 0.00024539008 0.12847625 10066179
0.01517714 0.0014448049 0.12848602 10066179
0.015169564 0.0026442339 0.12849581 10066178
0.015161927 0.0038436742 0.12850559 10131972
0.015154231 0.0050431262 0.12851536 10855456
0.015146595 0.0062425914 0.12852514 12494919
0.015138959 0.0074420688 0.12853491 10066178
0.015131323 0.0086415587 0.1285447 10197767
0.015123686 0.0098410612 0.12855448 10329357
0.01511605 0.011040576 0.12856425 10329357
0.016907098 -0.028443381 0.12719007 12689769
0.015335429 -0.02733722 0.12704395 10066178
0.015327793 -0.026137793 0.12705372 10066178
0.015320216 -0.024938351 0.1270635 10066178
0.015312581 -0.023738898 0.12707327 10066179
0.015304945 -0.022539435 0.12708305 11577395
0.015297369 -0.021339959 0.12709282 12037185
0.015289675 -0.020140473 0.1271026 12036672
0.015282039 -0.018940972 0.12711236 11774522
0.015274462 -0.017741457 0.12712215 10658071
0.015266827 -0.016541934 0.12713192 10592534
0.015259132 -0.015342398 0.12714168 10395150
0.015251496 -0.014142848 0.12715146 10329357
0.01524386 -0.012943286 0.12716123 10526483
0.015236224 -0.011743712 0.12717101 10197768
0.015228588 -0.010544125 0.12718078 10131716
0.015220893 -0.0093445284 0.12719055 10066179
0.015213316 -0.0081449151 0.12720034 10066179
0.01520568 -0.0069452906 0.1272101 10066179
0.015198044 -0.0057456549 0.12721987 10066178
0.015190409 -0.0045460062 0.12722965 10131973
0.015182772 -0.0033463461 0.12723942 10263563
0.015175076 -0.0021466741 0.1272492 10131974
0.01516744 -0.00094698911 0.12725897 10066178
0.015159804 0.00025270905 0.12726875 10000385
0.015152168 0.0014524193 0.12727852 10000384
0.015144532 0.0026521417 0.1272883 10000384
0.015136895 0.0038518766 0.12729807 10131972
0.015129199 0.0050516231 0.12730783 11315246
0.015121622 0.0062513831 0.12731762 12560200
0.015113985 0.0074511548 0.1273274 10000385
0.015106349 0.008650939 0.12733717 11381040
0.015098653 0.0098507358 0.12734695 13083986
0.015091016 0.011050545 0.12735672 13083216
0.01531811 -0.028536374 0.12582618 11315309
0.015310475 -0.027336666 0.12583594 12495177
0.015302839 -0.026136946 0.12584572 12494921
0.015295203 -0.024937211 0.12585548 12494920
0.015287567 -0.02373747 0.12586525 11578166
0.015279932 -0.022537708 0.12587501 10592534
0.015272296 -0.021337941 0.12588479 10526740
0.015264719 -0.020138154 0.12589456 10592535
0.015257084 -0.018938361 0.12590434 11709241
0.015249448 -0.017738553 0.1259141 11381040
0.015241812 -0.016538732 0.12592387 11840573
0.015234175 -0.015338901 0.12593365 12560458
0.015226481 -0.014139059 0.12594341 11315245
0.015218903 -0.012939202 0.12595318 11708985
0.015211208 -0.011739335 0.12596294 12625738
0.015203572 -0.010539453 0.12597272 12625738
0.015195936 -0.0093395598 0.12598248 12625224
0.015188299 -0.0081396541 0.12599225 12625481
0.015180663 -0.0069397353 0.12600203 11249965
0.015173027 -0.0057398053 0.1260118 10197766
0.01516539 -0.0045398623 0.12602156 10131973
0.015157755 -0.0033399069 0.12603134 10131973
0.015150118 -0.0021399388 0.12604111 10131973
0.015142422 -0.00093996036 0.12605087 10131974
0.015134785 0.00026003213 0.12606065 10066179
0.015127149 0.0014600367 0.12607041 10066177
0.015119453 0.0026600533 0.12608019 10000384
0.015111876 0.0038600832 0.12608996 10131972
0.015104179 0.0050601242 0.12609972 12887374
0.015096602 0.006260179 0.12610951 12690762
0.015088907 0.0074602449 0.12611927 10000385
0.01508127 0.0086603239 0.12612905 10329357
0.015073633 0.009860415 0.12613882 10855198
0.015065996 0.011060518 0.12614858 10855455
0.01529311 -0.02853612 0.12461757 10460982
0.015285474 -0.027336119 0.12462734 11446322
0.015277898 -0.026136097 0.1246371 11512115
0.015270262 -0.024936073 0.12464687 11512115
0.015262626 -0.023736032 0.12465664 10921250
0.01525499 -0.022535976 0.1246664 10197766
0.015247354 -0.021335915 0.12467617 10000385
0.015239717 -0.020135837 0.12468594 10066178
0.015232082 -0.018935747 0.1246957 10723866
0.015224446 -0.017735645 0.12470547 10789660
0.01521675 -0.016535534 0.12471522 11183913
0.015209114 -0.015335407 0.12472499 12495178
0.015201478 -0.014135269 0.12473476 11708986
0.015193841 -0.012935117 0.12474453 10986787
0.015186206 -0.011734954 0.12475429 11512114
0.015178569 -0.010534777 0.12476406 11512116
0.015170873 -0.0093345903 0.12477382 13342796
0.015163296 -0.0081343884 0.12478359 13536324
0.0151556 -0.0069341771 0.12479335 12887630
0.015147964 -0.0057339529 0.12480312 12233028
0.015140327 -0.0045337155 0.12481289 11840316
0.015132691 -0.0033334647 0.12482265 11118376
0.015124994 -0.0021332032 0.12483241 11643447
0.015117357 -0.00093292858 0.12484218 12233027
0.015109721 0.00026735823 0.12485195 11446321
0.015102143 0.0014676582 0.12486172 10263562
0.015094507 0.0026679703 0.12487149 10000385
0.01508681 0.0038682937 0.12488125 10066178
0.015079173 0.00506863 0.12489102 11380783
0.015071536 0.0062689786 0.12490079 11118376
0.01506384 0.0074693393 0.12491056 10066178
0.015056263 0.0086697135 0.12492032 10000385
0.015048566 0.0098700989 0.12493009 10000385
0.015040929 0.011070497 0.12493986 10066178
0.015268124 -0.028535863 0.12340838 11183914
0.015260488 -0.027335566 0.12341814 10197767
0.015252852 -0.026135255 0.1234279 10197768
0.015245215 -0.024934931 0.12343767 10263561
0.015237579 -0.023734597 0.12344743 10197767
0.015229943 -0.022534251 0.12345719 10131973
0.015222306 -0.02133389 0.12346695 10066179
0.01521473 -0.020133516 0.12347671 10066177
0.015207093 -0.01893313 0.12348648 10066178
0.015199457 -0.017732736 0.12349624 10066179
0.015191762 -0.016532328 0.123506 10197768
0.015184125 -0.015331908 0.12351576 10986788
0.015176489 -0.014131475 0.12352552 10986788
0.015168793 -0.01293103 0.12353528 11052582
0.015161156 -0.011730571 0.12354504 11774523
0.015153578 -0.010530099 0.12355481 11774523
0.015145883 -0.009329618 0.12356457 12233541
0.015138246 -0.0081291236 0.12357433 11905339
0.015130609 -0.0069286157 0.1235841 11840059
0.015122914 -0.0057280972 0.12359385 11642936
0.015115336 -0.0045275632 0.12360362 11577652
0.01510764 -0.0033270195 0.12361338 10921250
0.015100003 -0.0021264616 0.12362314 11315246
0.015092366 -0.00092589256 0.12363291 11840059
0.015084729 0.00027468952 0.12364268 11249451
0.015077092 0.0014752838 0.12365244 10329356
0.015069395 0.0026758888 0.1236622 10066178
0.015061758 0.0038765077 0.12367196 10066178
0.015054122 0.0050771395 0.12368172 10197767
0.015046484 0.0062777828 0.12369148 11708985
0.015038787 0.0074784383 0.12370124 11708985
0.015031151 0.0086791068 0.12371101 11708985
0.015023513 0.0098797875 0.12372077 11708985
0.015015876 0.011080481 0.12373054 11708984
0.015243091 -0.028535608 0.12219859 11708985
0.015235455 -0.027335012 0.12220835 10526483
0.015227819 -0.026134411 0.1222181 11183915
0.015220242 -0.024933789 0.12222787 11315246
0.015212605 -0.02373316 0.12223763 11315245
0.015204909 -0.022532521 0.12224738 11249708
0.015197332 -0.021331862 0.12225714 10658330
0.015189695 -0.020131197 0.1222669 10066179
0.015182 -0.018930519 0.12227666 10000385
0.015174363 -0.017729826 0.12228642 10000384
0.015166786 -0.016529122 0.12229618 10000385
0.01515909 -0.015328407 0.12230593 10000385
0.015151453 -0.01412768 0.12231569 10000385
0.015143758 -0.01292694 0.12232544 11446577
0.015136121 -0.011726188 0.1223352 12625995
0.015128484 -0.010525421 0.12234496 12364359
0.015120847 -0.0093246438 0.12235472 10921250
0.01511321 -0.0081238532 0.12236448 10131972
0.015105573 -0.0069230511 0.12237424 10000385
0.015097877 -0.0057222364 0.122384 10000385
0.015090239 -0.00452141 0.12239376 10197767
0.015082602 -0.0033205701 0.12240352 10658072
0.015074966 -0.0021197179 0.12241328 10658329
0.015067329 -0.00091885356 0.12242304 10658329
0.015059631 0.00028202275 0.12243279 10723866
0.015051994 0.0014829113 0.12244255 11052583
0.015044358 0.0026838128 0.12245231 10263563
0.015036661 0.0038847264 0.12246206 10000385
0.015029023 0.0050856527 0.12247182 10131972
0.015021445 0.0062865918 0.12248159 12233285
0.015013749 0.0074875425 0.12249134 12560458
0.015006111 0.0086885057 0.12250111 12625995
0.014998415 0.0098894807 0.12251087 12495176
0.014990777 0.01109047 0.12252063 12233028
0.015218072 -0.028535351 0.12098821 10197767
0.015210494 -0.027334459 0.12099797 11052582
0.015202799 -0.026133562 0.12100772 13018706
0.015195162 -0.024932649 0.12101747 13083729
0.015187585 -0.023731723 0.12102723 12952912
0.015179889 -0.022530789 0.12103698 13148238
0.015172312 -0.021329835 0.12104674 11970371
0.015164616 -0.020128876 0.12105649 10855456
0.015156979 -0.018927902 0.12106624 10723868
0.015149342 -0.017726915 0.121076 10789660
0.015141705 -0.016525917 0.12108576 10789660
0.015134068 -0.015324906 0.12109551 10460945
0.015126372 -0.014123884 0.12110526 10066179
0.015118735 -0.012922848 0.12111501 10526482
0.015111098 -0.011721799 0.12112477 10921249
0.015103461 -0.010520739 0.12113453 10395152
0.015095765 -0.0093196668 0.12114427 10197766
0.015088128 -0.008118582 0.12115403 10131972
0.01508049 -0.0069174836 0.12116379 10066178
0.015072794 -0.0057163765 0.12117354 10000385
0.015065216 -0.0045152521 0.1211833 10329099
0.015057519 -0.0033141186 0.12119305 11512371
0.015049882 -0.0021129712 0.1212028 11446834
0.015042186 -0.00091181253 0.12121256 11315246
0.015034548 0.00028935916 0.12122232 11578166
0.01502691 0.0014905439 0.12123207 12823636
0.015019214 0.0026917397 0.12124182 11446834
0.015011576 0.0038929486 0.12125158 10855455
0.015003938 0.0050941701 0.12126134 10131973
0.014996301 0.0062954044 0.12127109 10131974
0.014988664 0.0074966503 0.12128085 10789661
0.014981026 0.0086979084 0.12129061 10789662
0.014973328 0.0098991795 0.12130035 10592277
0.014965691 0.011100463 0.12131011 10460688
0.015193007 -0.028535094 0.11977722 10263562
0.01518543 -0.02733391 0.11978699 10526740
0.015177793 -0.026132714 0.11979674 11578681
0.015170156 -0.024931505 0.11980648 11644218
0.015162578 -0.023730284 0.11981624 11184428
0.015154882 -0.022529051 0.11982599 11971391
0.015147245 -0.021327808 0.11983574 13147468
0.015139609 -0.02012655 0.11984549 13344080
0.015131912 -0.018925283 0.11985523 13344337
0.015124334 -0.017724 0.11986499 13344081
0.015116638 -0.016522709 0.11987474 13344594
0.015109001 -0.015321403 0.11988449 12036930
0.015101304 -0.014120085 0.11989424 10329357
0.015093667 -0.012918754 0.11990399 10395152
0.01508603 -0.01171741 0.11991374 10460945
0.015078333 -0.010516057 0.11992349 10460945
0.015070696 -0.0093146889 0.11993324 10460945
0.015063059 -0.0081133069 0.11994299 10395151
0.015055362 -0.0069119167 0.11995274 10329356
0.015047784 -0.0057105091 0.1199625 10131972
0.015040088 -0.0045090928 0.11997224 10131973
0.01503245 -0.0033076629 0.119982 10789661
0.015024752 -0.0021062212 0.11999174 10526740
0.015017116 -0.00090476632 0.12000149 10000385
0.015009478 0.00029670063 0.12001125 10986787
0.01500184 0.0014981807 0.120021 12756299
0.014994202 0.0026996718 0.12003075 13408847
0.014986564 0.0039011766 0.12004051 13476183
0.014978867 0.0051026922 0.12005025 10394893
0.014971171 0.0063042212 0.12006 10066177
0.014963532 0.0075057624 0.12006976 10066178
0.014955894 0.0087073166 0.12007951 10066178
0.014948256 0.0099088829 0.12008926 10066178
0.014940619 0.011110461 0.12009902 11118375
0.015168015 -0.028534835 0.11856566 12036929
0.015160377 -0.027333356 0.11857541 10131974
0.01515274 -0.026131866 0.11858515 10263561
0.015145103 -0.024930364 0.1185949 10263561
0.015137467 -0.023728848 0.11860465 10197768
0.01512983 -0.02252732 0.1186144 10789660
0.015122192 -0.02132578 0.11862414 11775292
0.015114555 -0.020124227 0.1186339 12037956
0.015106859 -0.018922664 0.11864363 11972419
0.015099221 -0.017721089 0.11865338 12037956
0.015091524 -0.016519502 0.11866312 12888659
0.015083947 -0.015317896 0.11867288 13146441
0.01507625 -0.014116284 0.11868262 12625739
0.015068613 -0.012914658 0.11869237 13083731
0.015060916 -0.011713021 0.11870211 13083731
0.015053279 -0.010511369 0.11871186 13149524
0.015045641 -0.0093097072 0.1187216 13149268
0.015038003 -0.0081080291 0.11873136 13149268
0.015030365 -0.0069063408 0.1187411 12495177
0.015022669 -0.0057046427 0.11875085 10855456
0.015015031 -0.0045029297 0.11876059 10131972
0.015007334 -0.0033012051 0.11877034 10131974
0.014999696 -0.0020994672 0.11878008 10131972
0.014992058 -0.00089771696 0.11878984 10066178
0.014984361 0.00030404516 0.11879958 10526740
0.014976723 0.0015058195 0.11880933 11578166
0.014969085 0.0027076069 0.11881908 12496719
0.014961448 0.0039094067 0.11882883 13344337
0.01495375 0.0051112184 0.11883857 10526739
0.014946112 0.0063130427 0.11884832 10066179
0.014938415 0.0075148796 0.11885806 10066178
0.014930776 0.0087167285 0.11886781 10066178
0.014923139 0.0099185901 0.11887757 10066178
0.014915441 0.011120464 0.11888731 10460946
0.015142918 -0.028534578 0.11735349 13016136
0.015135339 -0.027332801 0.11736324 11446319
0.015127702 -0.026131017 0.11737298 10986787
0.015120065 -0.02492922 0.11738273 10131973
0.015112368 -0.02372741 0.11739247 10131973
0.015104731 -0.022525584 0.11740221 10263561
0.015097094 -0.021323754 0.11741195 10460945
0.015089456 -0.020121902 0.11742169 10526739
0.01508176 -0.018920045 0.11743143 10460946
0.015074122 -0.017718174 0.11744118 10460946
0.015066485 -0.016516289 0.11745092 10855454
0.015058847 -0.015314391 0.11746067 12037186
0.01505115 -0.014112483 0.11747041 11971904
0.015043512 -0.012910562 0.11748015 12037444
0.015035875 -0.011708627 0.1174899 12037444
0.015028237 -0.010506679 0.11749963 12102980
0.01502054 -0.0093047218 0.11750938 12102980
0.015012902 -0.0081027504 0.11751912 12102980
0.015005205 -0.0069007678 0.11752886 13082702
0.014997567 -0.0056987717 0.11753861 12364101
0.014989929 -0.0044967625 0.11754835 12167747
0.014982232 -0.0032947431 0.11755809 12036671
0.014974594 -0.00209271 0.11756784 11643189
0.014966897 -0.00089066563 0.11757758 11577653
0.014959318 0.0003113939 0.11758733 10526740
0.01495162 0.0015134634 0.11759707 10329357
0.014943923 0.0027155459 0.1176068 10592277
0.014936285 0.0039176415 0.11761655 11775035
0.014928646 0.0051197489 0.11762629 11577652
0.014920949 0.0063218684 0.11763604 11446321
0.01491331 0.0075240009 0.11764579 12102465
0.014905673 0.0087261461 0.11765553 11446320
0.014898034 0.0099283028 0.11766528 11446320
0.014890336 0.011130473 0.11767501 11314988
0.015707364 -0.029700704 0.11619798 10658142
0.015117893 -0.028534319 0.11614073 12298565
0.015110255 -0.02733225 0.11615047 11774522
0.015102617 -0.026130168 0.11616021 11577653
0.015094981 -0.024928074 0.11616995 11118376
0.015087343 -0.023725968 0.11617969 11118376
0.015079646 -0.022523852 0.11618943 11118376
0.015072009 -0.021321721 0.11619917 11118376
0.015064371 -0.020119576 0.1162089 10723866
0.015056733 -0.018917421 0.11621865 10131972
0.015049095 -0.017715253 0.11622839 10000385
0.015041399 -0.016513074 0.11623812 10066179
0.015033761 -0.015310881 0.11624786 10658071
0.015026064 -0.014108678 0.11625759 10658329
0.015018366 -0.012906462 0.11626733 10658329
0.015010788 -0.011704232 0.11627708 10658329
0.015003091 -0.010501989 0.11628681 10658329
0.014995453 -0.0092997346 0.11629655 10658329
0.014987756 -0.0080974707 0.11630629 10723867
0.014980117 -0.0068951892 0.11631603 12168260
0.014972479 -0.0056928969 0.11632577 13212748
0.014964782 -0.0044905958 0.1163355 12691276
0.014957144 -0.0032882781 0.11634525 12102209
0.014949505 -0.0020859486 0.11635499 11905596
0.014941808 -0.00088360813 0.11636472 11708985
0.014934169 0.00031874559 0.11637447 10592277
0.014926472 0.0015211103 0.1163842 10000384
0.014918833 0.0027234892 0.11639395 10066177
0.014911195 0.0039258804 0.11640368 10460945
0.014903557 0.0051282835 0.11641343 11577653
0.014895858 0.0063306992 0.11642317 12820295
0.01488822 0.0075331274 0.11643291 12102466
0.014880582 0.0087355673 0.11644265 11840059
0.014872824 0.0099380203 0.11645238 11840059
0.014865185 0.011140485 0.11646213 11512372
0.015100401 -0.029736418 0.11491763 10263634
0.015092763 -0.028534064 0.11492737 10921250
0.015085125 -0.027331701 0.1149371 10855456
0.015077488 -0.02612932 0.11494683 11052583
0.015069851 -0.024926933 0.11495657 11708984
0.015062272 -0.023724526 0.11496632 11708984
0.015054575 -0.022522114 0.11497605 11708984
0.015046937 -0.021319689 0.11498579 11708984
0.01503924 -0.020117249 0.11499552 11381041
0.015031602 -0.018914798 0.11500525 10986788
0.015023964 -0.017712336 0.11501499 10526740
0.015016267 -0.016509861 0.11502472 10066178
0.015008628 -0.015307372 0.11503445 10197767
0.015000932 -0.014104874 0.11504418 10986787
0.014993293 -0.012902359 0.11505392 10986788
0.014985655 -0.011699833 0.11506366 10986788
0.014977958 -0.010497297 0.11507339 10986787
0.014970319 -0.0092947474 0.11508313 10460945
0.014962682 -0.0080921827 0.11509287 10789660
0.014954984 -0.0068896096 0.1151026 11709241
0.014947345 -0.0056870212 0.11511233 12953425
0.014939648 -0.0044844234 0.11512206 11840573
0.014932009 -0.0032818101 0.1151318 10921250
0.014924371 -0.0020791853 0.11514154 10986788
0.014916732 -0.00087654742 0.11515128 11249708
0.014909035 0.00032610047 0.11516102 10658071
0.014901396 0.0015287625 0.11517075 10066178
0.014893699 0.0027314364 0.11518048 10066178
0.014886 0.0039341226 0.11519022 10066178
0.014878361 0.0051368219 0.11519995 10723866
0.014870723 0.0063395337 0.11520969 12298564
0.014863084 0.0075422577 0.11521944 10986787
0.014855386 0.0087449942 0.11522917 10920993
0.014847747 0.0099477423 0.1152389 10921249
0.014840049 0.011150504 0.11524864 11052582
0.015075404 -0.029736448 0.11370369 10592314
0.015067765 -0.0285338 0.11371342 10066178
0.015060069 -0.027331145 0.11372314 10000385
0.015052431 -0.026128471 0.11373287 10263562
0.015044793 -0.024925785 0.11374261 11118375
0.015037096 -0.023723088 0.11375234 11118376
0.015029517 -0.022520375 0.11376207 11118376
0.01502182 -0.021317655 0.1137718 11052583
0.015014182 -0.020114921 0.11378153 11315246
0.015006543 -0.018912172 0.11379127 11971134
0.014998787 -0.017709419 0.11380099 11380782
0.014991148 -0.016506646 0.11381072 10066179
0.014983511 -0.015303859 0.11382046 10197768
0.014975813 -0.014101065 0.11383018 11774265
0.014968175 -0.012898256 0.11383992 11839802
0.014960477 -0.011695435 0.11384964 11839802
0.014952838 -0.010492601 0.11385938 11774521
0.014945201 -0.0092897555 0.11386911 10789661
0.014937502 -0.0080868965 0.11387884 11249708
0.014929864 -0.0068840249 0.11388857 11840059
0.014922166 -0.0056811445 0.1138983 12299084
0.014914528 -0.0044782464 0.11390804 11052839
0.014906889 -0.0032753388 0.11391777 10395152
0.014899191 -0.0020724188 0.1139275 10526740
0.014891493 -0.00086948677 0.11393722 11381040
0.014883854 0.00033345938 0.11394696 11314989
0.014876216 0.0015364176 0.1139567 10723867
0.014868517 0.0027393869 0.11396642 10329357
0.014860819 0.003942369 0.11397615 10000384
0.014853239 0.0051453654 0.1139859 10066178
0.014845541 0.0063483724 0.11399562 10855456
0.014837902 0.0075513925 0.11400536 10723868
0.014830204 0.0087544248 0.11401509 10723867
0.014822565 0.0099574691 0.11402482 10724124
0.014814867 0.011160526 0.11403455 11118377
0.015050302 -0.029736489 0.11248913 11905854
0.015042605 -0.028533546 0.11249886 10592277
0.015034967 -0.027330589 0.11250859 10526483
0.01502727 -0.026127623 0.11251831 10526739
0.015019691 -0.024924638 0.11252805 10592277
0.015011993 -0.023721647 0.11253777 10526741
0.015004355 -0.02251864 0.11254749 10460945
0.014996717 -0.021315619 0.11255722 10197768
0.014989019 -0.020112593 0.11256695 10526483
0.014981381 -0.018909549 0.11257668 12036415
0.014973742 -0.017706493 0.11258641 12101438
0.014965985 -0.016503429 0.11259612 10592534
0.014958347 -0.015300347 0.11260585 10526740
0.014950708 -0.014097254 0.11261559 11314990
0.01494301 -0.012894152 0.11262531 11446321
0.014935371 -0.011691032 0.11263504 11642934
0.014927674 -0.010487904 0.11264476 11380783
0.014920035 -0.0092847617 0.11265449 10920992
0.014912397 -0.0080816066 0.11266422 11315246
0.014904698 -0.0068784412 0.11267395 11643191
0.014897001 -0.0056752623 0.11268367 11839809
0.014889361 -0.0044720704 0.1126934 11052582
0.014881664 -0.0032688663 0.11270312 10920993
0.014874024 -0.002065649 0.11271285 11249708
0.014866386 -0.00086241885 0.11272258 12233541
0.014858747 0.00034082253 0.11273232 12492869
0.014851049 0.0015440759 0.11274204 11904576
0.014843409 0.0027473425 0.11275177 11315247
0.014835711 0.003950621 0.1127615 10526740
0.014828072 0.0051539126 0.11277123 10526739
0.014820374 0.0063572158 0.11278095 10197767
0.014812675 0.0075605316 0.11279068 11380786
0.014805036 0.00876386 0.11280041 11511606
0.014797337 0.0099672014 0.11281013 11643448
0.014789698 0.011170554 0.11281987 11774012
0.015025096 -0.029736532 0.11127397 13277259
0.015017516 -0.028533287 0.11128371 11774016
0.015009819 -0.027330035 0.11129343 11708478
0.015002239 -0.026126768 0.11130316 11708477
0.014994542 -0.02492349 0.11131288 11642685
0.014986903 -0.023720203 0.1113226 11379769
0.014979206 -0.022516903 0.11133232 11249457
0.014971567 -0.021313587 0.11134205 10460946
0.01496387 -0.020110261 0.11135177 10066178
0.014956172 -0.018906925 0.11136149 11315501
0.014948534 -0.017703572 0.11137121 12559944
0.014940836 -0.01650021 0.11138093 11774272
0.014933197 -0.015296834 0.11139066 11841088
0.014925558 -0.014093442 0.11140038 10066180
0.014917919 -0.012890042 0.11141011 10460945
0.014910221 -0.01168663 0.11141983 11315248
0.014902582 -0.010483203 0.11142956 10197767
0.014894884 -0.0092797652 0.11143928 10987044
0.014887245 -0.0080763139 0.111449 11774782
0.014879547 -0.0068728523 0.11145873 11381297
0.014871908 -0.005669375 0.11146845 10986787
0.01486421 -0.0044658869 0.11147817 10921250
0.014856512 -0.0032623888 0.11148789 10855198
0.014848872 -0.0020588744 0.11149762 11840317
0.014841233 -0.00085534883 0.11150735 12952140
0.014833534 0.00034818859 0.11151706 13600319
0.014825836 0.0015517381 0.11152679 13601861
0.014818197 0.0027553008 0.11153652 12558923
0.014810557 0.0039588767 0.11154624 11905858
0.014802859 0.0051624635 0.11155596 11906368
0.01479516 0.0063660629 0.11156569 10526740
0.01478752 0.0075696753 0.11157541 11314989
0.014779881 0.0087733008 0.11158514 11446065
0.014772182 0.0099769374 0.11159486 11511857
0.014764483 0.011180587 0.11160459 11511858
0.015000021 -0.029736565 0.11005824 12888145
0.014992382 -0.02853303 0.11006796 13344082
0.014984685 -0.027329484 0.11007767 13278289
0.014977106 -0.026125915 0.1100874 13209411
0.014969408 -0.024922347 0.11009712 13212752
0.014961769 -0.023718761 0.11010684 13147729
0.014954071 -0.022515163 0.11011656 12101701
0.014946373 -0.021311553 0.11012627 10460946
0.014938734 -0.020107929 0.11013599 10000384
0.014931096 -0.018904293 0.11014571 10723866
0.014923397 -0.017700646 0.11015543 12887887
0.014915759 -0.016496986 0.11016515 13279059
0.01490806 -0.015293315 0.11017486 12561229
0.014900422 -0.014089629 0.11018459 10066178
0.014892723 -0.012885932 0.1101943 10592534
0.014885025 -0.011682224 0.11020402 12365131
0.014877386 -0.010478501 0.11021374 10131974
0.014869688 -0.0092747677 0.11022346 11249708
0.014862048 -0.0080710184 0.11023318 12951884
0.01485435 -0.0068672602 0.1102429 12365387
0.01484671 -0.0056634867 0.11025263 11118377
0.014839012 -0.0044597043 0.11026234 10921251
0.014831373 -0.003255907 0.11027206 10197768
0.014823734 -0.0020520964 0.11028179 11840317
0.014816035 -0.00084827578 0.1102915 13470016
0.014808336 0.00035555789 0.11030122 13537609
0.014800697 0.0015594048 0.11031094 13473872
0.014792998 0.0027632636 0.11032066 13409105
0.014785359 0.0039671357 0.11033039 13344338
0.014777659 0.0051710191 0.1103401 12822351
0.01477002 0.0063749156 0.11034983 10789661
0.014762321 0.0075788237 0.11035954 10197767
0.014754622 0.0087827453 0.11036927 10197768
0.014746983 0.0099866791 0.11037899 10197768
0.014739342 0.011190625 0.11038871 10197766
0.014974843 -0.029736605 0.10884189 10592534
0.014967204 -0.028532771 0.1088516 10723867
0.014959565 -0.027328927 0.10886132 10723868
0.014951926 -0.02612507 0.10887104 12951118
0.014944287 -0.024921196 0.10888076 10658330
0.01493659 -0.023717318 0.10889047 10658073
0.01492895 -0.022513421 0.10890019 10460946
0.014921253 -0.021309514 0.1089099 10131973
0.014913554 -0.020105598 0.10891961 10000384
0.014905915 -0.018901665 0.10892933 10131974
0.014898216 -0.017697722 0.10893904 10526740
0.014890578 -0.016493764 0.10894876 10658329
0.014882879 -0.015289797 0.10895848 10526739
0.01487524 -0.014085814 0.10896819 10000385
0.014867541 -0.012881822 0.10897791 10066180
0.014859843 -0.011677816 0.10898761 10460945
0.014852203 -0.010473796 0.10899734 10131972
0.014844565 -0.0092697646 0.10900705 10592534
0.014836865 -0.008065721 0.10901677 12167238
0.014829226 -0.0068616648 0.10902648 12167754
0.014821528 -0.005657597 0.1090362 12101956
0.014813829 -0.0044535166 0.10904591 11775293
0.01480613 -0.003249424 0.10905562 10263562
0.01479855 -0.0020453164 0.10906535 11709499
0.014790851 -0.00084119855 0.10907506 13277772
0.014783211 0.00036293242 0.10908478 11708729
0.014775453 0.0015670742 0.10909449 10658073
0.014767813 0.0027712304 0.10910421 10592535
0.014760114 0.0039753984 0.10911392 10592535
0.014752475 0.0051795784 0.10912365 10526739
0.014744775 0.0063837715 0.10913336 10197767
0.014737135 0.0075879772 0.10914308 10658329
0.014729436 0.0087921945 0.10915279 10855456
0.014721736 0.0099964254 0.10916251 10855457
0.014714097 0.011200667 0.10917223 11315506
0.014949737 -0.029736644 0.10762495 10000385
0.014942097 -0.028532512 0.10763466 10066178
0.014934459 -0.027328366 0.10764438 10066180
0.01492676 -0.026124217 0.10765408 10920997
0.014919122 -0.024920048 0.1076638 10066177
0.014911423 -0.023715874 0.1076735 10000385
0.014903725 -0.022511683 0.10768321 10066177
0.014896027 -0.021307481 0.10769292 10066177
0.014888387 -0.020103265 0.10770264 10000385
0.014880748 -0.018899033 0.10771235 10000385
0.014873049 -0.017694794 0.10772206 10000385
0.014865411 -0.01649054 0.10773177 10000385
0.014857711 -0.015286275 0.10774148 10000385
0.014850072 -0.014081995 0.1077512 10000384
0.014842373 -0.012877706 0.10776091 10000384
0.014834675 -0.011673404 0.10777061 10000385
0.014827035 -0.010469088 0.10778033 10066179
0.014819336 -0.0092647625 0.10779004 11052839
0.014811638 -0.0080604227 0.10779975 12886350
0.014803998 -0.006856068 0.10780946 11969606
0.014796299 -0.0056517045 0.10781917 12167239
0.014788659 -0.0044473256 0.10782889 12037699
0.01478096 -0.003242936 0.10783859 10329356
0.014773261 -0.0020385343 0.10784831 10592277
0.014765621 -0.00083411817 0.10785802 11052583
0.014757922 0.00037030882 0.10786773 10526739
0.014750282 0.001574749 0.10787745 10066178
0.014742583 0.0027792002 0.10788716 10000385
0.014734942 0.0039836657 0.10789688 10000385
0.014727243 0.0051881429 0.10790659 10000385
0.014719544 0.0063926321 0.1079163 10066178
0.014711904 0.0075971344 0.10792601 11905600
0.014704205 0.0088016484 0.10793573 12493384
0.014696565 0.010006176 0.10794544 12558664
0.014688865 0.011210715 0.10795515 12624458
0.014924586 -0.029736681 0.1064074 10592535
0.014916888 -0.028532255 0.1064171 10131973
0.014909248 -0.027327815 0.10642682 10131973
0.014901609 -0.026123364 0.10643653 10131972
0.014893911 -0.024918901 0.10644624 10263561
0.014886212 -0.023714429 0.10645594 11643194
0.014878573 -0.02250994 0.10646565 11773754
0.014870874 -0.02130544 0.10647535 11642425
0.014863235 -0.020100925 0.10648506 11576888
0.014855536 -0.018896403 0.10649477 11708217
0.014847837 -0.017691866 0.10650447 11708473
0.014840198 -0.016487315 0.10651419 11839803
0.014832499 -0.015282755 0.10652389 11840573
0.014824859 -0.014078178 0.1065336 10066179
0.014817161 -0.012873591 0.1065433 10066177
0.01480952 -0.01166899 0.10655302 10131972
0.014801822 -0.01046438 0.10656272 10131973
0.014794122 -0.0092597548 0.10657243 10658072
0.014786423 -0.0080551188 0.10658213 11512374
0.014778784 -0.0068504685 0.10659184 11118123
0.014771084 -0.0056458069 0.10660155 11052583
0.014763445 -0.0044411318 0.10661126 10921251
0.014755745 -0.0032364458 0.10662097 10197768
0.014748046 -0.0020317468 0.10663067 10066180
0.014740347 -0.00082703569 0.10664038 10197767
0.014732766 0.00037769057 0.1066501 10197767
0.014725066 0.0015824268 0.1066598 10131973
0.014717367 0.0027871751 0.10666951 10131973
0.014709667 0.0039919363 0.10667922 10131973
0.014702027 0.005196711 0.10668893 10131973
0.014694327 0.0064014969 0.10669863 10131973
0.014686687 0.0076062963 0.10670835 11118120
0.014678988 0.0088111078 0.10671806 11446323
0.014671347 0.010015932 0.10672777 11446323
0.014663647 0.011220768 0.10673747 11380786
0.014907029 -0.030941429 0.10517955 11380337
0.01489939 -0.029736716 0.10518926 11708984
0.01489175 -0.028531993 0.10519896 11512114
0.014884052 -0.027327258 0.10520867 11314991
0.014876412 -0.026122514 0.10521837 10197510
0.014868714 -0.024917753 0.10522807 10263561
0.014861015 -0.023712981 0.10523777 12101957
0.014853375 -0.022508198 0.10524748 13210440
0.014845735 -0.021303397 0.10525718 12296516
0.014837977 -0.020098591 0.10526688 11839037
0.014830338 -0.018893769 0.10527658 11904831
0.014822639 -0.017688936 0.10528629 12036416
0.01481494 -0.016484089 0.10529599 12102209
0.0148073 -0.015279229 0.10530569 12037187
0.01479966 -0.014074356 0.1053154 10197767
0.014791961 -0.012869473 0.1053251 10131972
0.014784262 -0.011664577 0.1053348 11380528
0.014776622 -0.010459667 0.10534451 11512115
0.014768923 -0.0092547461 0.10535421 11052581
0.014761223 -0.0080498122 0.10536392 10131973
0.014753583 -0.0068448656 0.10537363 10789661
0.014745884 -0.0056399074 0.10538333 10986788
0.014738184 -0.0044349367 0.10539303 10263562
0.014730544 -0.0032299515 0.10540274 10066178
0.014722845 -0.0020249563 0.10541244 10723865
0.014715145 -0.00081994804 0.10542214 11511858
0.014707445 0.00038507328 0.10543184 11577396
0.014699864 0.0015901087 0.10544156 11445810
0.014692165 0.0027951542 0.10545126 11511603
0.014684465 0.004000213 0.10546096 11577652
0.014676766 0.0052052834 0.10547066 11577652
0.014669065 0.0064103664 0.10548037 11577652
0.014661425 0.0076154629 0.10549008 11446322
0.014653784 0.0088205719 0.10549979 10395152
0.014646025 0.010025692 0.10550948 10066178
0.014638384 0.011230825 0.1055192 10066178
0.014881847 -0.030941766 0.10396081 10723644
0.014874208 -0.029736755 0.10397051 11708728
0.014866568 -0.028531734 0.10398021 13145926
0.014858869 -0.027326705 0.10398991 12559173
0.014851171 -0.026121661 0.10399961 10263561
0.014843471 -0.024916606 0.10400931 10066179
0.014835832 -0.023711536 0.10401901 10395152
0.014828192 -0.022506451 0.10402871 12233543
0.014820493 -0.021301359 0.10403841 10921251
0.014812794 -0.020096254 0.1040481 10131974
0.014805154 -0.018891133 0.10405781 10131974
0.014797395 -0.017686006 0.1040675 10131974
0.014789755 -0.016480859 0.10407721 10526482
0.014782056 -0.015275704 0.1040869 10986787
0.014774416 -0.014070535 0.10409661 10986788
0.014766716 -0.012865353 0.1041063 10986787
0.014759017 -0.01166016 0.104116 13210437
0.014751318 -0.010454955 0.10412569 12624454
0.014743677 -0.0092497366 0.1041354 12429126
0.014735978 -0.0080445046 0.1041451 10131974
0.014728338 -0.0068392614 0.1041548 11643703
0.014720638 -0.0056340052 0.1041645 12626766
0.014712938 -0.0044287383 0.1041742 11381040
0.014705298 -0.0032234548 0.1041839 10986788
0.014697598 -0.0020181625 0.10419361 11643446
0.014689958 -0.0008128552 0.10420331 12885575
0.014682258 0.00039246227 0.10421301 13405248
0.014674558 0.0015977927 0.10422271 13339712
0.014666858 0.0028031354 0.1042324 13146183
0.014659218 0.004008492 0.10424211 12428611
0.014651517 0.00521386 0.10425181 12428611
0.014643817 0.0064192405 0.10426151 12428611
0.014636177 0.0076246341 0.10427121 12428868
0.014628476 0.0088300398 0.10428091 10789660
0.014620776 0.010035457 0.10429061 10066178
0.014613136 0.011240888 0.10430032 10066178
0.014856679 -0.030942097 0.10274147 11249486
0.01484898 -0.029736796 0.10275117 10131974
0.01484134 -0.028531477 0.10276087 12102209
0.014833641 -0.02732615 0.10277055 10592535
0.014825943 -0.026120808 0.10278025 10000385
0.014818302 -0.024915455 0.10278995 10000385
0.014810603 -0.023710087 0.10279964 10066178
0.014802904 -0.022504712 0.10280933 10066179
0.014795264 -0.021299317 0.10281903 10066179
0.014787565 -0.020093916 0.10282873 10066178
0.014779866 -0.0188885 0.10283842 10066178
0.014772225 -0.017683068 0.10284812 10066178
0.014764585 -0.016477626 0.10285782 11052838
0.014756827 -0.015272177 0.10286751 12625224
0.014749127 -0.014066712 0.1028772 12950856
0.014741486 -0.01286123 0.1028869 12950855
0.014733845 -0.01165574 0.1028966 12756042
0.014726146 -0.010450236 0.10290629 10658072
0.014718447 -0.0092447214 0.10291599 12625994
0.014710806 -0.0080391932 0.10292569 10197767
0.014703047 -0.0068336539 0.10293537 11315502
0.014695406 -0.0056280997 0.10294508 12886603
0.014687707 -0.0044225347 0.10295478 12950855
0.014680007 -0.0032169563 0.10296447 12885319
0.014672366 -0.0020113648 0.10297417 11774522
0.014664666 -0.00080576225 0.10298386 11577909
0.014657025 0.00039985435 0.10299356 12885061
0.014649325 0.001605482 0.10300326 12950855
0.014641625 0.0028111227 0.10301296 12299079
0.014633925 0.0040167756 0.10302265 10066178
0.014626225 0.0052224402 0.10303234 10066178
0.014618524 0.0064281183 0.10304204 10066178
0.014610883 0.0076338095 0.10305174 10395152
0.014603183 0.0088395122 0.10306144 10658073
0.014595542 0.010045228 0.10307114 10197767
0.014587841 0.011250956 0.10308084 10066178
0.014831408 -0.030942438 0.10152152 10394894
0.014823827 -0.029736832 0.10153122 10131973
0.014816128 -0.028531218 0.10154092 10197767
0.014808428 -0.027325593 0.1015506 10131973
0.014800729 -0.026119953 0.10156029 10066179
0.01479303 -0.024914306 0.10156998 10066179
0.014785389 -0.02370864 0.10157967 10066179
0.01477769 -0.022502962 0.10158937 10066179
0.01476999 -0.021297278 0.10159905 10131972
0.014762349 -0.020091575 0.10160875 10131972
0.01475465 -0.01888586 0.10161844 10131972
0.014746951 -0.017680138 0.10162812 10066179
0.01473931 -0.016474396 0.10163783 10131974
0.014731552 -0.015268649 0.1016475 10197768
0.014723911 -0.014062884 0.1016572 10263561
0.014716211 -0.012857108 0.10166689 10197768
0.014708512 -0.011651321 0.10167658 10131974
0.014700871 -0.010445519 0.10168628 10526483
0.014693229 -0.0092397043 0.10169598 12691532
0.01468553 -0.0080338791 0.10170567 10131974
0.01467777 -0.0068280436 0.10171535 10131972
0.01467013 -0.0056221914 0.10172505 10131973
0.01466243 -0.0044163279 0.10173474 10197767
0.014654789 -0.0032104524 0.10174444 10131974
0.014647089 -0.0020045647 0.10175413 10131973
0.014639389 -0.00079866417 0.10176382 10197767
0.014631689 0.0004072485 0.10177351 10197768
0.014624047 0.0016131753 0.10178321 10263562
0.014616347 0.0028191123 0.1017929 10197767
0.014608647 0.004025063 0.10180259 10066178
0.014600946 0.0052310256 0.10181228 10000384
0.014593305 0.0064370017 0.10182198 10000384
0.014585604 0.0076429895 0.10183167 11840317
0.014577904 0.0088489894 0.10184137 13277260
0.014570262 0.010055003 0.10185106 10855455
0.014562503 0.011261028 0.10186075 10066177
0.014806209 -0.030942772 0.10030098 11249708
0.014798569 -0.029736871 0.10031067 10131974
0.014790869 -0.028530959 0.10032035 11905853
0.01478317 -0.02732504 0.10033004 12887118
0.01477553 -0.026119102 0.10033973 12887117
0.01476783 -0.024913153 0.10034942 12952654
0.01476013 -0.023707192 0.1003591 12952654
0.01475249 -0.022501217 0.1003688 12952654
0.01474479 -0.021295231 0.10037848 12952398
0.01473709 -0.020089233 0.10038817 12952142
0.01472945 -0.018883221 0.10039786 12429896
0.014721691 -0.017677201 0.10040754 10855456
0.01471405 -0.016471164 0.10041723 10197768
0.01470635 -0.015265116 0.10042692 10197768
0.01469865 -0.014059056 0.10043661 10197767
0.01469095 -0.012852984 0.10044629 10131974
0.014683309 -0.011646895 0.10045598 10131973
0.014675609 -0.010440798 0.10046567 10131974
0.014667909 -0.0092346873 0.10047536 10460945
0.014660208 -0.008028565 0.10048504 10066178
0.014652568 -0.0068224277 0.10049473 10066178
0.014644868 -0.0056162793 0.10050442 10066178
0.014637168 -0.0044101197 0.10051411 10066179
0.014629466 -0.0032039473 0.10052379 10066179
0.014621766 -0.0019977617 0.10053349 10066179
0.014614125 -0.00079156284 0.10054318 11315503
0.014606425 0.00041464789 0.10055286 11577653
0.014598783 0.0016208718 0.10056256 11709754
0.014591083 0.0028271067 0.10057224 12037185
0.014583382 0.0040333546 0.10058194 10066180
0.014575682 0.0052396152 0.10059162 10066177
0.01456804 0.0064458889 0.10060132 10000384
0.014560339 0.0076521742 0.10061101 10329099
0.014552579 0.0088584721 0.10062069 10986788
0.014544938 0.010064783 0.10063038 10395151
0.014537237 0.011271106 0.10064007 10000384
0.014780966 -0.030943107 0.099079832 10855456
0.014773325 -0.029736906 0.099089518 10131974
0.014765626 -0.0285307 0.099099196 11446834
0.014757926 -0.027324479 0.099108882 12365643
0.014750226 -0.026118247 0.099118561 12431180
0.014742585 -0.024912 0.099128254 12365644
0.014734886 -0.023705741 0.099137932 12365645
0.014727185 -0.022499472 0.09914761 12365645
0.014719486 -0.021293188 0.099157296 12496462
0.014711845 -0.020086888 0.099166982 13146955
0.014704145 -0.018880581 0.099176668 13341768
0.014696444 -0.017674262 0.099186346 12821836
0.014688745 -0.016467929 0.099196032 12495435
0.014681104 -0.015261582 0.099205717 12495434
0.014673403 -0.014055225 0.099215403 12430668
0.014665703 -0.012848853 0.099225082 10460945
0.014658003 -0.01164247 0.099234767 12299592
0.014650362 -0.010436074 0.09924446 10131716
0.014642661 -0.0092296647 0.099254139 10066177
0.014634961 -0.0080232443 0.099263825 10000385
0.014627261 -0.0068168128 0.099273503 10000385
0.01461956 -0.0056103664 0.099283189 10000385
0.01461186 -0.0044039087 0.099292867 10066178
0.014604218 -0.003197436 0.09930256 10000385
0.014596518 -0.0019909532 0.099312246 10066178
0.014588817 -0.00078445749 0.099321932 11446834
0.014581176 0.00042205144 0.099331617 11839802
0.014573416 0.0016285713 0.099341296 11906624
0.014565774 0.0028351054 0.099350989 13082188
0.014558073 0.0040416503 0.099360667 11512373
0.014550372 0.005248209 0.099370353 10066178
0.014542672 0.0064547793 0.099380039 10000385
0.014535029 0.0076613631 0.099389732 11183914
0.014527328 0.0088679586 0.099399418 11249708
0.014519569 0.010074567 0.099409088 10131974
0.014511926 0.011281188 0.099418782 10066178
0.014755737 -0.030943444 0.097858079 10329357
0.014748096 -0.029736947 0.097867765 10131973
0.014740396 -0.028530439 0.097877443 10526740
0.014732696 -0.027323924 0.097887121 10921249
0.014724996 -0.026117392 0.097896799 10921250
0.014717296 -0.024910847 0.097906478 10921250
0.014709655 -0.02370429 0.097916164 10921250
0.014701955 -0.022497719 0.097925842 10921250
0.014694255 -0.02129114 0.09793552 11052582
0.014686555 -0.020084547 0.097945191 11708732
0.014678854 -0.018877942 0.097954869 12166470
0.014671213 -0.017671321 0.097964562 12167240
0.014663454 -0.016464693 0.097974226 12364619
0.014655813 -0.015258049 0.097983912 12496205
0.014648112 -0.014051391 0.09799359 12431181
0.014640411 -0.012844723 0.098003276 10526740
0.014632711 -0.011638043 0.098012954 11971397
0.014625011 -0.010431349 0.098022632 10131973
0.01461731 -0.0092246439 0.098032311 10066179
0.014609668 -0.0080179237 0.098041996 10066178
0.014601968 -0.0068111927 0.098051675 10066178
0.014594267 -0.0056044497 0.098061353 10460946
0.014586626 -0.0043976922 0.098071039 11577909
0.014578925 -0.0031909235 0.098080724 11183914
0.014571165 -0.0019841439 0.098090395 10263562
0.014563523 -0.00077734893 0.098100081 10987045
0.014555822 0.00042945702 0.098109759 11315245
0.014548121 0.0016362751 0.098119438 11315760
0.014540421 0.0028431062 0.098129116 12101445
0.01453272 0.0040499503 0.098138802 11315247
0.014525077 0.005256807 0.098148488 10131972
0.014517376 0.0064636753 0.098158166 10066179
0.014509675 0.0076705567 0.098167844 11052583
0.014501974 0.0088774506 0.09817753 11118377
0.014494273 0.010084356 0.098187208 11052582
0.014486572 0.011291276 0.098196886 11971648
0.014730463 -0.030943779 0.096635722 10789661
0.014722763 -0.029736988 0.0966454 10789660
0.014715122 -0.028530182 0.096655078 10789661
0.014707362 -0.027323369 0.096664742 10789661
0.014699722 -0.026116537 0.096674427 10789661
0.014692022 -0.024909697 0.096684098 10789661
0.01468438 -0.023702839 0.096693784 10789661
0.01467662 -0.022495978 0.096703447 10789661
0.01466892 -0.021289097 0.096713126 10789662
0.01466122 -0.020082206 0.096722797 10855457
0.014653578 -0.018875301 0.096732482 11052584
0.014645878 -0.017668383 0.096742153 11315248
0.014638177 -0.016461454 0.096751831 11315505
0.014630536 -0.015254511 0.09676151 11578168
0.014622776 -0.01404756 0.096771181 11249709
0.014615134 -0.01284059 0.096780859 10855455
0.014607434 -0.011633613 0.096790537 11511861
0.014599733 -0.010426621 0.096800208 10855456
0.014592032 -0.0092196167 0.096809886 10855198
0.01458439 -0.0080125984 0.096819572 10789661
0.014576631 -0.0068055713 0.096829236 10789661
0.01456893 -0.0055985306 0.096838914 11315246
0.014561288 -0.0043914746 0.0968486 12494411
0.014553587 -0.0031844079 0.09685827 12363846
0.014545886 -0.0019773291 0.096867949 11183656
0.014538185 -0.00077023718 0.096877627 10920993
0.014530484 0.00043686683 0.096887298 10921249
0.014522783 0.0016439829 0.096896976 10921250
0.01451514 0.0028511132 0.096906662 11183918
0.014507439 0.0040582544 0.096916333 11183658
0.014499678 0.0052654082 0.096926004 10855198
0.014492036 0.0064725755 0.096935689 10855198
0.014484335 0.0076797549 0.096945368 10855456
0.014476634 0.0088869464 0.096955039 10855456
0.014468932 0.010094151 0.096964717 12101697
0.01446123 0.011301368 0.096974395 12689739
0.014705203 -0.030944115 0.095412768 11708727
0.014697503 -0.029737025 0.095422439 11708727
0.014689803 -0.028529925 0.09543211 11708727
0.014682102 -0.02732281 0.095441781 11708727
0.014674461 -0.026115678 0.095451459 11708727
0.01466676 -0.024908541 0.09546113 11708727
0.014659001 -0.023701392 0.095470786 11708727
0.014651359 -0.022494225 0.095480464 11708727
0.014643659 -0.021287046 0.095490135 11643190
0.014635959 -0.020079857 0.095499806 10723868
0.014628258 -0.018872656 0.095509477 10329357
0.014620556 -0.017665442 0.095519148 10986786
0.014612856 -0.016458215 0.095528819 10921251
0.014605214 -0.015250973 0.095538497 11381041
0.014597514 -0.014043722 0.095548168 10658330
0.014589754 -0.01283646 0.095557831 11249451
0.014582112 -0.01162918 0.095567517 11708727
0.01457447 -0.010421888 0.095577195 11708728
0.014566709 -0.0092145884 0.095586859 11708727
0.014559009 -0.008007274 0.09559653 11708727
0.014551367 -0.0067999447 0.095606208 11708727
0.014543666 -0.0055926056 0.095615879 11774523
0.014535964 -0.0043852539 0.09562555 11971139
0.014528263 -0.0031778892 0.09563522 12232771
0.014520561 -0.0019705112 0.095644899 12167232
0.01451286 -0.00076312223 0.09565457 11839802
0.014505218 0.00044428185 0.095664248 11512372
0.014497458 0.001651695 0.095673911 11708728
0.014489756 0.0028591221 0.095683582 11381043
0.014482055 0.0040665623 0.095693253 11774265
0.014474412 0.0052740155 0.095702939 11708728
0.014466652 0.0064814799 0.095712602 11708727
0.014459009 0.0076889577 0.09572228 11118119
0.014451307 0.0088964477 0.095731959 10855455
0.014443606 0.01010395 0.09574163 12690248
0.014435904 0.011311465 0.0957513 11969857
0.0146876 -0.032151826 0.094179541 12558437
0.014679899 -0.030944452 0.094189204 11512372
0.014672258 -0.029737061 0.094198883 11446835
0.014664498 -0.028529666 0.094208539 11446835
0.014656798 -0.027322251 0.094218202 11446835
0.014649156 -0.026114823 0.09422788 11447092
0.014641397 -0.024907388 0.094237536 11446836
0.014633754 -0.023699937 0.094247207 11446836
0.014626054 -0.022492472 0.094256878 11512628
0.014618294 -0.021285003 0.094266534 11578167
0.014610652 -0.020077512 0.094276212 10921250
0.014602951 -0.018870011 0.094285876 10395151
0.014595251 -0.017662499 0.094295546 10987044
0.014587549 -0.016454974 0.09430521 11118375
0.014579907 -0.015247433 0.094314888 11447092
0.014572206 -0.014039882 0.094324552 10724124
0.014564446 -0.012832322 0.094334215 11052581
0.014556804 -0.011624745 0.094343893 11446834
0.014549103 -0.010417156 0.094353557 11446835
0.014541402 -0.0092095565 0.094363227 11446835
0.0145337 -0.0080019441 0.094372891 11446834
0.014525999 -0.0067943186 0.094382562 11446834
0.014518297 -0.00558668 0.094392225 11249709
0.014510596 -0.0043790299 0.094401896 10789660
0.014502895 -0.0031713671 0.094411567 11118376
0.014495193 -0.0019636911 0.09442123 11971392
0.014487492 -0.0007560032 0.094430901 12887117
0.01447979 0.00045169698 0.094440572 12756042
0.014472089 0.0016594102 0.094450235 13277772
0.014464445 0.0028671373 0.094459914 12888402
0.014456686 0.0040748748 0.094469577 11709498
0.014449042 0.0052826256 0.094479255 11709498
0.014441282 0.0064903884 0.094488919 11446834
0.014433639 0.0076981648 0.09449859 10987044
0.014425937 0.0089059528 0.09450826 10789661
0.014418235 0.010113754 0.094517931 12625739
0.014410533 0.011321568 0.094527602 11839549
0.014662252 -0.032152466 0.092955373 10723639
0.014654609 -0.030944787 0.092965044 10066179
0.014646909 -0.029737102 0.0929747 10131972
0.014639208 -0.028529406 0.092984363 10131974
0.014631507 -0.027321694 0.092994027 10131974
0.014623807 -0.026113972 0.09300369 10131974
0.014616106 -0.024906233 0.093013354 10197510
0.014608463 -0.023698481 0.093023024 10197766
0.014600703 -0.022490725 0.09303268 10197767
0.014593002 -0.02128295 0.093042344 10986787
0.01458536 -0.020075161 0.093052015 11708984
0.01457766 -0.018867364 0.093061678 10921250
0.014569958 -0.017659552 0.093071342 11183913
0.014562198 -0.016451731 0.093080997 11774522
0.014554556 -0.015243893 0.093090668 11840316
0.014546854 -0.014036044 0.093100332 10855456
0.014539153 -0.012828183 0.093109995 10131974
0.014531451 -0.01162031 0.093119659 10131973
