# .PCD v0.7 - Point Cloud Data file format
VERSION 0.7
FIELDS x y z rgb
SIZE 4 4 4 4
TYPE F F F U
COUNT 1 1 1 1
WIDTH 969
HEIGHT 1
VIEWPOINT 0 0 0 1 0 0 0
POINTS 969
DATA ascii
-0.035385426 -0.064275831 -0.0075093256 4287926165
-0.033667784 -0.066257484 -0.0070266905 4288254617
-0.032130744 -0.064133547 -0.007242145 4288123031
-0.030420829 -0.066115543 -0.0067601437 4288123032
-0.028797349 -0.066044569 -0.00662687 4288188825
-0.027173869 -0.065973595 -0.0064935968 4288517020
-0.025550392 -0.065902621 -0.0063603232 4288582813
-0.023926912 -0.065831646 -0.0062270495 4288648606
-0.022366703 -0.063706696 -0.0064406018 4288714398
-0.020739362 -0.063635558 -0.0063070115 4288319892
-0.019112021 -0.063564412 -0.0061734212 4287267204
-0.01748468 -0.063493274 -0.0060398304 4285030244
-0.015857339 -0.063422129 -0.0059062401 4284833381
-0.01423 -0.06335099 -0.0057726498 4285886070
-0.01260266 -0.063279845 -0.005639059 4286083195
-0.011010425 -0.061217617 -0.0058393329 4286346367
-0.009379345 -0.061146311 -0.0057054353 4286214783
-0.0077770427 -0.059000131 -0.0059187692 4285623159
-0.0061420626 -0.058928654 -0.0057845511 4285359987
-0.0045372383 -0.055875339 -0.0061483192 4285031022
-0.002896656 -0.055803619 -0.0060136416 4284702055
-0.0012560741 -0.0557319 -0.005878964 4284373090
0.00038450613 -0.055660177 -0.0057442868 4284044379
0.0020250883 -0.055588458 -0.0056096092 4283715414
0.0036642114 -0.053491544 -0.0058114715 4283518034
0.0053085955 -0.053419657 -0.0056764819 4282793028
0.0069529777 -0.05334777 -0.0055414927 4282858821
0.00859736 -0.053275883 -0.0054065031 4282201661
0.010241746 -0.053203996 -0.0052715135 4281017901
0.01188613 -0.053132109 -0.0051365239 4280294692
0.01353051 -0.053060222 -0.0050015347 4280689965
0.020636935 -0.023457974 -0.0092836693 4283518551
0.022336317 -0.023383684 -0.0091441646 4283715160
0.024035698 -0.023309393 -0.0090046609 4282793029
0.025520409 -0.032306492 -0.0073775053 4281279020
0.027253186 -0.030259006 -0.0075627821 4280488476
0.028939255 -0.030185297 -0.0074243709 4281211429
0.030625325 -0.030111589 -0.0072859591 4282264885
0.032311395 -0.03003788 -0.0071475473 4281674797
0.033932243 -0.031938754 -0.0066869669 4281610285
0.03561461 -0.031865209 -0.0065488592 4281676078
0.037369601 -0.029816752 -0.006732313 4281741871
-0.084075682 -0.06632746 -0.013144144 4287268233
-0.082242496 -0.068304256 -0.012648126 4288913060
-0.080619015 -0.068233281 -0.012514853 4289307819
-0.078995541 -0.068162307 -0.012381579 4288978600
-0.077372059 -0.068091333 -0.012248306 4288715428
-0.075748585 -0.068020359 -0.012115032 4288649637
-0.073946059 -0.069915876 -0.011635403 4288518049
-0.072326288 -0.069845065 -0.011502434 4288583583
-0.070878141 -0.067807443 -0.011715212 4288583582
-0.069086745 -0.069703445 -0.011236496 4288649375
-0.067466974 -0.069632635 -0.011103527 4288583582
-0.065847196 -0.069561824 -0.010970557 4288451996
-0.064227432 -0.069491014 -0.010837588 4288254617
-0.062607653 -0.069420204 -0.010704619 4288188824
-0.060987882 -0.069349393 -0.01057165 4288123031
-0.059368111 -0.069278583 -0.010438681 4288386203
-0.057748336 -0.069207773 -0.010305711 4288386203
-0.056128569 -0.069136962 -0.010172742 4288451996
-0.054508794 -0.069066152 -0.010039773 4288517789
-0.052889023 -0.068995342 -0.0099068042 4288451996
-0.0513964 -0.066955775 -0.01011593 4288320410
-0.049772922 -0.066884801 -0.0099826567 4288254617
-0.048149444 -0.066813827 -0.0098493835 4288057751
-0.046525966 -0.066742852 -0.0097161094 4288255130
-0.044902485 -0.066671878 -0.0095828362 4288124314
-0.043279007 -0.066600911 -0.009449563 4288189337
-0.041655529 -0.066529937 -0.0093162898 4288189337
-0.040032052 -0.066458963 -0.0091830157 4288189337
-0.038311072 -0.068358049 -0.0087100817 4288189337
-0.036691301 -0.068287238 -0.0085771121 4288189337
-0.035255466 -0.064193219 -0.0091364291 4288255130
-0.033538133 -0.066175073 -0.008649922 4288583582
-0.032000784 -0.064050935 -0.0088692484 4288517789
-0.030291177 -0.066033125 -0.0083833747 4288451997
-0.028667698 -0.065962158 -0.0082501015 4288386204
-0.02704422 -0.065891184 -0.0081168283 4288188055
-0.02542074 -0.06582021 -0.0079835551 4287727504
-0.023864083 -0.06369523 -0.0082012955 4287464332
-0.022236742 -0.063624084 -0.0080677057 4287464331
-0.020609401 -0.063552946 -0.0079341149 4285885551
-0.018982062 -0.063481808 -0.0078005246 4285688940
-0.017354721 -0.063410662 -0.0076669338 4284109910
-0.01572738 -0.063339524 -0.0075333435 4283715154
-0.01410004 -0.063268378 -0.0073997532 4283978072
-0.012472699 -0.06319724 -0.0072661624 4283714901
-0.010880167 -0.061134815 -0.0074701747 4283714901
-0.0092490865 -0.061063513 -0.007336277 4283319889
-0.0076464741 -0.058917135 -0.0075534973 4282859851
-0.006011494 -0.058845658 -0.0074192798 4282662472
-0.0044062217 -0.05579206 -0.0077886553 4282465093
-0.0027656395 -0.05572034 -0.0076539777 4282202175
-0.0011250575 -0.055648617 -0.0075193001 4282070589
0.00051552273 -0.055576898 -0.0073846229 4281873209
0.0021561047 -0.055505179 -0.0072499453 4281610037
0.003796685 -0.055433456 -0.0071152677 4281478192
0.005437267 -0.055361737 -0.0069805905 4281871667
0.0070778453 -0.055290017 -0.0068459134 4281805872
0.0087286802 -0.053192411 -0.0070506372 4281345836
0.010373066 -0.053120524 -0.0069156471 4280622883
0.01201745 -0.053048637 -0.0067806575 4280557349
0.02251243 -0.021283643 -0.011177951 4283583827
0.02417141 -0.023223128 -0.010703772 4282990407
0.025870791 -0.023148838 -0.010564268 4281476398
0.027440805 -0.028111102 -0.0095902858 4281278503
0.029269554 -0.023000257 -0.010285259 4282001713
0.030759973 -0.030025998 -0.0089717787 4282068017
0.032446042 -0.02995229 -0.0088333674 4282003762
0.034132112 -0.029878581 -0.0086949561 4281741871
0.035818178 -0.029804872 -0.0085565448 4281676078
0.037504248 -0.029731164 -0.0084181326 4281741871
-0.082112841 -0.068221837 -0.014271357 4286675585
-0.080691047 -0.066102572 -0.014504052 4286938758
-0.079063699 -0.066031434 -0.014370461 4287070090
-0.077436358 -0.065960288 -0.01423687 4287464850
-0.075809024 -0.06588915 -0.01410328 4287728024
-0.073995456 -0.067866974 -0.01360499 4287728022
-0.072371975 -0.067796007 -0.013471717 4287793813
-0.070748493 -0.067725033 -0.013338443 4287991446
-0.068957388 -0.06962122 -0.012856034 4288188825
-0.067337617 -0.06955041 -0.012723064 4288320411
-0.065717846 -0.0694796 -0.012590095 4288320411
-0.064098075 -0.069408789 -0.012457126 4288386204
-0.0624783 -0.069337979 -0.012324157 4288451997
-0.060858529 -0.069267169 -0.012191188 4288517790
-0.059238754 -0.069196358 -0.012058218 4288846755
-0.057618983 -0.069125548 -0.011925249 4288846755
-0.055999212 -0.069054738 -0.01179228 4288846755
-0.054379441 -0.068983927 -0.011659311 4288780962
-0.052759666 -0.068913117 -0.011526342 4288649376
-0.051266748 -0.066873357 -0.011739162 4288517790
-0.049643271 -0.06680239 -0.011605889 4288386204
-0.048019793 -0.066731416 -0.011472614 4288189338
-0.046396315 -0.066660441 -0.011339341 4288386717
-0.044772837 -0.066589467 -0.011206068 4288255645
-0.043149356 -0.066518493 -0.011072794 4288386717
-0.041525878 -0.066447526 -0.010939521 4288386717
-0.03980149 -0.068346635 -0.010462589 4288320924
-0.038181718 -0.068275824 -0.010329619 4288255131
-0.036561947 -0.068205014 -0.010196649 4288123545
-0.035125509 -0.064110614 -0.010763518 4288123545
-0.033408485 -0.066092663 -0.010273154 4288254618
-0.031870827 -0.063968331 -0.010496337 4288254618
-0.030161526 -0.065950714 -0.010006607 4288254617
-0.028538048 -0.06587974 -0.0098733334 4287728273
-0.026914569 -0.065808773 -0.0097400593 4286609022
-0.025291089 -0.065737799 -0.0096067861 4285029990
-0.023667611 -0.065666825 -0.0094735129 4283977302
-0.022106783 -0.063541479 -0.0096947942 4283714384
-0.020479443 -0.063470341 -0.0095612034 4282596669
-0.018852104 -0.063399196 -0.0094276126 4283320905
-0.017224763 -0.063328058 -0.0092940228 4282531389
-0.015597422 -0.063256912 -0.009160432 4282399805
-0.013970082 -0.063185774 -0.0090268413 4282662723
-0.012342742 -0.063114628 -0.0088932514 4282399553
-0.01074991 -0.061052021 -0.0091010015 4282531139
-0.0091188289 -0.060980715 -0.0089671044 4282202175
-0.0075159054 -0.058834139 -0.0091882264 4282201662
-0.0059157852 -0.0557805 -0.0095636686 4282070076
-0.0042752051 -0.055708777 -0.009428991 4282004283
-0.0026346229 -0.055637058 -0.0092943134 4281938489
-0.00099404086 -0.055565339 -0.0091596367 4281938489
0.00064653932 -0.055493619 -0.0090249591 4281938743
0.0022871213 -0.055421896 -0.0088902814 4281807157
0.0039277016 -0.055350177 -0.0087556038 4281872180
0.0055682836 -0.055278458 -0.0086209262 4282266677
0.0072088619 -0.055206735 -0.0084862495 4282069298
0.024351604 -0.021122731 -0.012741016 4283583566
0.026054762 -0.021048274 -0.012601202 4281937458
0.027705882 -0.022988282 -0.01212389 4281739820
0.029546395 -0.01781987 -0.012837019 4282265394
0.031255331 -0.017745163 -0.01269673 4281476648
0.032964267 -0.017670454 -0.012556442 4281807407
0.034266759 -0.029792992 -0.010380761 4281610285
0.035952825 -0.029719284 -0.010242349 4281610285
0.037638899 -0.029645573 -0.010103937 4281610285
-0.083815761 -0.066162243 -0.01639832 4283386189
-0.081983194 -0.068139426 -0.015894573 4283583315
-0.080561087 -0.066019967 -0.01613114 4283648854
-0.078933746 -0.065948822 -0.01599755 4283912028
-0.077306397 -0.065877683 -0.015863959 4284306786
-0.075679064 -0.065806538 -0.015730368 4284569960
-0.073865801 -0.067784563 -0.015228207 4284504165
-0.07224232 -0.067713596 -0.015094933 4285162093
-0.070618846 -0.067642622 -0.01496166 4285491312
-0.068828039 -0.069538996 -0.014475556 4285886070
-0.06720826 -0.069468185 -0.014342587 4286215035
-0.065588489 -0.069397375 -0.014209618 4286478207
-0.063968718 -0.069326565 -0.014076649 4286741379
-0.062348947 -0.069255754 -0.01394368 4287136137
-0.060729176 -0.069184944 -0.01381071 4287399309
-0.059254494 -0.06714581 -0.014028746 4287465102
-0.057631016 -0.067074835 -0.013895473 4287530895
-0.056007538 -0.067003869 -0.013762198 4287662481
-0.054384056 -0.066932894 -0.013628925 4287859860
-0.052760579 -0.06686192 -0.013495652 4288057239
-0.051137101 -0.066790946 -0.013362378 4288320411
-0.049513623 -0.066719979 -0.013229105 4288451997
-0.047890145 -0.066649005 -0.013095831 4288518303
-0.046266664 -0.066578031 -0.012962558 4288254877
-0.044531453 -0.068476841 -0.012481019 4288124061
-0.042911682 -0.068406031 -0.012348049 4288320670
-0.04139623 -0.066365115 -0.012562738 4288254877
-0.039772753 -0.066294141 -0.012429465 4288123291
-0.038149271 -0.066223167 -0.01229619 4287926166
-0.036525793 -0.066152193 -0.012162917 4287662994
-0.034995548 -0.064028002 -0.012390606 4287531408
-0.033278834 -0.066010252 -0.01189637 4287070344
-0.031740867 -0.063885719 -0.012123425 4286412414
-0.030031879 -0.065868303 -0.011629824 4285557104
-0.028408399 -0.065797329 -0.011496549 4284636002
-0.026784919 -0.065726362 -0.011363276 4283450958
-0.025161441 -0.065655388 -0.011230003 4282135098
-0.023537962 -0.065584414 -0.011096729 4281740340
-0.021914484 -0.065513439 -0.010963456 4281807157
-0.020291004 -0.065442465 -0.010830183 4281544494
-0.018667525 -0.065371498 -0.010696908 4282268215
-0.017094804 -0.063245445 -0.010921111 4281676080
-0.015467463 -0.063174307 -0.010787521 4281741873
-0.013840123 -0.063103162 -0.01065393 4282005047
-0.012250734 -0.061040524 -0.010865741 4281741621
-0.010619652 -0.060969222 -0.010731843 4282136379
-0.0090203164 -0.058822617 -0.010957172 4282136379
-0.0073853368 -0.058751144 -0.010822955 4282333247
-0.0057847695 -0.055697218 -0.01120399 4282201915
-0.0041441894 -0.055625498 -0.011069313 4282135868
-0.0025036074 -0.055553779 -0.010934635 4282136122
-0.00086302549 -0.05548206 -0.010799957 4282201915
0.0007775547 -0.055410337 -0.01066528 4282332731
0.0024181367 -0.055338617 -0.010530603 4282266938
0.0040587168 -0.055266898 -0.010395925 4282266423
0.0056992988 -0.055195175 -0.010261248 4282134576
0.0073398775 -0.055123456 -0.01012657 4281871404
0.021138208 -0.018106664 -0.015247127 4284966500
0.022847142 -0.018031955 -0.015106838 4285163109
0.024556074 -0.017957246 -0.01496655 4283583564
0.026265008 -0.017882537 -0.014826261 4281345832
0.027973937 -0.01780783 -0.014685974 4281148194
0.029739622 -0.01569557 -0.014890494 4282068783
0.031452376 -0.015620694 -0.014749892 4281806124
0.033100739 -0.017583704 -0.014265107 4281478442
-0.081853539 -0.068057016 -0.01751782 4281806134
-0.080431126 -0.065937355 -0.01775823 4281871929
-0.078803785 -0.065866217 -0.017624639 4282003261
-0.077176437 -0.065795071 -0.017491048 4282003263
-0.075549103 -0.065723933 -0.017357457 4282003264
-0.073921762 -0.065652788 -0.017223867 4282069056
-0.072112672 -0.067631178 -0.016718179 4281938238
-0.070489191 -0.067560203 -0.016584907 4282201408
-0.068698682 -0.069456778 -0.016095079 4282596166
-0.067078911 -0.069385968 -0.015962111 4282793545
-0.065459132 -0.06931515 -0.01582914 4282925131
-0.063839369 -0.06924434 -0.015696172 4283188303
-0.062219594 -0.06917353 -0.015563202 4283583061
-0.060599819 -0.069102719 -0.015430233 4283912026
-0.058980048 -0.069031909 -0.015297264 4284569956
-0.057501364 -0.066992424 -0.015518718 4284635749
-0.055877883 -0.06692145 -0.015385445 4284898921
-0.054254405 -0.066850483 -0.015252172 4285227886
-0.052630927 -0.066779509 -0.015118898 4285688437
-0.05100745 -0.066708535 -0.014985625 4286214781
-0.049383972 -0.066637561 -0.014852352 4286609539
-0.04776049 -0.066566586 -0.014719077 4286807431
-0.046137013 -0.06649562 -0.014585804 4286939019
-0.0444021 -0.068394616 -0.014100541 4286873996
-0.042782325 -0.068323806 -0.013967572 4287070605
-0.041266579 -0.066282697 -0.014185984 4287070603
-0.039643098 -0.06621173 -0.01405271 4286807431
-0.03801962 -0.066140756 -0.013919437 4286478466
-0.036396142 -0.066069782 -0.013786163 4286083962
-0.034772661 -0.065998808 -0.01365289 4285820790
-0.033238251 -0.063874252 -0.013884105 4284767589
-0.03161091 -0.063803114 -0.013750514 4283517522
-0.029983569 -0.063731968 -0.013616923 4282267454
-0.028278746 -0.065714918 -0.013119796 4281741110
-0.026655268 -0.065643944 -0.012986523 4281543215
-0.025031788 -0.06557297 -0.012853249 4281411629
-0.02340831 -0.065502003 -0.012719976 4281806387
-0.021846866 -0.063376263 -0.012948971 4282333499
-0.020219527 -0.063305125 -0.01281538 4281940022
-0.018537873 -0.06528908 -0.012320155 4282334778
-0.016964845 -0.063162841 -0.0125482 4281545262
-0.015337504 -0.063091695 -0.012414609 4281676850
-0.013751559 -0.061029032 -0.012630465 4281874229
-0.012159706 -0.058882572 -0.01286035 4281413424
-0.010524726 -0.058811098 -0.012726133 4281939254
-0.0088897469 -0.058739621 -0.012591915 4282202426
-0.0072547668 -0.058668144 -0.012457698 4282333501
-0.0056537529 -0.055613939 -0.012844326 4282201913
-0.0040131728 -0.055542219 -0.012709648 4282266938
-0.0023725908 -0.055470496 -0.012574971 4282266936
-0.00073200889 -0.055398777 -0.012440294 4282266936
0.0009085713 -0.055327058 -0.012305616 4282332216
0.0025491533 -0.055255339 -0.012170939 4282200630
0.0041897334 -0.055183616 -0.012036261 4282135091
0.017856821 -0.01816933 -0.017236369 4284834142
0.01956575 -0.018094622 -0.017096082 4285558635
0.021274682 -0.018019913 -0.016955793 4285953393
0.022983616 -0.017945206 -0.016815504 4285623658
0.024692548 -0.017870497 -0.016675215 4283386951
0.026450898 -0.015758377 -0.016884191 4281149476
0.028110411 -0.017721079 -0.016394639 4281017120
0.029819343 -0.017646372 -0.016254351 4281871916
0.031589154 -0.01553375 -0.016462384 4282003502
-0.080301166 -0.065854751 -0.019385317 4281740343
-0.078673825 -0.065783605 -0.019251727 4281937468
-0.077046484 -0.065712467 -0.019118136 4281805884
-0.07522998 -0.067690715 -0.018607959 4281805885
-0.073791802 -0.065570183 -0.018850954 4282069056
-0.071983017 -0.067548767 -0.018341411 4281543480
-0.070359543 -0.067477793 -0.018208137 4281675064
-0.068736061 -0.067406826 -0.018074865 4281806650
-0.066949554 -0.069303744 -0.017581632 4281740857
-0.065329783 -0.069232933 -0.017448664 4281543478
-0.063710012 -0.069162123 -0.017315695 4281609271
-0.061933432 -0.071123078 -0.016812123 4281872443
-0.060317487 -0.071052432 -0.016679468 4282135615
-0.058701541 -0.070981793 -0.016546814 4282661959
-0.05723092 -0.068878874 -0.016783817 4282661959
-0.055611152 -0.068808064 -0.016650848 4282661959
-0.054124754 -0.066768065 -0.016875403 4282793545
-0.052371606 -0.068666443 -0.016384911 4283056717
-0.050877798 -0.066626124 -0.016608857 4283385682
-0.049254321 -0.06655515 -0.016475582 4283648854
-0.047630843 -0.066484176 -0.016342308 4283780953
-0.046007361 -0.066413209 -0.016209036 4283846748
-0.044272747 -0.068312392 -0.015720064 4283847518
-0.042760406 -0.06627126 -0.01594249 4284044127
-0.041136928 -0.066200286 -0.015809216 4283978332
-0.03951345 -0.066129312 -0.015675941 4283715160
-0.037889969 -0.066058345 -0.015542668 4283254863
-0.036266491 -0.065987371 -0.015409395 4282794312
-0.034735631 -0.063862786 -0.015644783 4282465347
-0.033019532 -0.065845422 -0.015142848 4282399041
-0.031396054 -0.065774448 -0.015009575 4281412145
-0.029772576 -0.065703481 -0.014876301 4280820008
-0.028149096 -0.065632507 -0.014743027 4281280813
-0.026525619 -0.065561533 -0.014609754 4282069559
-0.024902139 -0.065490559 -0.014476481 4282266938
-0.023278659 -0.065419585 -0.014343207 4282332731
-0.021716908 -0.063293658 -0.01457606 4282399292
-0.020145627 -0.061231453 -0.014796898 4282005815
-0.018514546 -0.061160151 -0.014663001 4282203705
-0.016883465 -0.061088845 -0.014529102 4281545262
-0.010394157 -0.058728099 -0.014360862 4282202424
-0.0088039003 -0.055674098 -0.014754002 4282531391
-0.0071633179 -0.055602379 -0.014619324 4282530878
-0.0055227377 -0.05553066 -0.014484648 4282399292
-0.0038821576 -0.055458937 -0.01434997 4282464315
-0.0022415756 -0.055387218 -0.014215292 4282398522
-0.00060099352 -0.055315498 -0.014080615 4282463802
0.0010395867 -0.055243779 -0.013945937 4282463802
0.01457543 -0.018231997 -0.019225627 4283583815
0.016284363 -0.018157288 -0.019085338 4284702298
0.017993296 -0.01808258 -0.018945049 4285492325
0.019702226 -0.018007871 -0.018804761 4286084464
0.021411158 -0.017933164 -0.018664474 4286348404
0.02312009 -0.017858455 -0.018524185 4285558120
0.024829024 -0.017783746 -0.018383896 4283386949
0.026537957 -0.017709037 -0.018243607 4281675818
0.028246887 -0.01763433 -0.018103318 4281346853
0.029955819 -0.017559621 -0.017963031 4281543718
-0.080171213 -0.065772139 -0.021012407 4282332480
-0.078543864 -0.065701 -0.020878816 4282398019
-0.076723807 -0.067679271 -0.020364463 4282398021
-0.075100332 -0.067608304 -0.020231189 4282463815
-0.073661841 -0.065487571 -0.020478044 4282529607
-0.072034508 -0.065416433 -0.020344453 4282004029
-0.070407167 -0.065345295 -0.020210862 4282004283
-0.068606414 -0.067324407 -0.019698096 4282004283
-0.066820197 -0.069221519 -0.019201156 4282004283
-0.065200426 -0.069150709 -0.019068187 4282004283
-0.063420333 -0.071111694 -0.018560475 4282004283
-0.061804384 -0.071041048 -0.018427819 4282004283
-0.060188439 -0.070970409 -0.018295163 4282004283
-0.058424342 -0.072922513 -0.017790465 4282267455
-0.056956545 -0.070829116 -0.018029854 4282333248
-0.055340599 -0.070758477 -0.017897198 4282399041
-0.053862024 -0.068655029 -0.018137403 4282333248
-0.052242249 -0.068584219 -0.018004432 4282135869
-0.050622478 -0.068513408 -0.017871464 4281872697
-0.049002707 -0.068442598 -0.017738495 4281741111
-0.047382932 -0.068371788 -0.017605525 4281610038
-0.045877714 -0.066330791 -0.017832268 4281280819
-0.04414339 -0.068230167 -0.017339587 4281215796
-0.042523619 -0.068159357 -0.017206619 4281412405
-0.041007277 -0.066117875 -0.017432448 4281609784
-0.039284073 -0.068017736 -0.016940679 4281807163
-0.037760321 -0.065975927 -0.017165899 4281873210
-0.036044531 -0.067876115 -0.01667474 4281741624
-0.034605674 -0.063780181 -0.017271873 4281675830
-0.032889884 -0.065763012 -0.016766079 4281477938
-0.031350993 -0.063637897 -0.017004691 4281543731
-0.029723652 -0.063566752 -0.0168711 4281675317
-0.028096311 -0.063495614 -0.01673751 4281807157
-0.026395967 -0.065479122 -0.016232986 4282135352
-0.024772488 -0.065408148 -0.016099712 4282266936
-0.02314901 -0.065337174 -0.01596644 4282398522
-0.021586951 -0.063211046 -0.016203148 4282333499
-0.02007347 -0.059073959 -0.016800895 4281940022
-0.018384289 -0.061077353 -0.016293827 4281808947
-0.0086728819 -0.05559082 -0.016394353 4282202424
-0.0070323003 -0.055519097 -0.016259676 4282333497
-0.0053917202 -0.055447377 -0.016124997 4282267704
0.011294038 -0.018294664 -0.021214869 4282661686
0.013002971 -0.018219955 -0.02107458 4283912266
0.014711904 -0.018145246 -0.020934293 4284834136
0.016420837 -0.018070538 -0.020794004 4285623398
0.01812977 -0.017995831 -0.020653715 4286018667
0.0198387 -0.017921122 -0.020513427 4286873978
0.021547632 -0.017846413 -0.020373138 4286610804
0.023256565 -0.017771704 -0.020232851 4285294946
0.024895661 -0.020776901 -0.019552626 4283057984
0.026598817 -0.020702446 -0.01941281 4281478439
0.028301975 -0.02062799 -0.019272996 4281281060
-0.078413904 -0.065618388 -0.022505919 4282398273
-0.076594159 -0.06759686 -0.02198768 4282398019
-0.074970677 -0.067525886 -0.021854406 4282463814
-0.073531881 -0.065404966 -0.022105146 4282529607
-0.071904548 -0.065333821 -0.021971557 4282069822
-0.065071076 -0.069068484 -0.020687709 4282201662
-0.063291281 -0.071029663 -0.020176183 4282135869
-0.06183153 -0.068926863 -0.020421771 4282135869
-0.06035937 -0.066887133 -0.020654945 4282070076
-0.058591984 -0.068785243 -0.020155832 4282267455
-0.056827493 -0.070747092 -0.019645564 4282399041
-0.055211548 -0.070676446 -0.019512909 4282464834
-0.053732671 -0.068572812 -0.019756924 4282464834
-0.052112896 -0.068501994 -0.019623956 4282267455
-0.050493125 -0.068431184 -0.019490987 4282135869
-0.048873354 -0.068360373 -0.019358017 4282004283
-0.047253579 -0.068289563 -0.019225048 4281939003
-0.045633808 -0.068218753 -0.019092079 4281610038
-0.044014037 -0.068147942 -0.018959111 4281478966
-0.042394266 -0.068077132 -0.01882614 4281741624
-0.040877629 -0.066035464 -0.019055665 4281873210
-0.039254148 -0.06596449 -0.01892239 4282070589
-0.03763067 -0.065893516 -0.018789116 4282136381
-0.036007192 -0.065822549 -0.018655844 4282004795
-0.034475714 -0.063697569 -0.018898975 4281939000
-0.032848373 -0.063626431 -0.018765384 4281872696
-0.031221034 -0.063555285 -0.018631795 4281938743
-0.029593693 -0.063484147 -0.018498205 4282004536
-0.027966352 -0.063413002 -0.018364614 4282070327
0.0097215809 -0.018282622 -0.023063838 4282332721
0.011430513 -0.018207913 -0.02292355 4283451715
0.013139446 -0.018133204 -0.022783261 4284767575
0.014848379 -0.018058496 -0.022642972 4285688675
0.016557312 -0.017983789 -0.022502685 4286215789
0.018266246 -0.01790908 -0.022362396 4286676340
0.019975174 -0.017834371 -0.022222107 4287071355
0.021684108 -0.017759662 -0.022081818 4286808183
0.023393041 -0.017684955 -0.02194153 4285294944
0.025101975 -0.017610246 -0.021801243 4282926396
0.026734831 -0.020615989 -0.021115705 4281544232
0.028437989 -0.020541534 -0.020975892 4281346853
-0.061702177 -0.068844639 -0.022041293 4282201661
-0.060082402 -0.068773828 -0.021908324 4282135868
-0.058462631 -0.068703018 -0.021775356 4282333247
-0.056698445 -0.070665061 -0.02126126 4282399040
-0.0550825 -0.070594415 -0.021128604 4282530626
-0.053466555 -0.070523776 -0.020995948 4282530626
-0.051983543 -0.068419777 -0.021243479 4282399040
-0.050363772 -0.068348967 -0.021110509 4282333247
-0.048743997 -0.068278149 -0.02097754 4282267454
-0.047124226 -0.068207338 -0.020844571 4282202174
-0.045504455 -0.068136528 -0.020711601 4281939002
-0.043884683 -0.068065718 -0.020578632 4281808186
-0.042264909 -0.067994907 -0.020445663 4282070588
-0.040747978 -0.065953054 -0.020678909 4282202174
-0.039025366 -0.067853287 -0.020179724 4282333760
-0.037405591 -0.067782477 -0.020046756 4282399551
-0.035877541 -0.065740131 -0.020279089 4282267965
-0.034345753 -0.063614964 -0.020526079 4282202426
0.009858055 -0.018195871 -0.024772504 4282859324
0.011566987 -0.018121164 -0.024632215 4284110159
0.01327592 -0.018046455 -0.024491927 4285360226
0.014984854 -0.017971747 -0.024351638 4286215535
0.016693786 -0.017897038 -0.024211349 4286742133
0.01840272 -0.017822329 -0.024071062 4287005305
0.020111648 -0.017747622 -0.023930773 4287465856
0.021820582 -0.017672913 -0.023790484 4287202684
0.023529515 -0.017598204 -0.023650195 4285228640
0.025238449 -0.017523497 -0.023509907 4282662713
0.026870845 -0.020529533 -0.022818616 4281740843
0.028574003 -0.020455075 -0.0226788 4281675050
0.0099945301 -0.018109122 -0.026481183 4283386439
0.011703463 -0.018034413 -0.026340896 4284899677
0.013412396 -0.017959705 -0.026200607 4286083951
0.015121329 -0.017884996 -0.026060319 4286807672
0.016830262 -0.017810287 -0.02592003 4287136637
0.018539196 -0.01773558 -0.025779741 4287268477
0.020248124 -0.017660871 -0.025639454 4287729028
0.021957057 -0.017586162 -0.025499165 4287465602
0.023665991 -0.017511453 -0.025358876 4285031261
0.025374923 -0.017436747 -0.025218587 4282464566
0.027006859 -0.020443076 -0.024521509 4281740843
0.028710017 -0.020368619 -0.024381695 4281938223
0.010131004 -0.018022371 -0.028189849 4284242007
0.011839937 -0.017947663 -0.02804956 4285689451
0.013548871 -0.017872956 -0.027909273 4286676346
0.015257803 -0.017798247 -0.027768984 4287202945
0.016966736 -0.017723538 -0.027628696 4287465602
0.01867567 -0.017648829 -0.027488407 4287531395
0.020384599 -0.017574122 -0.027348118 4287991432
0.022033395 -0.020579986 -0.026643848 4287794053
0.023736553 -0.020505531 -0.026504034 4284898907
0.025511397 -0.017349996 -0.026927253 4282069296
0.027220331 -0.017275289 -0.026786964 4281871917
0.028846029 -0.020282162 -0.026084591 4282200884
0.010267479 -0.017935621 -0.02989853 4284703074
0.011976412 -0.017860914 -0.029758241 4286084211
0.013685346 -0.017786205 -0.029617952 4286807934
0.015394279 -0.017711496 -0.029477665 4287202690
0.017103212 -0.017636787 -0.029337376 4287465604
0.018812144 -0.01756208 -0.029197088 4287465602
0.020521075 -0.017487371 -0.029056799 4287991178
0.022230007 -0.017412663 -0.02891651 4287793799
0.023938939 -0.017337954 -0.028776223 4284635223
0.025647873 -0.017263247 -0.028635934 4281608747
0.027356805 -0.017188538 -0.028495645 4281871919
0.010403953 -0.017848872 -0.031607196 4285229933
0.012112887 -0.017774163 -0.031466909 4286282106
0.01382182 -0.017699454 -0.031326618 4286807934
0.01555587 -0.015586952 -0.031568348 4287136897
0.017239686 -0.017550038 -0.031046042 4287399812
0.018948618 -0.017475329 -0.030905753 4287399811
0.020657549 -0.017400621 -0.030765465 4287859593
0.022366481 -0.017325914 -0.030625176 4287793287
0.024075413 -0.017251205 -0.030484887 4284371538
0.025784347 -0.017176496 -0.0303446 4281279269
0.01054043 -0.017762121 -0.033315875 4285822070
0.012249362 -0.017687412 -0.033175588 4286676864
0.013958295 -0.017612705 -0.033035301 4287136899
0.015667228 -0.017537996 -0.03289501 4287399812
0.01737616 -0.017463287 -0.032754723 4287597191
0.019085094 -0.017388579 -0.032614432 4287793800
0.020794023 -0.017313872 -0.032474145 4287793287
0.022502957 -0.017239163 -0.032333858 4287727494
0.024211889 -0.017164454 -0.032193568 4284174161
0.025920823 -0.017089745 -0.032053281 4281081890
0.010676904 -0.017675372 -0.035024542 4286545278
0.012385836 -0.017600663 -0.034884252 4286807934
0.014094769 -0.017525954 -0.034743965 4286939520
0.015803702 -0.017451247 -0.034603674 4287136640
0.017512634 -0.017376538 -0.034463387 4287793800
0.019221568 -0.01730183 -0.0343231 4287530114
0.020930497 -0.017227121 -0.034182809 4287859079
0.022639431 -0.017152414 -0.034042522 4287398528
0.024348363 -0.017077705 -0.033902235 4283977293
0.026057297 -0.017002996 -0.033761945 4281740333
0.0091044456 -0.01766333 -0.036873512 4285887602
0.010813379 -0.017588621 -0.036733221 4286873727
0.012522312 -0.017513912 -0.036592934 4287005313
0.014231245 -0.017439205 -0.036452644 4287136640
0.015940178 -0.017364496 -0.036312357 4287202433
0.01764911 -0.017289788 -0.036172066 4287859079
0.019358044 -0.017215079 -0.036031779 4287530114
0.021066973 -0.017140372 -0.035891492 4287793286
0.022775905 -0.017065663 -0.035751201 4287201149
0.024484839 -0.016990954 -0.035610914 4283714121
0.026193772 -0.016916245 -0.035470624 4281542952
0.010964732 -0.015463802 -0.038840126 4287071106
0.012658786 -0.017427163 -0.038301598 4287202692
0.014367719 -0.017352454 -0.038161311 4287334019
0.016076652 -0.017277746 -0.038021021 4287268226
0.017785585 -0.017203039 -0.037880734 4287859079
0.019494519 -0.01712833 -0.037740443 4287530114
0.021203447 -0.017053621 -0.037600156 4287793286
0.022912379 -0.016978912 -0.037459869 4287069563
0.024621313 -0.016904205 -0.037319578 4283450949
0.026330246 -0.016829496 -0.037179291 4281345573
0.0093773957 -0.01748983 -0.040290855 4286611071
0.011101512 -0.015376857 -0.04055262 4287136899
0.012795261 -0.017340412 -0.040010281 4287268485
0.014504194 -0.017265704 -0.03986999 4287465605
0.016213126 -0.017190997 -0.039729703 4287334018
0.017922061 -0.017116288 -0.039589413 4287859079
0.019630993 -0.017041579 -0.039449126 4287595907
0.021339923 -0.01696687 -0.039308839 4287924872
0.023048855 -0.016892163 -0.039168548 4286937977
0.024757788 -0.016817454 -0.039028261 4283253570
0.026466722 -0.016742745 -0.03888797 4281213987
0.0095255366 -0.015364789 -0.042405713 4286676864
0.011238292 -0.015289914 -0.042265113 4287071106
0.012931735 -0.017253663 -0.041718945 4287202692
0.014640668 -0.017178955 -0.041578658 4287531398
0.016349601 -0.017104246 -0.041438367 4287399811
0.018058535 -0.017029537 -0.04129808 4287990665
0.019767467 -0.01695483 -0.04115779 4287727747
0.021476397 -0.016880121 -0.041017503 4287859333
0.02318533 -0.016805412 -0.040877216 4286740852
0.024894262 -0.016730703 -0.040736925 4282924604
0.026603196 -0.016655996 -0.040596638 4281016608
0.028312128 -0.016581288 -0.040456347 4281543211
0.0096623162 -0.015277846 -0.044118207 4286808450
0.011375071 -0.01520297 -0.043977607 4287005313
0.013087821 -0.015128095 -0.043837003 4287202690
0.014777143 -0.017092204 -0.043287337 4287597191
0.016486077 -0.017017495 -0.043147046 4287465604
0.018195009 -0.016942788 -0.043006759 4287990919
0.019903943 -0.016868079 -0.042866472 4287793540
0.021612871 -0.01679337 -0.042726181 4287661954
0.023321806 -0.016718661 -0.042585894 4286346094
0.02507709 -0.014603967 -0.042852789 4282529846
0.026789842 -0.014529091 -0.042712186 4280819228
0.028448604 -0.016494537 -0.04216503 4281411625
0.0097990958 -0.015190901 -0.045830701 4287005829
0.011511852 -0.015116026 -0.045690097 4287071106
0.013204685 -0.017080164 -0.045136292 4287268483
0.014913618 -0.017005455 -0.044996001 4287662984
0.016622551 -0.016930746 -0.044855714 4287531397
0.018331483 -0.016856037 -0.044715423 4288056712
0.020040417 -0.01678133 -0.044575136 4287859331
0.021749346 -0.016706621 -0.044434849 4287596159
0.02345828 -0.016631912 -0.044294558 4286148715
0.025213869 -0.014517023 -0.044565283 4282332467
0.026926622 -0.014442148 -0.044424679 4280753435
0.0082231248 -0.015178833 -0.047683794 4285953145
0.0099358764 -0.015103958 -0.047543194 4287203210
0.011648632 -0.015029082 -0.047402591 4287136901
0.013361381 -0.014954207 -0.047261991 4287334278
0.015050094 -0.016918704 -0.046704683 4287728777
0.016759027 -0.016843995 -0.046564393 4287531395
0.018467959 -0.016769288 -0.046424106 4287990919
0.020176893 -0.016694579 -0.046283815 4287793538
0.021885822 -0.01661987 -0.046143528 4287661952
0.023637895 -0.014504954 -0.046418376 4286148713
0.025350649 -0.014430079 -0.046277776 4282332467
0.027063401 -0.014355204 -0.046137173 4280819229
0.0066419025 -0.017205497 -0.04911479 4284835434
0.008350837 -0.017130788 -0.048974503 4286742661
0.010072656 -0.015017013 -0.049255688 4286874245
0.011785411 -0.014942138 -0.049115084 4287268487
0.013498161 -0.014867263 -0.04897448 4287465864
0.015186568 -0.016831955 -0.048413347 4287597191
0.016895501 -0.016757246 -0.04827306 4287662981
0.018604433 -0.016682537 -0.04813277 4287925126
0.020313367 -0.016607828 -0.047992483 4287990917
0.022022296 -0.016533121 -0.047852196 4287267194
0.023731228 -0.016458413 -0.047711905 4285688162
0.025487429 -0.014343135 -0.047990266 4282266674
0.027200183 -0.01426826 -0.047849666 4280885022
0.006778378 -0.017118746 -0.050823472 4285098607
0.0084873131 -0.017044038 -0.050683182 4286742919
0.010196244 -0.016969329 -0.050542895 4287005833
0.011922191 -0.014855194 -0.050827578 4287334026
0.01361411 -0.016819913 -0.050262317 4287531657
0.015323043 -0.016745204 -0.05012203 4287662984
0.017031975 -0.016670495 -0.049981739 4287728774
0.018740909 -0.016595786 -0.049841452 4287990917
0.020449841 -0.016521079 -0.049701162 4288122503
0.022158772 -0.016446371 -0.049560875 4287398780
0.023867704 -0.016371662 -0.049420588 4285753955
0.025624208 -0.014256191 -0.04970276 4282266928
0.027336963 -0.014181316 -0.04956216 4280950815
0.0069148522 -0.017031996 -0.052532136 4285559158
0.0086334636 -0.014918 -0.052821275 4286874505
0.010346216 -0.014843126 -0.052680671 4287071626
0.012058971 -0.01476825 -0.052540071 4287399819
0.013771721 -0.014693375 -0.052399468 4287531657
0.015459517 -0.016658455 -0.051830694 4287662983
0.017168449 -0.016583746 -0.051690407 4287728774
0.018877383 -0.016509037 -0.051550116 4288056710
0.020586316 -0.016434329 -0.051409829 4288122501
0.022295246 -0.016359622 -0.051269539 4287530364
0.024004178 -0.016284913 -0.051129252 4285688162
0.025760988 -0.014169247 -0.051415253 4282201135
0.027473742 -0.014094371 -0.05127465 4281082400
0.0070513263 -0.016945247 -0.0542408 4286019455
0.0087702423 -0.014831058 -0.054533754 4286874505
0.010482995 -0.014756182 -0.05439315 4287071626
0.01219575 -0.014681307 -0.054252546 4287399819
0.0139085 -0.014606431 -0.054111946 4287465864
0.015621253 -0.014531556 -0.053971343 4287597190
0.017304923 -0.016496995 -0.053399071 4287663235
0.019013857 -0.016422288 -0.053258784 4287990915
0.02072279 -0.01634758 -0.053118493 4288122501
0.02243172 -0.016272871 -0.052978206 4287398778
0.024140652 -0.016198162 -0.052837916 4285424988
0.025849586 -0.016123455 -0.052697629 4282003754
0.027558519 -0.016048746 -0.052557342 4281148193
0.0054815174 -0.014893864 -0.056527451 4283717470
0.007194269 -0.014818989 -0.056386847 4286349190
0.0089070229 -0.014744113 -0.056246243 4286874505
0.010619774 -0.014669239 -0.056105644 4287071626
0.01233253 -0.014594363 -0.05596504 4287268233
0.014045279 -0.014519488 -0.05582444 4287400071
0.015758034 -0.014444612 -0.055683836 4287465604
0.017441399 -0.016410246 -0.05510775 4287597442
0.019150333 -0.016335538 -0.054967463 4287925122
0.020859266 -0.016260829 -0.054827172 4288056963
0.022506455 -0.019271132 -0.054030053 4287135861
0.024277128 -0.016111413 -0.054546598 4284964437
0.025986061 -0.016036704 -0.054406308 4281674789
0.027694995 -0.015961995 -0.054266021 4281082400
0.0056211427 -0.012840356 -0.058665644 4284046948
0.0073375776 -0.01276532 -0.058524739 4286678155
0.0090540145 -0.012690283 -0.058383834 4286874507
0.010770449 -0.012615247 -0.058242932 4287071626
0.012469309 -0.014507418 -0.057677533 4287268233
0.014182059 -0.014432544 -0.057536934 4287334278
0.015894813 -0.014357668 -0.05739633 4287399811
0.017577874 -0.016323496 -0.056816418 4287531649
0.019286808 -0.016248787 -0.056676127 4287859329
0.02099574 -0.01617408 -0.05653584 4288056963
0.022704668 -0.016099371 -0.056395553 4286872689
0.024413602 -0.016024662 -0.056255262 4284569679
0.026122535 -0.015949953 -0.056114975 4281280031
0.027831469 -0.015875246 -0.055974685 4281082400
0.0057582189 -0.012753224 -0.060381845 4284375913
0.0074746539 -0.012678187 -0.060240943 4286875534
0.0091910902 -0.012603151 -0.060100038 4287006093
0.010907525 -0.012528115 -0.059959132 4287137164
0.012606091 -0.014420474 -0.059390042 4287334028
0.014318841 -0.014345598 -0.059249438 4287334280
0.016031595 -0.014270723 -0.059108838 4287465604
0.01771435 -0.016236745 -0.058525112 4287531649
0.019423284 -0.016162036 -0.058384825 4287925122
0.021132216 -0.016087329 -0.058244534 4288056963
0.022841146 -0.01601262 -0.058104247 4286741103
0.024550078 -0.015937911 -0.05796396 4284306507
0.026259011 -0.015863203 -0.057823669 4281082652
0.0058918581 -0.014633032 -0.061664943 4284638572
0.0076046097 -0.014558156 -0.061524343 4287072143
0.0093173636 -0.01448328 -0.061383739 4287137164
0.011030115 -0.014408406 -0.061243135 4287203212
0.01274287 -0.01433353 -0.061102536 4287399819
0.01445562 -0.014258655 -0.060961932 4287465351
0.016168375 -0.014183779 -0.060821332 4287465605
0.017881127 -0.014108904 -0.060680728 4287728260
0.019559758 -0.016075287 -0.060093489 4287990917
0.02126869 -0.016000578 -0.059953202 4288188037
0.02297762 -0.015925869 -0.059812911 4286740591
0.024686553 -0.015851162 -0.059672624 4284240203
0.026395485 -0.015776454 -0.059532337 4281016348
0.0060247709 -0.016586203 -0.062924474 4286084476
0.0077337017 -0.016511494 -0.062784187 4286873992
0.0094541432 -0.014396337 -0.063096233 4287268235
0.011166895 -0.014321461 -0.062955633 4287334026
0.01287965 -0.014246586 -0.062815025 4287465353
0.014569434 -0.016212661 -0.062223036 4287531144
0.016305154 -0.014096836 -0.062533826 4287728007
0.018017907 -0.01402196 -0.062393222 4287859079
0.019696232 -0.015988536 -0.061802167 4287990406
0.021405166 -0.015913827 -0.06166188 4288187015
0.023050509 -0.018925304 -0.060841646 4286805362
0.024981748 -0.0087015089 -0.06293612 4283581505
0.026703892 -0.0086262226 -0.062794745 4281410338
0.028426038 -0.0085509373 -0.06265337 4281476646
0.0061612451 -0.016499454 -0.064633146 4286347134
0.0078701759 -0.016424745 -0.064492851 4287070856
0.0095791109 -0.016350036 -0.064352565 4287268233
0.011288042 -0.01627533 -0.064212278 4287334280
0.013016429 -0.014159643 -0.064527504 4287465351
0.014705908 -0.016125912 -0.063931704 4287531144
0.016414842 -0.016051203 -0.063791409 4287793287
0.018123774 -0.015976496 -0.063651122 4287859080
0.019832708 -0.015901787 -0.063510835 4288121224
0.02154164 -0.015827078 -0.063370548 4288121224
0.023250569 -0.01575237 -0.063230261 4286804851
0.025050232 -0.011666432 -0.063980401 4283580994
0.026841421 -0.0085388031 -0.064516619 4281410339
0.028563567 -0.0084635168 -0.064375244 4281607718
0.0080066519 -0.016337994 -0.066201538 4287136649
0.009715586 -0.016263288 -0.066061243 4287268233
0.011440455 -0.014147573 -0.066380613 4287334280
0.01313345 -0.01611387 -0.065780669 4287465351
0.014842384 -0.016039161 -0.065640382 4287531144
0.016551316 -0.015964452 -0.065500095 4287859080
0.01826025 -0.015889745 -0.065359801 4287859080
0.019969182 -0.015815036 -0.065219514 4288121224
0.021678116 -0.015740328 -0.065079227 4288121224
0.023387045 -0.015665621 -0.06493894 4286410606
0.025142474 -0.013548571 -0.065255798 4283318335
0.026855227 -0.013473695 -0.065115198 4281410339
0.028513843 -0.015441494 -0.064518072 4281607718
0.030222777 -0.015366786 -0.064377785 4281805613
0.0081517287 -0.014210381 -0.068374299 4287136649
0.0098644821 -0.014135506 -0.068233699 4287268233
0.011577234 -0.01406063 -0.068093091 4287334280
0.013269925 -0.016027119 -0.067489348 4287531144
0.014978859 -0.01595241 -0.067349061 4287596937
0.016687792 -0.015877703 -0.067208774 4287859080
0.018396724 -0.015802994 -0.067068487 4287859080
0.020105658 -0.015728286 -0.066928193 4287924615
0.02181459 -0.015653577 -0.066787906 4288055431
0.023523521 -0.015578869 -0.066647619 4285884262
0.025279252 -0.013461627 -0.066968277 4283055163
0.027040821 -0.011417133 -0.067271866 4281344546
0.028650319 -0.015354744 -0.066226751 4281542439
0.030359251 -0.015280035 -0.066086464 4281805613
0.0082885092 -0.014123436 -0.070086807 4286940040
0.010001263 -0.014048561 -0.069946207 4287268233
0.011714014 -0.013973686 -0.0698056 4287334280
0.013406399 -0.01594037 -0.069197997 4287531144
0.015115332 -0.015865663 -0.06905771 4287662730
0.016824264 -0.015790954 -0.068917423 4287859080
0.018533198 -0.015716245 -0.068777137 4287859080
0.02024213 -0.015641537 -0.06863685 4287858822
0.021951064 -0.015566829 -0.068496555 4287858822
0.023659993 -0.015492121 -0.068356268 4285357918
0.025416033 -0.013374683 -0.068680786 4282726198
0.027128788 -0.013299807 -0.068540186 4281147681
0.028786791 -0.015267995 -0.067935407 4281608232
0.030495726 -0.015193286 -0.067795113 4281871406
0.008425286 -0.014036494 -0.071799256 4287005833
0.010138039 -0.013961619 -0.071658649 4287268233
0.011850791 -0.013886744 -0.071518049 4287334280
0.013542872 -0.015853621 -0.070906654 4287596937
0.015251805 -0.015778914 -0.07076636 4287793546
0.016960738 -0.015704205 -0.070626073 4287924873
0.01866967 -0.015629496 -0.070485786 4287859080
0.020378605 -0.015554788 -0.070345499 4287858822
0.022087537 -0.01548008 -0.070205212 4287793029
0.023796465 -0.015405372 -0.070064917 4285028953
0.025552809 -0.013287741 -0.070393234 4282594612
0.027214332 -0.015255955 -0.069784343 4281147681
0.028923266 -0.015181246 -0.069644056 4281674025
0.030632198 -0.015106537 -0.069503769 4281871919
0.006863324 -0.0090051312 -0.074822508 4286479234
0.0085712457 -0.01198114 -0.073970348 4287071626
0.01027482 -0.013874674 -0.073371157 4287268233
0.011987572 -0.013799799 -0.073230557 4287465353
0.013679347 -0.015766872 -0.072615333 4287727753
0.01538828 -0.015692163 -0.072475046 4287859339
0.017097212 -0.015617454 -0.072334751 4287924873
0.018806146 -0.015542746 -0.072194465 4287859080
0.020515079 -0.015468038 -0.072054178 4287793029
0.022224013 -0.015393329 -0.071913891 4287727236
0.023932941 -0.015318621 -0.071773604 4284832344
0.025641873 -0.015243913 -0.071633309 4282463796
0.027350808 -0.015169204 -0.071493022 4281345060
0.02905974 -0.015094495 -0.071352735 4281871404
0.030768674 -0.015019787 -0.071212448 4281937712
0.0069918837 -0.011969046 -0.075827405 4286545027
0.0087083187 -0.01189401 -0.075686507 4287203212
0.010424756 -0.011818973 -0.075545602 4287268233
0.01212435 -0.013712856 -0.074943036 4287465353
0.013815822 -0.015680121 -0.074324012 4287727753
0.015524755 -0.015605412 -0.074183725 4287859339
0.017233688 -0.015530704 -0.074043438 4287924873
0.018942621 -0.015455996 -0.073903143 4287859080
0.020651555 -0.015381287 -0.073762856 4287793029
0.022360487 -0.015306579 -0.073622569 4287727236
0.024069417 -0.01523187 -0.073482282 4284898137
0.025778349 -0.015157162 -0.073341995 4282595382
0.027487284 -0.015082453 -0.073201701 4281476646
0.029196216 -0.015007745 -0.073061414 4281871917
0.030905148 -0.014933037 -0.072921127 4281872176
0.005412519 -0.011956953 -0.07768447 4286150782
0.0071289563 -0.011881916 -0.077543564 4286611333
0.0088453908 -0.01180688 -0.077402659 4286808454
0.01054838 -0.013700786 -0.076796144 4287070854
0.012261132 -0.013625911 -0.076655544 4287267974
0.013952295 -0.015593372 -0.076032661 4287859339
0.015661228 -0.015518663 -0.075892374 4287859339
0.017370161 -0.015443955 -0.075752087 4287661701
0.019079095 -0.015369247 -0.0756118 4287859080
0.020788027 -0.015294538 -0.075471506 4287793029
0.022496961 -0.01521983 -0.075331219 4287003513
0.02420589 -0.015145122 -0.075190932 4284174414
0.025914824 -0.015070413 -0.075050645 4282134831
0.027623756 -0.014995704 -0.074910358 4281806124
0.029332688 -0.014920997 -0.074770063 4281806124
0.031041622 -0.014846288 -0.074629776 4281674797
0.0038316252 -0.0088934395 -0.080270939 4283913820
0.0055495943 -0.011869821 -0.079400659 4286216575
0.0072660311 -0.011794784 -0.079259753 4286808712
0.0089824656 -0.011719748 -0.079118848 4287071626
0.010698902 -0.011644712 -0.078977942 4287136647
0.01239791 -0.013538968 -0.078368023 4287267974
0.014088771 -0.015506621 -0.07774134 4287793546
0.015797704 -0.015431913 -0.077601053 4287793546
0.017506637 -0.015357205 -0.077460766 4287530115
0.019215571 -0.015282496 -0.077320479 4287727494
0.020924503 -0.015207788 -0.077180192 4287661443
0.022633435 -0.015133079 -0.077039897 4286740341
0.024387175 -0.01301484 -0.077383809 4283516484
0.02609993 -0.012939964 -0.077243201 4281674537
0.027760232 -0.014908955 -0.076619036 4281542952
0.029525436 -0.012790214 -0.076962002 4281675051
0.031238191 -0.012715339 -0.076821402 4281609774
0.0039702342 -0.011857726 -0.081257746 4283913820
0.0056866691 -0.011782689 -0.08111684 4286216575
0.007403106 -0.011707653 -0.080975942 4286874505
0.0091195405 -0.011632617 -0.080835037 4287203212
0.010821939 -0.013526899 -0.080221131 4287268233
0.012534691 -0.013452023 -0.080080532 4287333767
0.014225246 -0.015419871 -0.079450026 4287727753
0.015934179 -0.015345163 -0.079309732 4287661960
0.017643113 -0.015270454 -0.079169445 4287464322
0.019352045 -0.015195746 -0.079029158 4287727494
0.021060979 -0.015121037 -0.078888871 4287464064
0.022769911 -0.015046329 -0.078748584 4286279790
0.024523957 -0.012927895 -0.079096317 4282924604
0.026236711 -0.01285302 -0.07895571 4281345572
0.028000338 -0.010807216 -0.079285085 4281477159
0.029716775 -0.01073218 -0.07914418 4281675051
0.031374972 -0.012628394 -0.078533903 4281609774
0.0041073067 -0.011770596 -0.082973905 4283979613
0.0058237417 -0.011695559 -0.082833 4286216575
0.0075401785 -0.011620523 -0.082692094 4286677126
0.0092566134 -0.011545487 -0.082551189 4287005833
0.010958718 -0.013439955 -0.08193361 4287268233
0.012652788 -0.015407829 -0.081298992 4287333767
0.014361721 -0.015333121 -0.081158705 4287661960
0.016070655 -0.015258412 -0.081018418 4287596167
0.017779587 -0.015183704 -0.080878124 4287530115
0.019488521 -0.015108995 -0.080737837 4287793287
0.021197453 -0.015034287 -0.08059755 4287332478
0.022906387 -0.014959578 -0.080457263 4285950825
0.02470454 -0.010870159 -0.081283048 4282595639
0.026373489 -0.012766077 -0.080668189 4281345572
0.02813741 -0.010720086 -0.081001244 4281609258
0.029853847 -0.01064505 -0.080860339 4281675821
0.0042443816 -0.011683464 -0.084690094 4284374371
0.0059572407 -0.013577636 -0.084067926 4286348161
0.0076772533 -0.011533392 -0.084408283 4286611333
0.0093936883 -0.011458355 -0.084267378 4286808454
0.0110955 -0.013353011 -0.083646119 4287202440
0.012789262 -0.01532108 -0.083007641 4287267974
0.014498195 -0.015246372 -0.082867354 4287596167
0.016207127 -0.015171663 -0.082727067 4287530374
0.017870042 -0.018185643 -0.081835732 4287661701
0.019573199 -0.018111188 -0.081695914 4287990666
0.021333927 -0.014947538 -0.082306199 4287201149
0.02304286 -0.014872829 -0.082165912 4285424738
0.024797516 -0.012754007 -0.082521304 4282332467
0.02651027 -0.012679132 -0.082380697 4281279779
0.028274484 -0.010632955 -0.082717426 4281675051
0.029990921 -0.010557918 -0.082576528 4281675821
0.0043814541 -0.011596334 -0.086406246 4284703336
0.006097889 -0.011521298 -0.086265348 4286545540
0.0078143263 -0.011446262 -0.086124443 4286677126
0.0095195249 -0.013340943 -0.085499197 4286874247
0.011232278 -0.013266067 -0.085358597 4287136647
0.012925737 -0.01523433 -0.08471632 4287202181
0.01463467 -0.015159621 -0.084576033 4287530374
0.016343603 -0.015084913 -0.084435746 4287464581
0.018052535 -0.015010204 -0.084295459 4287661701
0.019761469 -0.014935496 -0.084155172 4287990666
0.021470401 -0.014860787 -0.084014878 4286872184
0.023179336 -0.01478608 -0.083874591 4284766808
0.024934296 -0.012667065 -0.084233776 4281871916
0.02664705 -0.012592189 -0.084093176 4281017120
0.028411558 -0.010545825 -0.084433585 4281544235
0.030127995 -0.010470788 -0.08429268 4281610285
0.002797127 -0.0085316235 -0.089021698 4281479478
0.0045192721 -0.0084563373 -0.088880323 4284637543
0.006241418 -0.008381051 -0.088738948 4286545540
0.0079635633 -0.0083057657 -0.088597581 4286677639
0.0096563054 -0.013253998 -0.087211706 4286940297
0.011353281 -0.015222288 -0.086565293 4287070854
0.013062213 -0.015147579 -0.086425006 4287202181
0.014771146 -0.015072871 -0.086284712 4287464581
0.016480079 -0.014998162 -0.086144425 4287398788
0.018189011 -0.014923454 -0.086004138 4287661701
0.019897943 -0.014848745 -0.085863851 4287859080
0.021606877 -0.014774038 -0.085723564 4286411633
0.023358326 -0.012654995 -0.086086892 4283977292
0.025071077 -0.01258012 -0.085946284 4281609257
0.026832195 -0.01053373 -0.08629068 4280951327
0.028548632 -0.010458693 -0.086149774 4281610028
0.0029315946 -0.0063699451 -0.091262728 4281281840
0.0046568024 -0.0083689168 -0.090602204 4284440163
0.0063836435 -0.0062190341 -0.090979345 4286413953
0.0081010936 -0.0082183443 -0.090319462 4286611846
