# .PCD v0.7 - Point Cloud Data file format
VERSION 0.7
FIELDS x y z rgb
SIZE 4 4 4 4
TYPE F F F U
COUNT 1 1 1 1
WIDTH 983
HEIGHT 1
VIEWPOINT 0 0 0 1 0 0 0
POINTS 983
DATA ascii
0.0025133383 -0.021309022 0.030161954 4278780938
0.0025954798 -0.0230176 0.03002152 4279834141
0.0026776216 -0.024726182 0.029881086 4283518549
0.002759763 -0.026434761 0.029740652 4285492594
0.00044480563 -0.028351592 0.031475935 4285623410
0.00052666961 -0.030054398 0.031335976 4285031012
0.00060853356 -0.031757202 0.031196015 4284174931
-0.00087834935 -0.033584919 0.032284096 4282990397
-0.0023586473 -0.035404544 0.033367354 4282530100
-0.0022771456 -0.037099816 0.033228014 4281805862
-0.003064679 0.024504269 0.034408659 4282661692
-0.0045434157 0.022551769 0.035489615 4283056452
-0.006015603 0.020607915 0.036565781 4283319624
-0.004380051 0.019153709 0.035210315 4283517003
-0.0042983685 0.017454678 0.035070665 4283582796
-0.0042166859 0.01575565 0.034931019 4284044115
-0.0041350038 0.01405662 0.034791369 4283978576
-0.0040533212 0.01235759 0.034651719 4284637018
-0.0024097667 0.010881813 0.033288982 4284768600
-0.0023279027 0.0091790073 0.033149023 4284966233
-0.0022460388 0.0074762013 0.033009063 4284308302
-0.0021641746 0.005773392 0.032869104 4281413157
-0.003644909 0.0038624401 0.033953473 4279373576
-0.0020004467 0.0023677805 0.032589186 4279308300
-0.0019185827 0.00066497392 0.032449227 4279900439
-0.0033998615 -0.0012346503 0.033534527 4280360738
-0.0033181792 -0.0029336803 0.033394877 4280821287
-0.0032364966 -0.0046327109 0.033255227 4281874488
-0.0031548142 -0.0063317409 0.033115577 4283322186
-0.0030731317 -0.0080307713 0.032975927 4284309080
-0.0029914493 -0.0097298007 0.032836281 4284506198
-0.002909767 -0.011428831 0.032696631 4283123001
-0.0012636706 -0.01295748 0.03132955 4282201899
-0.0027464021 -0.014826891 0.032417331 4282004265
-0.0026647195 -0.01652592 0.032277681 4280952095
-0.0010180785 -0.0180659 0.030909671 4279833876
-0.00093621452 -0.019768706 0.030769711 4279175694
-0.00085435051 -0.021471513 0.03062975 4278913039
-0.0007724865 -0.023174319 0.030489791 4280097315
-0.00069062249 -0.024877127 0.030349832 4283584344
-0.00060875854 -0.026579931 0.030209873 4285426546
-0.00052689441 -0.028282741 0.030069912 4285557617
-0.00044503043 -0.029985547 0.029929953 4285163111
-0.0019295774 -0.031817194 0.031020839 4284702299
-0.0018478951 -0.033516221 0.030881191 4284043852
-0.0033260472 -0.035335999 0.031967554 4283845958
-0.0056026001 -0.037208106 0.03368187 4283254074
-0.0071258871 -0.039014135 0.034804475 4283253813
-0.0070448443 -0.040699858 0.03466592 4282661676
-0.0055946438 0.024319496 0.034226358 4283319622
-0.0070645041 0.02237173 0.035305321 4283911761
-0.0069830026 0.02067646 0.03516598 4284240726
-0.0069015012 0.018981192 0.03502664 4284503898
-0.0068199993 0.017285923 0.034887299 4284569691
-0.0067384974 0.01559065 0.034747958 4284899424
-0.006656996 0.01389538 0.034608621 4284636506
-0.0050228667 0.012426287 0.033248816 4285491814
-0.0049411845 0.010727258 0.033109166 4285689445
-0.004859502 0.009028228 0.032969516 4285558370
-0.0047778194 0.0073291981 0.032829866 4284242509
-0.0046961373 0.0056301672 0.03269022 4281084192
-0.0046144547 0.0039311377 0.03255057 4279241990
-0.0029721467 0.0024366309 0.031183165 4279571472
-0.0028902828 0.00073382433 0.031043204 4280229404
-0.0043694074 -0.0011659525 0.03213162 4280689703
-0.0042877248 -0.0028649825 0.031991974 4280887080
-0.0042060423 -0.0045640129 0.031852324 4281413424
-0.0041243597 -0.0062630428 0.031712674 4282334778
-0.0040426776 -0.0079620732 0.031573024 4282927427
-0.003960995 -0.0096611027 0.031433374 4283124545
-0.0038793127 -0.011360133 0.031293727 4282597171
-0.0037976301 -0.013059163 0.031154078 4282399278
-0.0037159477 -0.014758193 0.031014428 4282464816
-0.0036342652 -0.016457222 0.030874778 4281149474
-0.0035525828 -0.018156255 0.030735129 4279702290
-0.0034709002 -0.019855283 0.03059548 4279175694
-0.0033892179 -0.021554314 0.030455831 4278913294
-0.0033075353 -0.023253344 0.030316181 4280031520
-0.003225853 -0.024952374 0.030176532 4283781723
-0.0015804586 -0.026511081 0.028803851 4285492339
-0.003062488 -0.028350433 0.029897233 4285689203
-0.0014167305 -0.029916696 0.028523931 4285557869
-0.0028991231 -0.031748496 0.029617935 4285491815
-0.0043749488 -0.033572182 0.030707095 4285031261
-0.0042934469 -0.035267454 0.030567756 4285228124
-0.0065667555 -0.037139792 0.032286767 4284833106
-0.0080878353 -0.038945977 0.033412561 4284766798
-0.0080067925 -0.040631697 0.033274006 4283845696
-0.012210448 0.026865272 0.0374243 4282530106
-0.012129406 0.025179552 0.037285741 4283319622
-0.012048363 0.02349383 0.037147187 4284109138
-0.01196732 0.02180811 0.037008632 4284767070
-0.011886277 0.02012239 0.036870077 4285161828
-0.011805235 0.01843667 0.036731523 4285425000
-0.010130224 0.016995307 0.035335593 4285556586
-0.010048996 0.015305723 0.035196722 4285820526
-0.0099677676 0.013616134 0.035057846 4285623401
-0.0075428938 0.012268656 0.03306948 4286544502
-0.0074613923 0.010573386 0.032930139 4286676340
-0.0073798904 0.0088781165 0.032790799 4285953128
-0.007298389 0.0071828458 0.032651462 4284045130
-0.0072168871 0.0054875761 0.032512121 4280755227
-0.0071353856 0.0037923059 0.03237278 4279176197
-0.005502318 0.0023008052 0.031008014 4279505679
-0.0054206355 0.00060177478 0.030868366 4280163611
-0.0068908804 -0.001293505 0.031954758 4280623910
-0.0052572703 -0.0027962846 0.030589068 4280689701
-0.0051755882 -0.0044953153 0.030449418 4280887080
-0.0050939056 -0.0061943452 0.030309768 4281479469
-0.005012223 -0.0078933751 0.03017012 4282072118
-0.0049305409 -0.0095924055 0.03003047 4282400822
-0.0048488583 -0.011291435 0.029890822 4282268206
-0.0047671758 -0.012990465 0.029751172 4282202413
-0.0046854932 -0.014689496 0.029611524 4282399793
-0.0061573652 -0.016550938 0.030700698 4281018401
-0.0060758637 -0.018246206 0.030561358 4279768083
-0.0083431983 -0.020175604 0.032280389 4279308050
-0.0059128604 -0.021636747 0.030282678 4279242259
-0.0058313585 -0.023332017 0.030143337 4280163106
-0.0057498566 -0.025027288 0.030003997 4283913309
-0.0041137161 -0.026582707 0.028633978 4285689718
-0.004032034 -0.028281737 0.02849433 4286083961
-0.0039503514 -0.029980768 0.02835468 4286084213
-0.0054238499 -0.031808369 0.029446637 4286018159
-0.0076933703 -0.0336923 0.031169403 4285491812
-0.0076121418 -0.035381887 0.03103053 4285886054
-0.0075309132 -0.037071474 0.030891657 4285688673
-0.0090497881 -0.038877815 0.032020647 4285754208
-0.0089687454 -0.040563539 0.031882089 4285029972
-0.010419735 -0.042353619 0.032957789 4283911491
-0.010338871 -0.04403564 0.032819539 4282924596
-0.013253436 0.028619152 0.036170945 4282990911
-0.01469502 0.026677163 0.037237223 4283517255
-0.014614156 0.024995143 0.037098974 4284372310
-0.013010309 0.02356199 0.03575528 4285096033
-0.014452427 0.021631109 0.036822472 4285622377
-0.012848224 0.020190548 0.035478171 4285951342
-0.012767182 0.01850483 0.035339613 4286214514
-0.012686139 0.016819108 0.035201058 4286346100
-0.012605096 0.015133389 0.035062503 4286544249
-0.012524053 0.013447668 0.034923948 4286478710
-0.012443011 0.011761948 0.034785394 4287399811
-0.012361969 0.010076229 0.034646839 4287202684
-0.012280926 0.0083905086 0.034508284 4286084201
-0.012199883 0.0067047882 0.034369729 4283913031
-0.012118841 0.0050190673 0.034231171 4280623641
-0.010444552 0.003546929 0.032829504 4279241990
-0.0080212839 0.0021655809 0.030833641 4279570702
-0.007939782 0.0004703108 0.0306943 4280031255
-0.0078582801 -0.0012249592 0.03055496 4280294945
-0.0062268162 -0.002727587 0.029186163 4280229150
-0.0061451336 -0.0044266176 0.029046515 4280360736
-0.0045062308 -0.0059397016 0.027671317 4280821539
-0.0044243671 -0.007642508 0.027531357 4281611054
-0.0043425029 -0.0093453145 0.027391398 4282137650
-0.0042606387 -0.011048121 0.027251437 4281807656
-0.004178775 -0.012750928 0.027111478 4281610276
-0.0056550391 -0.014620798 0.028208619 4281807656
-0.0055733565 -0.016319828 0.028068969 4280623643
-0.0070432634 -0.01817766 0.029161559 4279702288
-0.0093073538 -0.020107288 0.030885283 4279571220
-0.0092261247 -0.021796875 0.03074641 4279637017
-0.0091448966 -0.023486461 0.030607536 4280492584
-0.0090636685 -0.025176048 0.030468663 4283782234
-0.0089824395 -0.026865635 0.03032979 4285756024
-0.0089012114 -0.028555222 0.030190917 4286282110
-0.0064727515 -0.030044552 0.028186178 4286413692
-0.0087387543 -0.031934395 0.029913172 4286281588
-0.0086575262 -0.033623982 0.029774299 4285689704
-0.010173819 -0.035438217 0.030905848 4286084203
-0.010092776 -0.037123937 0.030767292 4286280812
-0.010011734 -0.038809657 0.030628737 4286214506
-0.0099306917 -0.040495381 0.030490182 4285951334
-0.011379572 -0.04228561 0.031568933 4285293402
-0.011298707 -0.043967631 0.031430684 4284306762
-0.011217842 -0.045649648 0.031292431 4283188279
-0.011136978 -0.047331665 0.031154182 4282267177
-0.018255329 0.031376243 0.03813545 4282661946
-0.01817474 0.029699959 0.03799767 4283122497
-0.015735727 0.028427193 0.035986613 4284504150
-0.018013563 0.026347408 0.037722111 4284964701
-0.017932974 0.02467113 0.037584331 4285622377
-0.017852385 0.022994852 0.037446555 4286148721
-0.017771797 0.021318577 0.037308775 4286411893
-0.015331403 0.020017099 0.03529536 4286609272
-0.015250538 0.018335082 0.035157107 4286806651
-0.015169674 0.016653061 0.035018858 4286938237
-0.015088809 0.014971042 0.034880608 4287004800
-0.015007945 0.013289022 0.034742355 4286873468
-0.01492708 0.011607003 0.034604106 4287531397
-0.013323924 0.010144389 0.033254918 4287005305
-0.01476535 0.0082429657 0.034327604 4285952615
-0.014684486 0.0065609482 0.034189351 4284044617
-0.014603621 0.0048789289 0.034051102 4280821020
-0.012999753 0.0034015076 0.032700699 4279176197
-0.011327479 0.0019256572 0.031295527 4279570702
-0.011246251 0.00023607039 0.031156654 4279833876
-0.011165022 -0.0014535163 0.03101778 4279834394
-0.0087441802 -0.0028516839 0.029015819 4279834392
-0.0071146772 -0.00435792 0.027643614 4279900185
-0.0070329946 -0.00605695 0.027503964 4280360988
-0.0053960672 -0.0075736577 0.026125336 4281150503
-0.005314203 -0.0092764646 0.025985377 4281742892
-0.0052323388 -0.010979271 0.025845416 4282005548
-0.0051504751 -0.012682077 0.025705457 4281479204
-0.0066245827 -0.014552101 0.026805717 4281413157
-0.0065429001 -0.01625113 0.026666069 4280163862
-0.008010665 -0.018109115 0.027761757 4279176714
-0.010271509 -0.020038972 0.029490178 4279045389
-0.010190281 -0.021728558 0.029351305 4279308309
-0.010109052 -0.023418145 0.029212432 4280558377
-0.010027824 -0.025107734 0.029073559 4283782234
-0.0099465949 -0.026797319 0.028934686 4285690230
-0.0098653669 -0.028486906 0.028795812 4286216315
-0.0097841388 -0.030176494 0.028656939 4286545278
-0.011297859 -0.031998619 0.029791038 4286610553
-0.011216816 -0.033684336 0.029652482 4286018671
-0.011135774 -0.035370056 0.029513927 4286478707
-0.012582006 -0.037171543 0.030594826 4286610293
-0.012501141 -0.038853563 0.030456575 4286478193
-0.012420276 -0.040535584 0.030318324 4286609266
-0.014709431 -0.042379957 0.03207317 4286411885
-0.014628842 -0.044056233 0.03193539 4285688415
-0.014548253 -0.045732509 0.031797614 4284504139
-0.014467665 -0.047408786 0.031659834 4283122738
-0.014387076 -0.049085066 0.031522054 4282004257
-0.01921189 0.031444021 0.03675133 4284175185
-0.019131301 0.029767737 0.03661355 4285030494
-0.019050714 0.028091462 0.036475774 4285951596
-0.018970124 0.026415186 0.036337994 4286346354
-0.020451054 0.024478894 0.037445717 4286741112
-0.018808948 0.02306263 0.036062434 4286872698
-0.018728359 0.021386355 0.035924654 4286872444
-0.018647771 0.019710075 0.035786878 4286806651
-0.018567182 0.018033799 0.035649098 4286938237
-0.018486593 0.016357522 0.035511319 4287069823
-0.018406006 0.014681245 0.035373539 4287267202
-0.018325416 0.013004968 0.035235763 4286872698
-0.018244827 0.01132869 0.035097983 4286939260
-0.01816424 0.0096524144 0.034960203 4286281582
-0.018083651 0.007976138 0.034822423 4285689443
-0.018003061 0.0062998589 0.034684643 4284439375
-0.01556346 0.0049469387 0.032662243 4281215521
-0.015482595 0.0032649203 0.032523993 4279044098
-0.012291634 0.001993973 0.029900422 4279307530
-0.012210406 0.00030438625 0.029761549 4279373325
-0.0097930795 -0.0010878678 0.027755361 4279570452
-0.0097115785 -0.0027831383 0.027616022 4279636499
-0.0080842255 -0.0042892219 0.026240706 4279702806
-0.0080025429 -0.0059882519 0.026101056 4280163609
-0.0063677649 -0.0075048073 0.024719317 4280821538
-0.0062859007 -0.0092076138 0.024579357 4281348134
-0.006204037 -0.010910421 0.024439398 4282137134
-0.0061221728 -0.012613228 0.024299439 4281413411
-0.0075941305 -0.014483402 0.02540281 4281347364
-0.0075124479 -0.016182432 0.025263162 4280163608
-0.0089780632 -0.018040569 0.026361961 4278979335
-0.011235665 -0.019970655 0.028095072 4278650631
-0.012746065 -0.021816136 0.029230455 4279308563
-0.012665022 -0.023501856 0.0290919 4281216819
-0.012583979 -0.025187576 0.028953344 4283980125
-0.012502938 -0.026873296 0.028814789 4285361778
-0.012421895 -0.028559018 0.028676234 4285624691
-0.012340852 -0.030244738 0.028537679 4286085240
-0.013784438 -0.032057475 0.02962072 4286479737
-0.016068935 -0.03393079 0.031377949 4286150771
-0.015988348 -0.03560707 0.031240169 4286545013
-0.013541845 -0.037103534 0.029205969 4286676086
-0.01582717 -0.038959622 0.030964611 4286675318
-0.015746582 -0.040635899 0.030826831 4286806391
-0.015665993 -0.042312179 0.030689053 4286872436
-0.015585404 -0.043988455 0.030551273 4286675055
-0.015504816 -0.045664731 0.030413494 4286017632
-0.016993614 -0.047437366 0.031534668 4284767563
-0.016913207 -0.049109835 0.031397201 4283189041
-0.016832802 -0.050782312 0.031259734 4282202146
-0.016752396 -0.052454781 0.031122269 4281675804
-0.023439093 0.034299616 0.038130678 4282925118
-0.021807473 0.032908872 0.036752071 4284109392
-0.021727068 0.031236403 0.036614604 4285688424
-0.021646662 0.029563932 0.036477137 4286938491
-0.021566257 0.027891463 0.03633967 4286806905
-0.021485852 0.026218988 0.036202207 4287004284
-0.021405445 0.024546519 0.03606474 4287267456
-0.021325041 0.022874048 0.035927273 4287201663
-0.021244634 0.021201575 0.035789806 4286938237
-0.021164229 0.019529104 0.035652339 4286806651
-0.021083822 0.017856631 0.035514873 4286806651
-0.021003418 0.016184162 0.035377409 4287004030
-0.020923013 0.01451169 0.035239942 4287267202
-0.020842606 0.01283922 0.035102475 4286609526
-0.020762201 0.011166749 0.034965008 4286281330
-0.020681795 0.0094942767 0.034827542 4285557859
-0.02060139 0.0078218067 0.034690078 4285492064
-0.020520983 0.0061493344 0.034552611 4284834133
-0.018879035 0.0046913619 0.033162747 4281478693
-0.016442433 0.0033329304 0.031135134 4278846720
-0.013255795 0.002062289 0.02850531 4278912772
-0.013174566 0.00037270237 0.028366437 4278978567
-0.010760481 -0.0010193218 0.026355559 4279175694
-0.0091354512 -0.0025214939 0.024977453 4279504913
-0.0075031952 -0.0040303436 0.023593212 4279702806
-0.007421331 -0.0057331505 0.023453252 4280097816
-0.0073394668 -0.007435957 0.023313293 4280689952
-0.0048866132 -0.0088653788 0.021269476 4281216548
-0.0071757389 -0.01084157 0.023033373 4281610790
-0.0070938747 -0.012544377 0.022893414 4280887067
-0.007012011 -0.014247184 0.022753455 4281084192
-0.0084819915 -0.016113734 0.023860261 4280229401
-0.0084003089 -0.017812764 0.023720611 4279045128
-0.012199825 -0.019902339 0.026699962 4278848010
-0.013708011 -0.021747977 0.027838547 4280098079
-0.0151486 -0.023579372 0.028923118 4282730058
-0.015067735 -0.025261391 0.028784867 4284309090
-0.017347852 -0.027157908 0.030544946 4285230190
-0.017267264 -0.028834183 0.030407166 4285098345
-0.017186675 -0.030510461 0.030269388 4285624687
-0.017106086 -0.032186739 0.030131608 4286348153
-0.017025499 -0.033863012 0.02999383 4286150772
-0.016944909 -0.035539292 0.02985605 4286479222
-0.01686432 -0.037215568 0.029718272 4286347123
-0.018350033 -0.039007388 0.030841023 4286872698
-0.018269626 -0.040679857 0.030703558 4286806392
-0.018189222 -0.04235233 0.030566091 4286872438
-0.016541967 -0.043920677 0.029167155 4287135606
-0.01802841 -0.045697272 0.030291159 4287135859
-0.017948005 -0.047369741 0.030153692 4286215008
-0.017867599 -0.049042214 0.030016225 4284570694
-0.019347697 -0.050803185 0.031135783 4283320881
-0.019267473 -0.052471861 0.030998629 4281675802
-0.024471546 0.036035772 0.036889985 4283122243
-0.024391321 0.034367088 0.036752831 4284964701
-0.024311097 0.032698408 0.036615677 4286477940
-0.024230875 0.031029724 0.036478523 4287004284
-0.024150651 0.029361041 0.036341365 4287004284
-0.024070427 0.027692361 0.036204211 4286872698
-0.023990205 0.026023677 0.036067057 4287004284
-0.02390998 0.024354996 0.035929903 4287135870
-0.023829756 0.02268631 0.035792749 4287070077
-0.023749534 0.02101763 0.035655592 4286872698
-0.02366931 0.019348949 0.035518438 4286872698
-0.023589088 0.017680263 0.035381284 4287070077
-0.023508864 0.016011583 0.03524413 4287267456
-0.023428639 0.0143429 0.035106972 4287201409
-0.023348417 0.012674219 0.034969818 4286412147
-0.023268193 0.011005535 0.034832664 4285425251
-0.023187969 0.0093368534 0.03469551 4285030745
-0.023107747 0.0076681697 0.034558356 4284833364
-0.023027522 0.0059994897 0.034421198 4283846724
-0.022947298 0.0043308078 0.034284044 4281412900
-0.02131456 0.0028720163 0.032896709 4279373063
-0.015804557 0.0019202656 0.028386405 4279307273
-0.014138722 0.00044101823 0.026971333 4279307019
-0.010186682 -0.00075376593 0.023714196 4279241487
-0.010104999 -0.0024527959 0.023574546 4279241741
-0.0080655729 -0.012475527 0.021487396 4281150239
-0.014832047 -0.018308377 0.026723742 4279110921
-0.014751004 -0.019994097 0.026585188 4279308561
-0.018546181 -0.022061296 0.029574165 4280953388
-0.018465592 -0.023737574 0.029436385 4282532420
-0.018385004 -0.02541385 0.029298607 4284703589
-0.019867258 -0.027232464 0.030422317 4285361519
-0.019786853 -0.028904935 0.03028485 4285361004
-0.019706449 -0.030577406 0.030147385 4285163879
-0.019626042 -0.032249879 0.030009918 4285886832
-0.02110216 -0.034048885 0.031129485 4286478967
-0.021021936 -0.035717569 0.030992329 4286610295
-0.020941712 -0.037386253 0.030855175 4286741881
-0.02086149 -0.039054934 0.030718019 4287069823
-0.020781266 -0.040723614 0.030580865 4287201409
-0.020701043 -0.042392302 0.030443709 4287399041
-0.019063203 -0.043957174 0.029047655 4287662463
-0.018982798 -0.04562965 0.028910188 4287596923
-0.018902391 -0.047302119 0.028772721 4287070831
-0.020380149 -0.049067028 0.029895091 4286347107
-0.020299925 -0.050735712 0.029757936 4285754968
-0.020219702 -0.052404393 0.029620782 4283846971
-0.025423769 0.036103241 0.035512146 4284503896
-0.026883472 0.034153797 0.036616765 4285754217
-0.025263323 0.032765877 0.035237838 4286412147
-0.025183098 0.031097194 0.03510068 4286477940
-0.025102874 0.02942851 0.034963526 4286280561
-0.025022652 0.027759831 0.034826372 4286346354
-0.024942428 0.026091147 0.034689218 4286412147
-0.02640322 0.024164334 0.035795696 4286477940
-0.026323177 0.022499422 0.035658851 4286412147
-0.026243135 0.020834513 0.035522006 4286280561
-0.026163094 0.019169599 0.035385162 4286214768
-0.02608305 0.01750469 0.035248317 4286214768
-0.024461087 0.016079053 0.033866286 4286280561
-0.024380865 0.014410371 0.033729132 4286214514
-0.025842924 0.012509958 0.034837782 4285754217
-0.025762882 0.010845048 0.034700938 4285359458
-0.024140194 0.009404324 0.03331767 4285359710
-0.02405997 0.0077356398 0.033180512 4285030743
-0.023979748 0.0060669598 0.033043358 4283649345
-0.023899524 0.004398278 0.032906204 4281347107
-0.023819299 0.0027295945 0.03276905 4279570442
-0.02063098 0.0014743607 0.030118961 4279438859
-0.015102877 0.00050933409 0.025576228 4279438605
-0.011156225 -0.00068506831 0.022311294 4279307280
-0.019502738 -0.02199352 0.028190054 4281084459
-0.020982461 -0.023819899 0.029316273 4282400834
-0.020902056 -0.02549237 0.029178808 4284177245
-0.02082165 -0.027164841 0.029041341 4284966761
-0.020741245 -0.028837312 0.028903874 4285097832
-0.020660838 -0.030509783 0.028766409 4284900707
-0.022134608 -0.032312736 0.029888799 4285623660
-0.022054384 -0.033981416 0.029751644 4286150002
-0.023521703 -0.035772447 0.030869283 4286347123
-0.023441661 -0.037437357 0.030732438 4286610296
-0.02336162 -0.039102271 0.030595593 4286675065
-0.025590573 -0.040932789 0.032331694 4286806651
-0.025510801 -0.042592075 0.032195311 4287004283
-0.025431029 -0.04425136 0.032058928 4287333500
-0.023041449 -0.045761913 0.030048214 4287531132
-0.022961408 -0.047426824 0.029911369 4287399542
-0.022881366 -0.04909173 0.029774524 4287005038
-0.025111942 -0.050888497 0.031513397 4286741865
-0.02503217 -0.052547786 0.031377014 4285360212
-0.021091703 -0.054005604 0.028105786 4283912767
-0.027913593 0.035886027 0.035378873 4285359205
-0.027833551 0.034221113 0.035242029 4285753963
-0.027753508 0.032556206 0.035105184 4285688170
-0.027673466 0.030891294 0.034968339 4285556838
-0.027593425 0.029226385 0.034831494 4285491045
-0.027513381 0.027561473 0.034694649 4285359459
-0.02743334 0.02589656 0.034557804 4285293666
-0.027353298 0.024231652 0.03442096 4285293666
-0.027273256 0.022566739 0.034284115 4285293666
-0.027193213 0.020901831 0.03414727 4285293665
-0.027113171 0.019236919 0.034010425 4285227872
-0.02703313 0.01757201 0.03387358 4285030493
-0.026953086 0.015907099 0.033736736 4284833115
-0.026873045 0.014242187 0.033599891 4285556327
-0.026793003 0.012577277 0.033463046 4285424739
-0.026712961 0.010912366 0.033326201 4285688423
-0.026632918 0.0092474557 0.033189356 4285951847
-0.026552876 0.0075825439 0.033052512 4285162329
-0.026472835 0.0059176339 0.032915667 4283057208
-0.026392791 0.0042527234 0.032778822 4280885786
-0.024771532 0.0027970655 0.031391196 4279701514
-0.021587541 0.0015421385 0.028734842 4279570445
-0.016067034 0.00057764992 0.024181124 4279570191
-0.012125772 -0.00061637041 0.020908387 4279438609
-0.020539891 -0.020249464 0.026943715 4279834646
-0.022017257 -0.022079803 0.028072763 4280755494
-0.021936852 -0.023752274 0.027935296 4281873975
-0.023407733 -0.025570534 0.029059565 4284242523
-0.023327511 -0.027239218 0.028922411 4285097832
-0.023247287 -0.028907901 0.028785255 4285228904
-0.023167064 -0.030576579 0.028648101 4284768351
-0.02308684 -0.032245263 0.028510947 4285031010
-0.024551824 -0.03404022 0.029631391 4285294436
-0.024471782 -0.035705131 0.029494546 4285491044
-0.024391739 -0.037370041 0.029357702 4285688424
-0.02661721 -0.039206415 0.031097988 4285820526
-0.026537439 -0.040865697 0.030961605 4285886319
-0.026457665 -0.042524982 0.030825224 4286083951
-0.027965469 -0.04429068 0.031981934 4286412914
-0.026298122 -0.045843553 0.030552458 4286872947
-0.026218351 -0.047502838 0.030416075 4287070581
-0.026138579 -0.049162123 0.030279692 4287070579
-0.027647128 -0.050912332 0.031437676 4287070577
-0.027567543 -0.052567743 0.031301614 4286412390
-0.027487958 -0.054223154 0.031165548 4285556827
-0.028931405 -0.055954583 0.032271113 4283977797
-0.028851999 -0.057606284 0.032135352 4282530096
-0.0311538 0.0355285 0.035865109 4284767068
-0.031074028 0.033869214 0.035728727 4284767068
-0.030994257 0.032209933 0.035592344 4284635482
-0.028623536 0.030958612 0.033593614 4284635736
-0.028543495 0.029293703 0.033456769 4284767322
-0.030754942 0.027232073 0.035183195 4284438357
-0.030675171 0.02557279 0.035046816 4284372564
-0.030595399 0.023913505 0.034910433 4284438357
-0.028223325 0.022634057 0.03290939 4284569943
-0.028143283 0.020969149 0.032772545 4284701528
-0.028063241 0.019304235 0.0326357 4284635735
-0.0279832 0.017639328 0.032498855 4284372563
-0.026365545 0.016213994 0.031110594 4284109391
-0.026285321 0.014545312 0.03097344 4284898397
-0.026205098 0.012876631 0.030836286 4285095774
-0.02766303 0.010979684 0.031951476 4285754216
-0.027582988 0.0093147736 0.031814631 4286149226
-0.027502947 0.0076498617 0.031677786 4284899157
-0.027422905 0.0059849517 0.031540941 4282399278
-0.027342862 0.0043200413 0.031404097 4280491028
-0.025723757 0.0028645359 0.030013356 4279833100
-0.022544101 0.0016099161 0.027350731 4279636238
-0.017031193 0.00064596609 0.022786012 4279701777
-0.024359958 -0.025503064 0.027681725 4284044630
-0.024279734 -0.027171748 0.027544569 4284965732
-0.024199512 -0.02884043 0.027407415 4284965732
-0.024119288 -0.030509109 0.027270261 4284504666
-0.025581935 -0.03230799 0.028393513 4284438873
-0.025501894 -0.0339729 0.028256668 4284569943
-0.027723618 -0.035820756 0.030000664 4284504150
-0.027643846 -0.037480038 0.029864283 4284701529
-0.027564075 -0.039139323 0.0297279 4284833885
-0.029069297 -0.040912919 0.030887172 4284899678
-0.028989712 -0.042568333 0.030751107 4285031264
-0.028910127 -0.044223744 0.030615043 4285294435
-0.028830541 -0.045879159 0.030478979 4285622884
-0.028750956 -0.04753457 0.030342914 4285820261
-0.028671369 -0.049189981 0.03020685 4285951845
-0.028591784 -0.050845396 0.030070785 4285952100
-0.030032756 -0.052584399 0.03117881 4285819746
-0.029953349 -0.054236099 0.031043051 4285819746
-0.029873941 -0.055887796 0.030907292 4284964437
-0.031366944 -0.057614401 0.032058533 4283385407
-0.031287722 -0.059262265 0.031923089 4282201135
-0.0312085 -0.060910124 0.031787645 4281871916
-0.032100666 0.035595592 0.034495022 4283977554
-0.04362436 0.031808358 0.043825649 4283977552
-0.031941123 0.032277022 0.034222256 4283977552
-0.03186135 0.030617736 0.034085874 4284043345
-0.033356544 0.028681338 0.035234973 4284174931
-0.034786832 0.026764013 0.036331419 4283912013
-0.034707423 0.02511231 0.036195662 4283977806
-0.031542264 0.023980595 0.033540346 4284109391
-0.031462494 0.022321308 0.033403963 4284438356
-0.031382721 0.020662026 0.03326758 4284767321
-0.031302951 0.019002739 0.033131197 4284767321
-0.028933277 0.017706646 0.031124121 4284569942
-0.027317774 0.016281465 0.029732749 4284306770
-0.027237549 0.014612783 0.029595593 4284372053
-0.027157325 0.012944101 0.029458439 4284766809
-0.028613109 0.011047003 0.030576741 4285556324
-0.028533068 0.0093820924 0.030439897 4285819748
-0.028453024 0.0077171801 0.030303052 4284241227
-0.028372983 0.0060522701 0.030166207 4281807141
-0.028292941 0.0043873596 0.030029362 4280293649
-0.028212897 0.0027224496 0.029892517 4280030479
-0.025051715 0.0014700409 0.027235344 4279767824
-0.02497131 -0.00020243009 0.027097877 4279899156
-0.026532013 -0.032240674 0.027018778 4284240724
-0.028750256 -0.034094378 0.02876696 4284306258
-0.03025271 -0.03587975 0.029928474 4284240465
-0.028590713 -0.037412949 0.028494196 4284437844
-0.03009354 -0.039190572 0.029656345 4284043599
-0.030013954 -0.040845986 0.029520281 4284044369
-0.029934369 -0.042501397 0.029384216 4284175955
-0.029854782 -0.044156812 0.029248152 4284307541
-0.029775197 -0.045812227 0.029112088 4284439126
-0.029695611 -0.047467638 0.028976025 4284439126
-0.031134106 -0.04921421 0.030086506 4284635735
-0.0310547 -0.050865915 0.029950745 4284701782
-0.030975292 -0.052517612 0.029814988 4284701015
-0.030895885 -0.054169316 0.029679228 4285161820
-0.030816479 -0.055821013 0.029543469 4284832855
-0.032307293 -0.05754777 0.030697878 4283516995
-0.032228071 -0.059195634 0.030562434 4282332210
-0.032148849 -0.060843494 0.03042699 4281871659
-0.044633336 0.033505041 0.042613164 4283977554
-0.044554938 0.031874295 0.042479128 4284109138
-0.053705528 0.028570691 0.04990514 4284109138
-0.057497934 0.026270857 0.052943319 4283977552
-0.057421084 0.024672372 0.052811932 4283911759
-0.055768818 0.023347711 0.051389515 4283714634
-0.055691782 0.021745348 0.051257811 4283846220
-0.055614747 0.020142984 0.051126108 4284175184
-0.055537712 0.018540615 0.050994404 4284635735
-0.055460677 0.016938251 0.0508627 4284964700
-0.055383641 0.015335887 0.050730996 4285162079
-0.055306606 0.013733521 0.050599292 4285162079
-0.055229571 0.012131155 0.050467588 4285096286
-0.055152539 0.01052879 0.050335884 4285358946
-0.029643225 0.012779231 0.029338857 4285687911
-0.029563183 0.011114321 0.029202012 4286148461
-0.029483141 0.0094494103 0.029065168 4285688162
-0.029403098 0.0077844984 0.028928323 4283846469
-0.029323056 0.0061195879 0.028791478 4281478176
-0.029243015 0.0044546779 0.028654633 4280030477
-0.029162973 0.0027897677 0.028517788 4279701514
-0.026006106 0.0015376649 0.025854368 4280162582
-0.0259257 -0.00013480611 0.025716901 4280425500
-0.031276952 -0.034157399 0.028697647 4284437846
-0.031197367 -0.035812814 0.028561583 4284174159
-0.029537575 -0.037345856 0.027124114 4284108879
-0.031038195 -0.039123639 0.028289454 4283780426
-0.03095861 -0.04077905 0.028153392 4283781196
-0.032394275 -0.042540625 0.029265713 4283978576
-0.032314867 -0.044192329 0.029129954 4284044369
-0.032235458 -0.045844026 0.028994195 4284044369
-0.032156054 -0.04749573 0.028858436 4284044115
-0.032076646 -0.049147427 0.028722677 4284174931
-0.033564527 -0.050889689 0.029879002 4284240724
-0.033485305 -0.052537553 0.02974356 4284240467
-0.033406083 -0.054185413 0.029608116 4284569430
-0.033326861 -0.055833276 0.029472671 4284372051
-0.034808412 -0.057556003 0.030624593 4283319362
-0.034729373 -0.059200045 0.030489463 4282266417
-0.034650333 -0.06084409 0.030354334 4281740073
-0.050225504 0.034335125 0.045168232 4284240726
-0.050147649 0.032715686 0.045035124 4284438105
-0.054700442 0.030243725 0.04870956 4284503896
-0.054623134 0.028635709 0.048577391 4284503896
-0.056837276 0.026617229 0.050329834 4284372310
-0.05676024 0.025014862 0.05019813 4284240724
-0.056683205 0.023412501 0.050066426 4284240978
-0.05660617 0.021810137 0.049934722 4284569943
-0.056529135 0.020207772 0.049803019 4285030493
-0.056452099 0.018605405 0.049671315 4285491044
-0.057949014 0.016744571 0.050835121 4285820009
-0.056298029 0.015400676 0.049407907 4286083181
-0.056220993 0.01379831 0.049276203 4286280814
-0.056143958 0.012195944 0.049144499 4286412146
-0.057641618 0.010350623 0.05030958 4287003771
-0.057564769 0.0087521365 0.050178193 4287398529
-0.055912852 0.0073888493 0.048749387 4287398528
-0.055835817 0.0057864832 0.048617683 4286477678
-0.055758782 0.0041841208 0.048485979 4284503886
-0.053386226 0.0029074599 0.046462696 4282398765
-0.053308919 0.0012994428 0.046330526 4280885786
-0.030113051 0.002857086 0.027143054 4280227858
-0.026960492 0.0016052886 0.024473397 4281017121
-0.026880087 -6.7182424e-05 0.024335932 4281214246
-0.05437215 -0.024658453 0.046115309 4281740590
-0.054295115 -0.026260817 0.045983605 4283780173
-0.055797249 -0.028013052 0.047156334 4285951344
-0.0557204 -0.029611539 0.04702495 4286609274
-0.05716138 -0.031346586 0.04814763 4286477429
-0.057084713 -0.032941345 0.048016552 4285753706
-0.058573 -0.034669187 0.049178813 4285621607
-0.058496516 -0.036260106 0.049048051 4285292642
-0.059924252 -0.037971526 0.05016074 4284831575
-0.059847943 -0.03955875 0.05003028 4284437331
-0.058267061 -0.041032858 0.04865576 4284175954
-0.058190577 -0.042623773 0.048524998 4284176467
-0.058114089 -0.044214692 0.048394237 4284307541
-0.058037605 -0.045805611 0.048263472 4284241748
-0.057961121 -0.047396529 0.04813271 4284175701
-0.054798216 -0.048793379 0.045448329 4284175703
-0.053139586 -0.050296295 0.044008043 4284438107
-0.053062551 -0.051898662 0.043876339 4284569693
-0.052985515 -0.053501021 0.043744635 4284503385
-0.05290848 -0.055103388 0.043612931 4284503385
-0.052831445 -0.056705754 0.043481227 4284306260
-0.035746578 -0.057489529 0.029267091 4283648328
-0.035667539 -0.059133571 0.029131962 4282661175
-0.035588503 -0.060777616 0.028996833 4281805866
-0.055849973 0.035132792 0.047778308 4284702045
-0.055772666 0.033524774 0.047646139 4284701277
-0.055695359 0.03191676 0.047513973 4284635482
-0.055618051 0.030308744 0.047381803 4284635482
-0.057828691 0.028284384 0.049138457 4284701275
-0.059322279 0.026400123 0.050303545 4284767068
-0.05767462 0.025079651 0.048875045 4284767068
-0.057597585 0.02347729 0.048743345 4285293666
-0.05752055 0.021874927 0.048611641 4285688424
-0.059014883 0.020006178 0.049778003 4286280560
-0.058938034 0.018407689 0.04964662 4286675318
-0.058861185 0.016809205 0.049515232 4287004283
-0.058784336 0.015210717 0.049383849 4287267455
-0.058707491 0.01361223 0.049252465 4287596420
-0.058630642 0.012013745 0.049121078 4287793799
-0.058553793 0.010415256 0.048989695 4287727494
-0.058476944 0.0088167693 0.048858307 4288253838
-0.058400095 0.0072182836 0.048726924 4288319630
-0.058323245 0.0056197969 0.048595537 4287267194
-0.056673165 0.0042489097 0.047162894 4285622367
-0.05659613 0.0026465436 0.04703119 4283911749
-0.056519095 0.0010441784 0.046899486 4282595889
-0.059528142 -0.00098167185 0.049321327 4281740582
-0.059451472 -0.0025764308 0.049190249 4281608744
-0.055363566 -0.0229913 0.044923928 4281279780
-0.05528653 -0.024593662 0.044792224 4283582794
-0.055209495 -0.026196029 0.04466052 4286214514
-0.056709424 -0.02794842 0.045836449 4286872446
-0.056632575 -0.029546907 0.045705065 4287530376
-0.05807142 -0.031282105 0.046830829 4287267202
-0.057994749 -0.032876864 0.046699751 4286674808
-0.057918079 -0.034471624 0.046568673 4286674808
-0.059404366 -0.036195777 0.047734417 4286476916
-0.059327882 -0.037786696 0.047603656 4285753191
-0.059251394 -0.039377611 0.04747289 4285424481
-0.05917491 -0.040968534 0.047342129 4284964954
-0.059098426 -0.042559449 0.047211364 4284833882
-0.059021942 -0.044150367 0.047080602 4284898907
-0.058945458 -0.045741282 0.046949837 4284635736
-0.058868971 -0.047332201 0.046819076 4284438103
-0.05571039 -0.048728745 0.04412844 4284438103
-0.054053966 -0.050231509 0.042684961 4284635484
-0.053976931 -0.051833872 0.042553257 4284832863
-0.053899895 -0.053436231 0.042421553 4284898143
-0.05382286 -0.055038601 0.042289849 4284701018
-0.053745825 -0.056640964 0.042158145 4284569430
-0.056767579 0.035197809 0.046450559 4285623658
-0.056690272 0.033589792 0.046318389 4285623147
-0.056612965 0.031981777 0.04618622 4285426022
-0.058820106 0.029951537 0.047947075 4285360229
-0.060311299 0.028063243 0.049115043 4285491815
-0.06023445 0.026464755 0.04898366 4285754987
-0.060157601 0.02486627 0.048852272 4285952366
-0.060080752 0.023267781 0.048720889 4286806905
-0.060003903 0.021669293 0.048589502 4287135870
-0.059927057 0.02007081 0.048458118 4287530628
-0.059850208 0.018472321 0.048326734 4287859593
-0.059773359 0.016873837 0.048195347 4288056459
-0.05969651 0.01527535 0.048063964 4288056459
-0.059619661 0.013676862 0.047932576 4288056459
-0.059542812 0.012078377 0.047801193 4287990665
-0.059465963 0.010479889 0.047669806 4287990665
-0.059389114 0.0088814013 0.047538422 4288517009
-0.060821537 0.0070566093 0.04865991 4288253578
-0.059235416 0.0056844293 0.047275651 4287990406
-0.059158567 0.0040859422 0.047144268 4286279786
-0.059081718 0.0024874571 0.04701288 4285423961
-0.06051486 0.00067757012 0.048135594 4285818719
-0.06043819 -0.00091718981 0.048004515 4283976515
-0.060361519 -0.0025119488 0.047873437 4282331177
-0.056354981 -0.021324145 0.04373255 4282858812
-0.056277946 -0.022926509 0.043600846 4283779914
-0.05620091 -0.024528874 0.043469142 4285227619
-0.056123875 -0.026131241 0.043337438 4287333767
-0.057621595 -0.027883789 0.044516563 4287794318
-0.057544746 -0.029482273 0.04438518 4287596939
-0.058981467 -0.031217622 0.045514017 4287333767
-0.058904797 -0.032812379 0.045382939 4287267974
-0.060388703 -0.034540534 0.046551548 4287530374
-0.060312215 -0.036131453 0.046420783 4287530117
-0.060235731 -0.037722368 0.046290021 4287332736
-0.060159247 -0.039313287 0.046159256 4287135099
-0.060082763 -0.040904205 0.046028495 4286740339
-0.060006276 -0.04249512 0.045897733 4286345581
-0.059929792 -0.044086039 0.045766968 4285688164
-0.059853308 -0.045676958 0.045636207 4285293152
-0.059776824 -0.047267877 0.045505442 4285227359
-0.056622561 -0.048664115 0.042808555 4285162079
-0.05496835 -0.050166719 0.04136188 4285162080
-0.054891314 -0.051769082 0.041230176 4285162080
-0.054814279 -0.053371444 0.041098472 4285096287
-0.054737244 -0.054973811 0.040966768 4285293665
-0.05236109 -0.056459088 0.03891696 4285490785
-0.052283783 -0.058067102 0.038784791 4284964439
-0.052206475 -0.05967512 0.038652621 4283582527
-0.060042635 0.036425788 0.047150802 4285886573
-0.059965599 0.034823421 0.047019098 4285755244
-0.059888564 0.033221059 0.046887394 4285755244
-0.059811529 0.031618696 0.04675569 4285689451
-0.059734493 0.030016325 0.046623986 4285754987
-0.061223466 0.028127877 0.047795165 4285952366
-0.061146617 0.026529387 0.047663778 4286281331
-0.061069772 0.024930902 0.047532395 4286478710
-0.060992923 0.023332413 0.047401007 4287135870
-0.060916074 0.021733925 0.047269624 4287399042
-0.060839225 0.020135444 0.04713824 4287793800
-0.060762376 0.018536953 0.047006853 4287991179
-0.062191602 0.016689647 0.048129573 4288122252
-0.060608678 0.015339982 0.046744082 4288056459
-0.060531829 0.013741495 0.046612699 4287990666
-0.061961591 0.011905369 0.047736336 4287990666
-0.061884921 0.010310609 0.047605257 4287859079
-0.061808255 0.0087158494 0.047474179 4288254091
-0.061731584 0.0071210912 0.047343098 4288253578
-0.061654914 0.0055263313 0.04721202 4288319371
-0.061578244 0.0039315713 0.047080941 4287068534
-0.061501574 0.002336811 0.046949863 4286147686
-0.061424904 0.0007420521 0.046818785 4286673517
-0.061348237 -0.00085270783 0.046687704 4285489241
-0.061271567 -0.0024474668 0.046556626 4282988593
-0.057269368 -0.021259354 0.042409461 4283976780
-0.058764309 -0.023023695 0.04359084 4285030494
-0.057115298 -0.024464084 0.042146053 4286609274
-0.057038262 -0.02606645 0.042014349 4288057490
-0.058533762 -0.027819157 0.043196682 4287729038
-0.059968185 -0.029558379 0.044328287 4287531659
-0.059891514 -0.031153139 0.044197205 4287334280
-0.06137304 -0.032885291 0.045368671 4287399560
-0.061296556 -0.034476206 0.045237906 4287596167
-0.061220072 -0.036067124 0.045107145 4287596167
-0.061143585 -0.037658043 0.04497638 4287464322
-0.061067101 -0.039248958 0.044845618 4287266942
-0.060990617 -0.040839881 0.044714857 4287200120
-0.060914133 -0.042430796 0.044584092 4286805616
-0.059278157 -0.043911215 0.043148577 4286213995
-0.05920149 -0.045505974 0.043017499 4285819237
-0.05912482 -0.047100734 0.042886417 4285622371
-0.057534728 -0.048599482 0.041488677 4285622371
-0.057457879 -0.050197963 0.04135729 4285491044
-0.055805698 -0.051704295 0.039907083 4285491044
-0.055728663 -0.053306654 0.039775383 4285359712
-0.055651627 -0.054909021 0.039643675 4285491296
-0.053278696 -0.05639407 0.037589211 4285622369
-0.053201389 -0.058002084 0.037457041 4285293657
-0.053124081 -0.059610102 0.037324872 4284306249
-0.053046774 -0.061218116 0.037192702 4282858801
-0.060957015 0.036490574 0.04582772 4285886573
-0.060879979 0.034888212 0.045696016 4285821037
-0.060802944 0.033285849 0.045564312 4285886830
-0.060725909 0.031683482 0.045432609 4285886830
-0.06221249 0.029790994 0.046606664 4286083952
-0.062135641 0.028192509 0.046475276 4286412917
-0.063561656 0.026322687 0.047599245 4286807675
-0.063484989 0.024727924 0.047468167 4287070847
-0.063408315 0.023133166 0.047337089 4287530628
-0.063331649 0.021538408 0.047206011 4287728007
-0.063254982 0.019943647 0.047074929 4288056972
-0.063178308 0.018348889 0.046943851 4288188558
-0.064651914 0.016497485 0.048108697 4288188045
-0.063024968 0.015159369 0.046681695 4288122252
-0.062948301 0.013564609 0.046550613 4287990666
-0.064422466 0.011724734 0.047716409 4287990666
-0.064345978 0.010133814 0.047585648 4287990666
-0.064269491 0.0085428981 0.047454882 4288122251
-0.06419301 0.0069519798 0.047324121 4288253580
-0.064116523 0.005361062 0.047193356 4288516750
-0.064040035 0.0037701442 0.047062594 4287463292
-0.063963555 0.0021792261 0.046931829 4286345065
-0.063887067 0.00058830914 0.046801068 4286739823
-0.063810587 -0.0010026088 0.046670306 4286344550
-0.063504644 -0.0073662796 0.046147253 4283054126
-0.064920768 -0.0091447514 0.04726667 4283119406
-0.064844459 -0.010731976 0.04713621 4283119406
-0.063198708 -0.01372995 0.0456242 4284106301
-0.06312222 -0.015320868 0.045493439 4284107074
-0.06600263 -0.018838609 0.04777452 4283976265
-0.062892765 -0.020093622 0.045101147 4284437586
-0.062816285 -0.021684539 0.044970386 4285029468
-0.061184902 -0.02311486 0.043535803 4286083182
-0.061108232 -0.02470962 0.043404724 4287464583
-0.061031561 -0.026304379 0.043273643 4288057490
-0.062510341 -0.02804821 0.044447333 4287663245
-0.062433857 -0.029639129 0.044316571 4287531659
-0.062357374 -0.031230045 0.044185806 4287465353
-0.063776158 -0.032953139 0.045309775 4287465353
-0.063699849 -0.034540363 0.045179315 4287727753
-0.06362354 -0.03612759 0.045048855 4287793546
-0.063547231 -0.037714817 0.044918396 4287727494
-0.063470922 -0.039302044 0.044787936 4287530114
-0.063394621 -0.040889271 0.044657476 4287463292
-0.063318312 -0.042476494 0.044527017 4287134581
-0.061745495 -0.043957386 0.043139704 4286608753
-0.061669007 -0.045548305 0.043008938 4286345581
-0.061592523 -0.047139224 0.042878177 4286082668
-0.061516039 -0.048730142 0.042747412 4286016875
-0.05988152 -0.050225772 0.041307461 4285820009
-0.059804849 -0.051820531 0.041176382 4285754216
-0.059728179 -0.053415291 0.041045304 4285754470
-0.058139507 -0.054928795 0.03964325 4285754468
-0.056488976 -0.056446597 0.03818889 4285885541
-0.056411941 -0.05804896 0.038057186 4285754208
-0.054041691 -0.059545085 0.035997115 4285095765
-0.053964384 -0.061153099 0.035864949 4283714110
-0.053887077 -0.062761113 0.03573278 4282397734
-0.063508905 0.037848059 0.045943704 4286281331
-0.063432053 0.036249571 0.045812316 4285820780
-0.063355207 0.034651086 0.045680933 4285821037
-0.063278355 0.033052597 0.045549545 4285886830
-0.063201509 0.031454112 0.045418162 4285952623
-0.06462504 0.029576685 0.046544593 4286215538
-0.064548373 0.027981926 0.046413511 4286544503
-0.066018678 0.026107319 0.047579639 4287005054
-0.065942198 0.024516402 0.047448874 4287268226
-0.06586571 0.022925483 0.047318112 4287662214
-0.06578923 0.021334566 0.047187347 4287859593
-0.067200035 0.019489491 0.048304364 4288122765
-0.067123726 0.017902264 0.048173904 4288254351
-0.067047417 0.016315041 0.048043445 4288253838
-0.066971116 0.014727815 0.047912985 4288122252
-0.066894807 0.013140588 0.047782525 4288056459
-0.066818498 0.011553362 0.047652066 4287990666
-0.066742189 0.009966136 0.047521606 4288122252
-0.06666588 0.0083789099 0.047391146 4288056459
-0.066589579 0.0067916838 0.047260687 4288253325
-0.06651327 0.0052044578 0.047130227 4288582545
-0.066436961 0.0036172336 0.046999767 4287858052
-0.066360652 0.0020300075 0.046869308 4286673776
-0.066284344 0.0004427814 0.046738848 4286673776
-0.06471844 -0.00093828217 0.045356665 4287002995
-0.064641953 -0.0025292002 0.045225903 4286608237
-0.064565472 -0.004120118 0.045095138 4286344550
-0.06293831 -0.0055080224 0.043660857 4286278757
-0.064412497 -0.0073019532 0.044833612 4286410598
-0.065826505 -0.0090805748 0.04595609 4286541414
-0.065750197 -0.0106678 0.04582563 4286409828
-0.065673888 -0.012255026 0.045695171 4286475108
-0.065597579 -0.013842252 0.045564711 4286607207
-0.067058451 -0.015607744 0.04672737 4286344550
-0.066982321 -0.017191164 0.046597224 4285752928
-0.066906199 -0.018774586 0.046467077 4286147434
-0.065292351 -0.020191155 0.045042872 4286279790
-0.065216042 -0.021778382 0.044912413 4285819497
-0.06364765 -0.023211131 0.043525983 4286477940
-0.063571163 -0.024802048 0.043395221 4287531146
-0.063494682 -0.026392967 0.043264456 4287596939
-0.063418195 -0.027983883 0.043133695 4287531659
-0.064834505 -0.029714512 0.044260114 4287465866
-0.064758196 -0.031301737 0.044129655 4287465353
-0.064681895 -0.032888964 0.043999195 4287531146
-0.066144958 -0.034608789 0.04516561 4287793546
-0.066068828 -0.036192209 0.045035463 4287793546
-0.065992706 -0.037775628 0.044905316 4287793287
-0.065916583 -0.039359048 0.044775169 4287727493
-0.06584046 -0.040942468 0.044645023 4287529085
-0.064224049 -0.042412318 0.043216441 4287331960
-0.064147741 -0.043999545 0.043085981 4286871925
-0.064071432 -0.045586772 0.042955521 4286608753
-0.063995123 -0.047173996 0.042825062 4286345840
-0.063918822 -0.048761223 0.042694602 4286148461
-0.062347408 -0.050256733 0.041303009 4285951595
-0.062270924 -0.051847648 0.041172247 4285885802
-0.062194441 -0.053438567 0.041041486 4286017642
-0.062117953 -0.055029485 0.040910721 4286017640
-0.05740336 -0.056381807 0.036865801 4286148713
-0.057326324 -0.057984173 0.036734097 4286148966
-0.057249289 -0.05958654 0.036602393 4285622109
-0.057172254 -0.061188903 0.036470689 4284306247
-0.057095218 -0.062791266 0.036338985 4282726699
-0.057018183 -0.064393632 0.036207281 4281411357
-0.064497925 0.039511178 0.044755202 4285293666
-0.065918431 0.037614968 0.045883179 4286281331
-0.064344227 0.036314204 0.044492431 4285952366
-0.065765098 0.034425445 0.045621023 4285952623
-0.065688424 0.032830685 0.045489945 4286018416
-0.065611757 0.031235928 0.045358863 4286084209
-0.067079499 0.029353481 0.046527531 4286347124
-0.067003019 0.027762564 0.046396766 4286676089
-0.066926531 0.026171645 0.046266004 4287070847
-0.068334706 0.024315348 0.047385149 4287334019
-0.068258405 0.022728121 0.047254689 4287662214
-0.068182096 0.021140894 0.047124229 4287859593
-0.068105787 0.019553669 0.04699377 4288056972
-0.068029478 0.017966442 0.04686331 4288188558
-0.06948451 0.016124683 0.048022859 4288188045
-0.069408387 0.014541264 0.047892712 4288122252
-0.067800559 0.013204766 0.046471931 4288122252
-0.06772425 0.01161754 0.046341471 4288122252
-0.067647941 0.010030313 0.046211012 4288121741
-0.069103889 0.0082075829 0.047372125 4287924362
-0.069027767 0.0066241617 0.047241978 4288319120
-0.068951644 0.0050407425 0.047111832 4288582290
-0.068875514 0.0034573211 0.046981685 4288319118
-0.068799391 0.0018739018 0.046851538 4287398271
-0.068723269 0.00029048068 0.046721391 4287003513
-0.067113794 -0.0010802671 0.045297794 4287793027
-0.067037486 -0.0026674932 0.045167334 4288319371
-0.066961177 -0.0042547192 0.045036875 4288516234
-0.066884868 -0.0058419444 0.044906415 4288713613
-0.066808559 -0.0074291709 0.044775955 4288976783
-0.066732258 -0.0090163965 0.044645496 4288976783
-0.066655949 -0.010603623 0.044515036 4288713611
-0.06657964 -0.012190849 0.044384576 4288582025
-0.066503331 -0.013778075 0.044254117 4288582025
-0.067962021 -0.015543722 0.045419924 4288647820
-0.067885898 -0.017127141 0.045289777 4288055683
-0.067809775 -0.018710561 0.04515963 4288187017
-0.067733653 -0.020293983 0.045029484 4287727236
-0.067657523 -0.021877402 0.044899337 4286674806
-0.0675814 -0.023460822 0.04476919 4286938491
-0.065969184 -0.024888655 0.043340899 4287728525
-0.065892875 -0.026475882 0.043210439 4287728525
-0.065816566 -0.028063107 0.04307998 4287531146
-0.067276902 -0.029794503 0.044248603 4287465353
-0.06720078 -0.031377923 0.044118457 4287465353
-0.067124657 -0.032961342 0.04398831 4287531146
-0.06857837 -0.034676883 0.045151971 4287727753
-0.068502434 -0.036256514 0.045022137 4287793546
-0.06842649 -0.037836149 0.0448923 4287859080
-0.068350546 -0.03941578 0.044762466 4287793286
-0.068274602 -0.040995415 0.044632629 4287594878
-0.068198659 -0.042575046 0.044502795 4287463292
-0.066591784 -0.044045288 0.043077283 4287135097
-0.064977184 -0.045522593 0.041644923 4286806132
-0.064900875 -0.047109816 0.041514464 4286477426
-0.064824574 -0.048697043 0.041384004 4286280047
-0.064748265 -0.05028427 0.041253544 4286083181
-0.064671956 -0.051871497 0.041123085 4286083181
-0.06310229 -0.053374242 0.039727852 4286149228
-0.063025802 -0.054965157 0.039597087 4286149226
-0.062949322 -0.056556076 0.039466325 4286280299
-0.06131826 -0.058070604 0.03801845 4286280552
-0.059733301 -0.059594989 0.036609322 4285819488
-0.059656456 -0.061193474 0.036477935 4284569419
-0.059579607 -0.062791966 0.036346551 4282989871
-0.057932571 -0.064328842 0.034884192 4281542943
-0.063931271 0.041492041 0.042253569 4284701529
-0.065410092 0.039575808 0.04343532 4286148975
-0.068369776 0.037372395 0.045867711 4286478710
-0.068293288 0.03578148 0.04573695 4286215538
-0.066675141 0.034489926 0.044304218 4286150002
-0.06814032 0.032599643 0.045475423 4286215795
