# .PCD v0.7 - Point Cloud Data file format
VERSION 0.7
FIELDS x y z rgb
SIZE 4 4 4 4
TYPE F F F U
COUNT 1 1 1 1
WIDTH 999
HEIGHT 1
VIEWPOINT 0 0 0 1 0 0 0
POINTS 999
DATA ascii
-0.023633629 -0.0069421651 0.028742913 4283715928
-0.023633277 -0.0053821905 0.028753972 4284108621
-0.023632925 -0.003822214 0.02876503 4285487962
-0.023632573 -0.0022622405 0.028776089 4285552225
-0.027682729 -0.00076289003 0.028322475 4284631893
-0.027682375 0.00080471084 0.028333588 4284174410
-0.03177226 0.0023264973 0.027875587 4282662713
-0.03376336 0.0038832438 0.027658388 4280950827
-0.035763863 0.0054474203 0.027440153 4280226339
0.018819865 0.01325348 0.033751238 4283654256
0.0188202 0.014733524 0.033761732 4287404450
0.018820534 0.016213568 0.033772226 4289440942
0.018820867 0.017693613 0.033782717 4290162599
0.0188212 0.019173656 0.033793211 4288712320
0.018821536 0.0206537 0.033803701 4285619275
0.018821869 0.022133743 0.033814196 4281341964
0.018822202 0.023613788 0.033824686 4280158468
-0.027676716 0.025886344 0.028511398 4280356886
-0.025646152 0.027415521 0.028754927 4280358179
-0.025645798 0.0289793 0.028766014 4280556595
-0.025645446 0.030543078 0.028777098 4283780452
-0.025645092 0.032106858 0.028788185 4286938255
-0.02564474 0.033670638 0.028799271 4287134856
-0.025644388 0.035234414 0.028810356 4286081390
-0.025644034 0.036798194 0.028821442 4284698710
-0.025643682 0.038361974 0.028832529 4282132278
-0.021612583 0.039788745 0.029304618 4284369242
-0.018614765 0.041237403 0.029658448 4284172115
-0.018614415 0.04278795 0.029669439 4286080363
-0.023622015 0.044537008 0.029107859 4285686370
-0.023621663 0.046096984 0.029118918 4287134068
-0.023621311 0.047656957 0.029129976 4287331958
-0.023620959 0.049216934 0.029141037 4288121474
-0.018612666 0.050540674 0.0297244 4288845967
-0.018612316 0.052091219 0.029735392 4289306518
-0.018611968 0.053641763 0.029746385 4289832861
-0.016559295 0.055083904 0.029991819 4289701527
-0.012484928 0.056407716 0.030468144 4290358940
-0.014516524 0.058061708 0.030246982 4288977024
-0.012484234 0.059485737 0.030489964 4288450164
-0.021607667 0.061575394 0.029459069 4285226825
-0.025638038 0.063382439 0.029009905 4283713091
-0.025637684 0.064946219 0.029020989 4284897884
-0.025637332 0.066509999 0.029032076 4287792774
-0.023756547 -0.033450685 0.026999321 4283320142
-0.023756195 -0.031890709 0.027010379 4284701795
-0.019743988 -0.030127244 0.027490137 4285228653
-0.018746734 -0.028526129 0.027617618 4285557618
-0.019743288 -0.027022397 0.027512148 4286215548
-0.019742938 -0.025469977 0.027523154 4286610306
-0.019742588 -0.023917552 0.027534159 4286741638
-0.018745335 -0.022323949 0.027661586 4286215294
-0.014649926 -0.020611947 0.02815067 4287201676
-0.014649577 -0.019069113 0.028161608 4286082681
-0.01464923 -0.017526278 0.028172545 4287134858
-0.0045231013 -0.015641406 0.029365281 4285687412
-0.0045227576 -0.014117635 0.029376082 4286344829
0.00051056343 -0.012442806 0.029974168 4285686899
0.000510905 -0.01092851 0.029984903 4286476413
0.00051124662 -0.0094142156 0.029995639 4285227372
0.00051158818 -0.0078999195 0.030006373 4286018687
-0.023750566 -0.0069311108 0.027187323 4284965995
-0.023750214 -0.0053711361 0.027198382 4286740088
-0.023749862 -0.0038111599 0.027209442 4286211945
-0.02374951 -0.0022511862 0.027220501 4288579473
-0.033881724 0.0038944331 0.026083779 4282003512
0.01870892 0.013263969 0.032275353 4283390823
0.018709254 0.014744013 0.032285847 4287338140
0.018709587 0.016224056 0.032296337 4289572782
0.02076087 0.017688429 0.032545622 4290425769
0.020761203 0.019164613 0.032556087 4288778626
0.018710589 0.020664189 0.032327816 4285421896
0.018710922 0.022144232 0.032338306 4280947719
0.018711258 0.023624277 0.0323488 4279895296
-0.025763372 0.027426602 0.027195549 4281147180
-0.02576302 0.028990382 0.027206635 4281805631
-0.023742119 0.030508289 0.027452739 4284438123
-0.023741767 0.032068264 0.027463797 4287003532
-0.019729631 0.033522051 0.027941361 4287397515
-0.019729281 0.035074476 0.027952366 4287462530
-0.018730994 0.041248392 0.028112264 4288973977
-0.018730644 0.042798936 0.028123256 4289698463
-0.010579803 0.048631981 0.029113805 4291213485
-0.010579457 0.050167184 0.029124688 4290292383
-0.012601334 0.051801596 0.028900744 4291542450
-0.012600986 0.053340606 0.028911656 4290292383
-0.0085662054 0.054666486 0.029390955 4290687393
-0.010578071 0.056307986 0.029168222 4288450428
-0.010577725 0.057843193 0.029179106 4287463785
-0.010577379 0.059378393 0.029189989 4286608729
-0.010577032 0.060913596 0.029200872 4284568895
-0.010576686 0.062448796 0.029211756 4284240205
-0.010576339 0.063983999 0.029222639 4284832093
-0.025754554 0.066521078 0.027472697 4287069053
-0.021862386 -0.033330094 0.025682492 4283254349
-0.019860709 -0.031668659 0.025931092 4284373343
-0.018863315 -0.030065687 0.026060443 4285228652
-0.016810015 -0.028414918 0.026315067 4286347133
-0.018862614 -0.026964596 0.026082426 4287466129
-0.018862264 -0.025414053 0.02609342 4287926680
-0.018861914 -0.023863507 0.026104411 4290491839
-0.0046386975 -0.021725692 0.027802603 4289965495
-0.0026556093 -0.020123783 0.028048577 4291741395
-0.0026552666 -0.018603746 0.028059352 4290161593
-0.0026549236 -0.017083706 0.028070128 4292200919
-0.0016350436 -0.015529249 0.028201807 4290095030
-0.0016347012 -0.014011129 0.02821257 4291212743
0.00039705128 -0.012432076 0.028464137 4290029237
0.00039739287 -0.010917779 0.028474871 4289634988
0.00039773446 -0.0094034849 0.028485605 4288912548
0.00039807605 -0.0078891888 0.028496342 4289703093
0.016596794 0.013278469 0.030562695 4283587685
0.018598309 0.0147545 0.030809974 4287469211
0.018598644 0.016234543 0.030820467 4289506987
0.020650214 0.01769889 0.031073583 4290163367
0.020650545 0.019175073 0.031084048 4288384638
0.018599644 0.020674676 0.030851943 4285159240
0.016598802 0.022181336 0.030625809 4281210891
0.016599137 0.023665147 0.030636329 4280553226
-0.023859056 0.030519342 0.025897149 4283252820
-0.023858704 0.032079317 0.025908209 4285029228
-0.019846 0.033533052 0.02639332 4286344827
-0.01984565 0.035085477 0.026404325 4288975771
-0.004622886 0.048367783 0.02829951 4288975492
-0.0046225423 0.049891554 0.028310314 4288646277
-0.0086816913 0.051614515 0.027842138 4288251268
-0.010693843 0.053248465 0.027615577 4287198329
-0.0086810011 0.054677337 0.027863851 4287461503
-0.0086806556 0.056208752 0.027874706 4285487972
-0.010692804 0.057854071 0.027648225 4285159777
-0.010692458 0.059389271 0.027659109 4284896603
-0.010692111 0.060924474 0.027669992 4285028702
-0.010691765 0.062459674 0.027680876 4284832352
-0.010691419 0.063994877 0.027691759 4284898143
-0.010691073 0.065530077 0.027702643 4286411636
-0.018979894 -0.031605247 0.024503266 4283715413
-0.016926304 -0.029950637 0.024761768 4283846999
-0.016925955 -0.028403956 0.024772733 4284702308
-0.016925607 -0.026857277 0.024783697 4285623925
-0.012849422 -0.02512704 0.025285861 4285952890
-0.010826238 -0.023500735 0.025540514 4287267982
-0.0027698944 -0.021633053 0.026522048 4288518049
-0.0027695515 -0.020113014 0.026532823 4287990424
-0.0017495288 -0.018554728 0.026666418 4290490558
-0.0017491864 -0.017036609 0.02667718 4288844963
-0.0017488439 -0.015518491 0.026687942 4290687167
0.00028319753 -0.01393564 0.026943369 4289041574
0.0023049822 -0.012360744 0.027197493 4289502893
0.00028388071 -0.010907049 0.02696484 4287794066
0.0023056637 -0.0093397629 0.027218908 4288847267
0.004317312 -0.0077803335 0.027471712 4289110440
0.0043176515 -0.0062736291 0.027482394 4291807440
0.016485568 0.013288984 0.029083066 4283982184
0.018487364 0.014764988 0.029334089 4287535258
0.018487697 0.016245032 0.029344581 4289375399
0.020539558 0.01770935 0.029601546 4289768609
0.018488366 0.019205119 0.029365566 4287924346
0.0184887 0.020685164 0.029376058 4285093960
0.018489033 0.022165207 0.02938655 4281737751
0.018489368 0.023645252 0.029397042 4281737500
0.018489702 0.025125295 0.029407535 4281935400
-0.019963071 0.030439213 0.024823252 4282923340
-0.019962721 0.031991631 0.024834258 4283976281
-0.0047371094 0.048378579 0.026780013 4285685844
0.0063938573 0.049377076 0.028124947 4286079838
0.0063941963 0.050879899 0.0281356 4283841857
-0.0027530929 0.052848849 0.027050065 4285157467
-0.0027527499 0.054368883 0.02706084 4285026398
-0.002752407 0.055888925 0.027071616 4285881966
-0.0027520643 0.057408962 0.027082393 4285225321
-0.0087947603 0.05928243 0.026369315 4285225578
-0.0087944148 0.060813844 0.026380172 4286016375
-0.0087940693 0.062345259 0.026391027 4284964197
-0.0047336724 0.063616291 0.026888037 4284964451
-0.0047333287 0.065140061 0.026898839 4286082417
-0.014999317 -0.031378996 0.023458632 4284044376
-0.014998969 -0.029836157 0.023469569 4284373343
-0.01499862 -0.028293326 0.023480507 4284504929
-0.010942011 -0.02656026 0.023987869 4284308065
-0.0048678303 -0.024751639 0.024742035 4284242272
-0.0048674862 -0.023227869 0.024752837 4283978332
-0.0028838378 -0.021622282 0.025006279 4283912539
-0.0028834948 -0.020102242 0.025017057 4283713879
-0.001863328 -0.01854397 0.025152566 4284240223
0.00016900108 -0.016953502 0.025411852 4284700006
0.00016934269 -0.015439205 0.025422586 4285094764
0.00016968428 -0.013924909 0.025433322 4284107099
0.0021917548 -0.01235004 0.02569125 4285490031
0.0021920956 -0.01083955 0.025701957 4283057481
0.0021924363 -0.0093290592 0.025712665 4285886834
0.0042043682 -0.0077696564 0.025969243 4286149241
0.0042047082 -0.0062629525 0.025979925 4288319641
0.0042050481 -0.0047562462 0.025990605 4292727263
0.016374338 0.013299499 0.027603419 4283784290
0.018376419 0.014775475 0.027858201 4286942607
0.018376753 0.01625552 0.027868694 4289046436
0.018377086 0.017735563 0.027879186 4288650130
0.018377421 0.019215608 0.027889678 4287003760
0.018377755 0.020695651 0.027900171 4284568390
0.018378088 0.022175696 0.027910663 4283119917
0.018378422 0.023655739 0.027921155 4283185459
0.018378757 0.025135783 0.027931647 4282856502
0.0072774091 0.046338785 0.026726415 4290291102
0.006280866 0.047884908 0.026615702 4288316800
0.006281205 0.049387723 0.026626356 4286210656
0.0042176237 0.050991848 0.026385816 4285223252
0.0022064063 0.052601062 0.026151702 4285815134
-0.0018468901 0.054325767 0.025669156 4286013028
-0.0028663503 0.055899695 0.025555849 4285750883
-0.0028660074 0.057419732 0.025566624 4285686373
-0.0089095552 0.059293281 0.02484221 4285161567
-0.0069060428 0.060703762 0.025096703 4285293412
-0.0048482376 0.062103316 0.025357768 4284833635
-0.0048478935 0.063627087 0.025368569 4284833381
-0.0048475498 0.065150857 0.025379373 4285753965
-0.0048472062 0.066674635 0.025390174 4287069566
-0.0048468625 0.068198405 0.025400976 4287990153
-0.007040543 -0.027888721 0.022945231 4284439136
-0.0070401984 -0.026361082 0.02295606 4284308065
-0.0029984668 -0.024651587 0.02346896 4284242272
-0.0029981239 -0.023131547 0.023479737 4284109918
-0.0019778123 -0.021569455 0.023617191 4284241504
-0.0019774698 -0.020051332 0.023627954 4283846235
5.514847e-05 -0.018457064 0.023891099 4284174430
5.5490062e-05 -0.016942771 0.023901835 4284239712
0.002077847 -0.015360319 0.024163606 4284963178
0.0020781879 -0.01384983 0.024174314 4284962408
0.0040904051 -0.012279096 0.02443473 4287266442
0.004090745 -0.01077239 0.024445411 4288452761
0.0061553316 -0.0092116436 0.024712266 4290098354
0.0061556706 -0.0077088228 0.024722921 4286148210
0.0061560096 -0.0062060002 0.024733575 4285160807
0.0040921043 -0.0047455695 0.024488138 4285686901
0.016263112 0.013310013 0.026123788 4284375913
0.018265475 0.014785963 0.026382331 4286415494
0.018265808 0.016266007 0.026392823 4287861649
0.018266143 0.017746052 0.026403315 4286873978
0.018266477 0.019226095 0.026413808 4284964692
0.01826681 0.02070614 0.0264243 4283713596
0.018267144 0.022186184 0.026434792 4283975487
0.018267479 0.023666227 0.026445284 4284830797
0.018267812 0.025146272 0.026455777 4282724916
0.0091507267 0.04326871 0.025454024 4294238441
0.0091510648 0.044765916 0.025464637 4294568426
0.0091514019 0.046263121 0.025475251 4292528326
0.0071652364 0.047850367 0.025240337 4289895836
0.0071655749 0.049351308 0.025250979 4286802282
0.0071659135 0.050852258 0.025261618 4285814619
0.0041050198 0.052509226 0.024894029 4286209378
0.0041053598 0.054015934 0.024904709 4286144099
-0.0049638362 0.056019034 0.023795061 4285685344
-0.0090246964 0.057772722 0.023304248 4285555297
-0.0090243509 0.059304133 0.023315106 4285030747
-0.0049628047 0.060590345 0.023827467 4285031521
-0.0049624611 0.062114116 0.02383827 4284702306
-0.0049621174 0.06363789 0.023849072 4284767588
-0.0049617738 0.06516166 0.023859875 4285623151
-0.0029778935 0.066550739 0.024115512 4286938237
-0.0029775505 0.068070777 0.024126288 4287859080
-0.0050973077 -0.029301358 0.021670649 4284175964
-0.0031130959 -0.027680894 0.021931641 4284307550
-0.0020926376 -0.026113056 0.022071069 4284307551
-0.0020922951 -0.024594933 0.022081831 4284307551
-0.0020919526 -0.023076819 0.022092594 4284570469
-0.0020916103 -0.021558696 0.022103356 4284965227
0.0019635977 -0.019881088 0.022625238 4284767337
0.0019639384 -0.018370597 0.022635946 4284963946
0.001964279 -0.016860107 0.022646654 4284897642
0.0060413238 -0.015212277 0.023171062 4286081916
0.0070388434 -0.01367774 0.023307359 4287331471
0.0070391819 -0.012176795 0.023317998 4290951363
0.0060423408 -0.010703815 0.023203023 4294440692
0.007039859 -0.0091749048 0.023339281 4292729557
0.0090270117 -0.0076257163 0.023600142 4285358433
0.011065999 -0.0060828454 0.023867495 4281870129
0.011066336 -0.004589472 0.023878083 4280685610
0.016151886 0.013320528 0.024644157 4284045665
0.01815453 0.014796452 0.024906443 4285230707
0.018154863 0.016276496 0.024916936 4287072137
0.018155197 0.01775654 0.024927428 4286478967
0.018155532 0.019236583 0.02493792 4284043850
0.018155865 0.020716628 0.024948413 4283253562
0.02020859 0.022169279 0.025216857 4284502346
0.018156532 0.023676716 0.024969397 4285422680
0.018156866 0.025156759 0.024979889 4282461744
0.0090384949 0.04327932 0.023961019 4294700021
0.009038832 0.044776525 0.023971634 4294700271
0.0090391701 0.046273731 0.023982247 4294831597
0.0070527252 0.047861002 0.02374362 4290093474
0.0070530637 0.049361944 0.02375426 4286867822
0.0070534023 0.050862893 0.023764901 4285814366
0.0070537408 0.052363839 0.02377554 4286208613
-4.1968302e-05 0.05423985 0.02289634 4286012263
-0.0030942371 0.055921238 0.022524314 4285487715
-0.005077715 0.057553601 0.022286382 4285292390
-0.0050773709 0.059077371 0.022297183 4284833633
-0.0050770273 0.060601145 0.022307986 4284900455
-0.0050766836 0.062124912 0.022318788 4284373858
-0.0050763399 0.063648686 0.022329589 4284636516
-0.0050759963 0.065172456 0.022340393 4285557104
-0.0050756526 0.066696227 0.022351194 4286740860
-0.0050753085 0.068220004 0.022361998 4287595908
-0.0032277238 -0.0307102 0.020394336 4283846740
-0.003227381 -0.029190158 0.020405112 4284175451
-0.0032270381 -0.027670123 0.020415889 4284241757
-0.0022064368 -0.026102297 0.020557217 4284241758
-0.0022060943 -0.024584176 0.02056798 4284241758
-0.00017290172 -0.022978492 0.020838814 4284044125
0.0018500284 -0.021380877 0.021108272 4284570469
0.0038628194 -0.019791268 0.021376401 4284569958
0.0038631593 -0.018284561 0.021387082 4284569958
0.0059283315 -0.016704449 0.021661801 4284437604
0.0059286705 -0.015201627 0.021672456 4285884537
0.0089134295 -0.013603936 0.022064699 4287726742
0.010952707 -0.012045749 0.022335978 4292004051
0.010953045 -0.010552375 0.022346565 4292730071
0.0089144427 -0.0091123153 0.022096541 4294900722
0.010953718 -0.0075656329 0.022367738 4288318344
0.01298255 -0.0060268566 0.022637544 4282066479
0.012982886 -0.0045372997 0.022648104 4282264644
0.018043585 0.014806939 0.023430573 4284243044
0.018043919 0.016286984 0.023441065 4286677125
0.018044254 0.017767027 0.023451557 4286807936
0.018044587 0.01924707 0.02346205 4283977805
0.018044921 0.020727115 0.023472542 4283188030
0.020097936 0.02217974 0.023744833 4284831572
0.020098269 0.023655923 0.023755299 4285225819
0.020098601 0.025132105 0.023765763 4283186237
0.008926264 0.04328993 0.02246803 4294437620
0.0089266011 0.044787135 0.022478644 4294966271
0.0089269392 0.04628434 0.022489259 4293714144
0.0089272773 0.047781549 0.022499872 4289962401
0.0089276144 0.049278755 0.022510486 4286144614
0.006940891 0.050873529 0.022268182 4285288024
0.0059439256 0.052425317 0.022151876 4285813859
0.0038794738 0.054037288 0.021899786 4285814887
0.001867406 0.055654157 0.021654388 4285421669
-0.0032078363 0.057452045 0.021019338 4285292139
-0.0051915934 0.059088167 0.0207777 4284637030
-0.0051912498 0.060611941 0.020788504 4284769642
-0.0051909061 0.062135711 0.020799305 4284176994
-0.0051905625 0.063659482 0.020810109 4284439651
-0.0051902188 0.065183252 0.02082091 4285491824
-0.0051898751 0.066707022 0.020831713 4286609274
0.010840089 -0.015021907 0.020825619 4285161328
0.010840425 -0.013528537 0.020836206 4286740106
0.012869548 -0.011974523 0.021109939 4290820291
0.012869884 -0.010484969 0.021120498 4294967286
0.01287022 -0.0089954119 0.021131057 4294703594
0.012870557 -0.0075058565 0.021141618 4292264895
0.012870892 -0.0060163015 0.021152178 4289697952
0.012871228 -0.0045267441 0.021162737 4286080127
0.017932305 0.013337383 0.021944193 4283584092
0.01793264 0.014817427 0.021954685 4283518812
0.017932974 0.016297471 0.021965178 4285624440
0.019986279 0.017761653 0.022241401 4285953145
0.019986613 0.019237835 0.022251865 4283320394
0.019986946 0.020714018 0.022262331 4283122497
0.01998728 0.0221902 0.022272795 4285226847
0.019987613 0.023666384 0.02228326 4285818470
0.019987945 0.025142565 0.022293726 4283449411
0.0088136941 0.04180333 0.020964412 4293055464
0.010853226 0.043219578 0.021238506 4294898941
0.0088143693 0.044797745 0.020985641 4294505204
0.0088147074 0.04629495 0.020996254 4294966009
0.0088150445 0.047792159 0.021006869 4289370778
0.0088153826 0.049289364 0.021017483 4285618270
0.0088157207 0.050786577 0.021028098 4284893266
0.006828717 0.05238511 0.020782089 4285616480
0.0068290555 0.053886052 0.02079273 4285945705
0.0037668699 0.055554669 0.020407999 4285421930
-0.00026830941 0.057289906 0.019897746 4285226861
-0.0053058164 0.059098966 0.019258218 4284505705
-0.0033210937 0.060502898 0.019525122 4284441195
-0.0053051286 0.062146507 0.019279823 4284111460
-0.005304785 0.063670278 0.019290626 4284439653
0.017817022 -0.005892701 0.020331921 4291210675
0.017817356 -0.0044126562 0.020342413 4284566888
0.035053723 0.0075211958 0.022690577 4281744180
0.035054047 0.0089688301 0.022700841 4281809726
0.035054374 0.010416464 0.022711104 4282858822
0.035054702 0.011864099 0.022721365 4283582034
0.019874627 0.013343565 0.020737983 4282925648
0.019874958 0.014819748 0.020748448 4282400332
0.019875292 0.01629593 0.020758912 4284374119
0.019875625 0.017772114 0.020769378 4285294960
0.019875959 0.019248296 0.020779843 4283386448
0.019876292 0.020724479 0.020790307 4283320394
0.019876624 0.022200661 0.020800773 4285293155
0.019876957 0.023676844 0.020811237 4285753193
0.01987729 0.025153026 0.020821702 4283318082
0.02798596 0.032318737 0.021937327 4283257429
0.027986288 0.033779677 0.021947684 4288325286
0.027986618 0.035240613 0.02195804 4290691276
0.010740947 0.041736789 0.019738764 4292200414
0.010741284 0.043230161 0.019749351 4294176247
0.010741621 0.044723529 0.019759936 4294967039
0.0087024765 0.04630556 0.019503266 4293518561
0.0087028136 0.047802769 0.019513879 4289042326
0.0087031517 0.049299974 0.019524494 4285553245
0.0067158672 0.050894801 0.01927473 4284959057
0.0057186228 0.052446615 0.019154711 4285813857
0.0036535864 0.054058641 0.018894849 4286143082
0.0016409524 0.055675566 0.018641917 4285553514
-0.00038182267 0.057300635 0.018387699 4285227372
-0.0034353789 0.05899363 0.017998593 4284374630
-0.0034350359 0.060513671 0.018009368 4284310120
-0.003434693 0.062033709 0.018020144 4284177253
-0.0054190075 0.063681081 0.017771143 4284440166
-0.0054186638 0.065204851 0.017781945 4285426546
0.022760894 -0.0028282511 0.01955092 4283581021
0.024788523 -0.0013238681 0.019831615 4290952130
0.024788855 0.00014286017 0.019842012 4292529872
0.031919528 0.0017018042 0.020802829 4289630111
0.031919856 0.0031551255 0.020813132 4284892753
0.031920183 0.0046084458 0.020823434 4280948488
0.031920511 0.0060617668 0.020833738 4280293892
0.033959124 0.0075261178 0.021115638 4280362527
0.034945533 0.0089790877 0.021257287 4280822831
0.034945861 0.010426722 0.02126755 4282135099
0.034946188 0.011874356 0.021277813 4282923591
0.034946512 0.013321991 0.021288075 4282004291
0.021747274 0.014822296 0.019540494 4281610305
0.021747608 0.016294749 0.019550933 4283452506
0.022765538 0.017759316 0.019696869 4284900204
0.022765869 0.019229857 0.019707294 4283781721
0.022766201 0.020700397 0.019717719 4283649618
0.022766534 0.022170939 0.019728145 4284898656
0.022766866 0.023641478 0.01973857 4285227362
0.029875696 0.024990089 0.02069499 4282725945
0.031925101 0.026408263 0.020977978 4281937199
0.029876353 0.027904436 0.02071565 4282200630
0.027875787 0.029407218 0.020459775 4281083432
0.027876116 0.030868154 0.020470133 4279177234
0.027876446 0.03232909 0.020480489 4283455832
0.027876776 0.033790026 0.020490846 4289510074
0.026872735 0.035281412 0.020367635 4289704895
0.024797125 0.036811072 0.020101961 4286605717
0.024797456 0.038277801 0.02011236 4284761722
0.010629003 0.041747373 0.018249594 4290161861
0.01062934 0.043240745 0.018260179 4293650932
0.010629677 0.044734113 0.018270766 4294572539
0.0085902456 0.046316169 0.018010277 4294703092
0.0085905828 0.047813378 0.018020891 4289437854
0.0085909208 0.049310584 0.018031504 4285750623
0.006603356 0.050905436 0.017778011 4285090896
0.0056059705 0.052457266 0.01765612 4285879902
0.0035406428 0.054069318 0.01739238 4286077540
0.0015277251 0.055686269 0.017135674 4285554019
-0.0004953348 0.057311364 0.016877666 4285096807
-0.003549322 0.0590044 0.016482824 4284309858
-0.0035489793 0.060524441 0.016493602 4284245094
-0.0035486363 0.062044483 0.016504377 4284046437
-0.005533231 0.063691877 0.016251646 4284439912
-0.0075920857 0.065351643 0.015989134 4285492339
-0.0075917412 0.066879287 0.015999964 4286478460
0.021632914 -0.0028367175 0.017946923 4282528843
0.022650992 -0.0013472894 0.018094923 4289242273
0.024678906 0.00015325366 0.018379411 4292793806
0.024679238 0.0016199828 0.018389808 4289629853
0.031810917 0.0031654239 0.019363917 4285220176
0.033849813 0.0046374123 0.019649677 4281210629
0.033850141 0.0060869004 0.019659951 4280425217
0.034836691 0.0075417119 0.019803457 4280494114
0.034837019 0.0089893462 0.019813718 4280888884
0.034837343 0.010436981 0.019823981 4281937468
0.034837671 0.011884615 0.019834245 4282331458
0.034837998 0.013332249 0.019844506 4282266950
0.03181354 0.014791992 0.019446339 4281544510
0.031813867 0.016245313 0.019456644 4282794576
0.022655305 0.017769737 0.018230448 4284110688
0.021637896 0.019250091 0.018103501 4283781206
0.021638228 0.020722546 0.018113941 4283649359
0.021638561 0.022195 0.018124379 4284767068
0.031815507 0.023511918 0.019508157 4285358948
0.031815834 0.02496524 0.019518461 4282989887
0.033854719 0.026379738 0.019803813 4281674027
0.03181649 0.027871881 0.019539066 4281148455
0.029767452 0.029371936 0.019272903 4281412910
0.02976778 0.030829111 0.019283233 4280559657
0.029768109 0.032286286 0.019293563 4282732366
0.027767263 0.033800378 0.019034024 4287602588
0.026763082 0.03529178 0.01890894 4289968836
0.024687178 0.036821466 0.018639358 4288054444
0.022659948 0.038357303 0.018376399 4284828026
0.02266028 0.039827842 0.018386822 4284106862
0.010517058 0.041757952 0.016760407 4289305782
0.010517395 0.043251324 0.016770994 4293518321
0.010517732 0.044744696 0.016781582 4294967039
0.010518068 0.046238068 0.016792169 4293846502
0.0084783509 0.047823988 0.016527887 4288911510
0.008478689 0.049321193 0.016538501 4285685341
0.0064908443 0.050916072 0.016281294 4284829005
0.0064911828 0.052417018 0.016291933 4285617240
0.0054936577 0.053970732 0.016168183 4285749853
0.0014144977 0.055696972 0.015629431 4285291613
-0.00060884695 0.057322096 0.015367635 4285227873
-0.0026424562 0.058955431 0.015104502 4284572253
-0.0036629215 0.060535211 0.014977848 4284638821
-0.0036625785 0.062055252 0.014988624 4284177505
-0.0056474539 0.063702673 0.014732164 4284440166
-0.0056471098 0.065226443 0.014742966 4285492339
-0.0056467662 0.066750214 0.014753768 4286610046
0.02456896 0.00016364714 0.016916808 4292400061
0.026645837 0.0016571687 0.0172117 4290812581
0.031701975 0.0031757224 0.017914673 4285612877
0.033741161 0.0046476838 0.018204266 4281538304
0.034727849 0.0061043361 0.018349625 4280424192
0.034728177 0.0075519704 0.018359888 4280100387
0.034728501 0.0089996047 0.01837015 4280627001
0.034728829 0.010447239 0.018380413 4281345850
0.034729157 0.011894873 0.018390676 4282331205
0.036752451 0.013338186 0.018677883 4282135877
0.036752775 0.014782018 0.018688118 4282071107
0.022544742 0.016309617 0.016753633 4282597447
0.022545073 0.017780157 0.016764058 4283781204
0.021527519 0.019260526 0.016635193 4283517001
0.021527853 0.02073298 0.016645631 4283714120
0.021528184 0.022205435 0.016656071 4285292895
0.029656908 0.023553565 0.01777852 4285226332
0.031706892 0.024975538 0.018069217 4282726715
0.03170722 0.02642886 0.018079519 4281608747
0.031707548 0.027882179 0.018089822 4281741362
0.029658223 0.029382261 0.01781984 4280426531
0.02965855 0.030839438 0.017830171 4279375381
0.02965888 0.032296609 0.017840501 4282008897
0.027657751 0.033810731 0.017577201 4288260257
0.027658081 0.035271671 0.017587557 4289705914
0.026653757 0.036764968 0.017460587 4287792545
0.026654087 0.038227793 0.017470956 4284369519
0.022550048 0.039838266 0.016920431 4281738049
0.012435012 0.041691698 0.015548625 4288581542
0.012435349 0.043181255 0.015559184 4293187303
0.010405789 0.044755276 0.015292427 4294966015
0.010406126 0.046248648 0.015303013 4294963959
0.010406462 0.047742024 0.0153136 4289962916
0.0083664572 0.049331799 0.015045512 4285488477
0.0083667953 0.050829012 0.015056126 4284895825
0.0063786716 0.052427653 0.014795215 4285158997
0.0053810044 0.053981382 0.014669577 4285883233
0.0013012716 0.055707674 0.014123203 4285620577
-0.00072235911 0.057332825 0.013857603 4285161309
-0.0027562543 0.05896619 0.013590666 4284964700
-0.0027559118 0.060484309 0.013601428 4284570972
-0.0037765219 0.062066022 0.013472857 4284045148
-0.0057616765 0.063713469 0.013212682 4284769129
-0.0057613323 0.065237239 0.013223484 4285887352
-0.0057609887 0.066761017 0.013234287 4286676096
0.031592704 0.0017326997 0.01645514 4290614686
0.031593032 0.0031860208 0.016465444 4285677643
0.033632506 0.0046579549 0.016758855 4281800448
0.034619335 0.0061145942 0.016906071 4280621568
0.034619659 0.0075622285 0.016916335 4280232486
0.034619987 0.0090098623 0.016926598 4280758589
0.034620315 0.010457497 0.016936859 4281543231
0.036643893 0.011904586 0.017227868 4282594377
0.03664422 0.013348417 0.017238103 4281807167
0.036644544 0.014792249 0.017248338 4281676347
0.022434508 0.016320037 0.015287225 4282333760
0.02243484 0.017790578 0.01529765 4283583564
0.021417143 0.01927096 0.01516687 4283450948
0.021417476 0.020743413 0.015177309 4283713861
0.021417808 0.022215867 0.015187747 4285291866
0.029547676 0.023563892 0.01632544 4284963160
0.033637084 0.024950793 0.016902715 4282923578
0.033637412 0.026400281 0.016912991 4281082403
0.031598605 0.027892478 0.016640592 4281412399
0.031598933 0.029345799 0.016650895 4281084974
0.029549319 0.030849762 0.016377091 4279901725
0.027547909 0.032360148 0.016110022 4281219379
0.027548239 0.033821084 0.01612038 4287339409
0.027548568 0.03528202 0.016130736 4289903546
0.026544102 0.036775336 0.016001876 4287003796
0.026544433 0.03823816 0.016012248 4284436078
0.026544763 0.039700985 0.016022617 4284830320
0.012323356 0.041702256 0.014063274 4288843944
0.012323692 0.043191809 0.014073833 4293909743
0.010293845 0.04476586 0.013803256 4294633718
0.010294182 0.046259232 0.013813843 4294896371
0.010294518 0.047752608 0.013824429 4289698976
0.010294856 0.049245976 0.013835017 4286409324
0.0082545634 0.050839622 0.013563123 4285356891
0.0082549006 0.052336827 0.013573737 4285028694
0.0052683521 0.053992033 0.013170986 4285489245
0.0011880432 0.055718381 0.012616945 4285423711
-0.00083587237 0.057343557 0.012347556 4285357918
-0.0028700533 0.058976945 0.012076815 4285292640
-0.003890808 0.060556754 0.011946313 4284964447
-0.003890465 0.062076796 0.011957089 4283846997
-0.005875899 0.063724272 0.011693199 4284571749
-0.0058755549 0.065248042 0.011704002 4285887352
-0.0058752112 0.066771813 0.011714804 4286611075
0.031483434 0.00028967598 0.014995608 4291874489
0.031483762 0.0017429981 0.015005911 4290812585
0.03148409 0.0031963193 0.015016214 4285875539
0.03352385 0.0046682265 0.015313429 4282063620
0.034510817 0.0061248522 0.015462519 4280883968
0.034511145 0.0075724865 0.015472781 4280363557
0.034511473 0.0090201208 0.015483043 4280758074
0.034511797 0.010467755 0.015493306 4281542712
0.036535665 0.011914817 0.015788117 4282528067
0.036535989 0.013358649 0.015798353 4281807165
0.036536317 0.01480248 0.015808588 4281478966
0.019323014 0.02077678 0.013430162 4283713859
0.031488352 0.022089493 0.015150151 4285291864
0.031488679 0.023542814 0.015160454 4284831572
0.033528429 0.024961064 0.015457289 4281607718
0.033528756 0.026410552 0.015467565 4281411368
0.03352908 0.027860042 0.015477841 4282004536
0.031489991 0.029356098 0.015201665 4280427044
0.031490318 0.030809419 0.015211969 4279112209
0.029440418 0.032317262 0.014934344 4281285172
0.027438724 0.033831436 0.014663542 4287470225
0.029441075 0.035231609 0.014955005 4289179569
0.027439384 0.036753312 0.014684255 4287332762
0.027439713 0.038214248 0.014694612 4285554561
0.026435109 0.039711349 0.014563908 4288185765
0.010181227 0.041789699 0.012292897 4290620102
0.010181563 0.043283071 0.012303485 4294964223
0.0101819 0.044776443 0.012314071 4294965247
0.0081413202 0.046358608 0.012038306 4294963452
0.0081416583 0.047855813 0.012048921 4290554033
0.0081419954 0.049353018 0.012059534 4286738293
0.0081423335 0.050850231 0.012070148 4285619810
0.0061536478 0.052448925 0.011801763 4285160029
0.0030888696 0.054112025 0.011382519 4285488994
0.0010748159 0.055729084 0.011110703 4285423460
0.0010751566 0.057239573 0.01112141 4285357667
-0.0009490418 0.058868583 0.010848274 4285095011
-0.0040047513 0.060567524 0.010430546 4284569693
-0.0059904652 0.062211294 0.010162915 4283386448
-0.0080504818 0.063867301 0.0098849218 4284374370
-0.012072027 0.065660626 0.0093320506 4285887352
-0.01207168 0.067195825 0.009342934 4286676868
0.03137482 0.0017532966 0.013556682 4291273396
0.031375147 0.0032066177 0.013566984 4286073177
0.033415195 0.004678498 0.013868018 4281998087
0.034402303 0.0061351107 0.014018935 4280752384
0.034402627 0.0075827446 0.014029197 4280494114
0.034402955 0.0090303794 0.014039461 4280889400
0.034403283 0.010478013 0.014049723 4281739830
0.034403607 0.011925648 0.014059986 4282659905
0.034403935 0.013373282 0.014070248 4282399300
0.034404263 0.014820916 0.01408051 4281808186
0.019212691 0.022263423 0.011968589 4285292377
0.029329214 0.023584543 0.013419285 4284963158
0.033419773 0.024971336 0.014011879 4282397748
0.033420101 0.026420824 0.014022154 4280358680
0.033420429 0.027870312 0.014032429 4280820260
0.031381052 0.029366396 0.013752436 4281347631
0.03138138 0.030819718 0.013762739 4280099104
0.031381708 0.032273039 0.013773042 4280166689
0.029331516 0.033784762 0.013491596 4286483330
0.029331844 0.035241935 0.013501926 4290890187
0.029332172 0.036699109 0.013512257 4287595936
0.029332502 0.038156286 0.013522587 4285422722
0.010069284 0.041800283 0.010803742 4290027967
0.010069621 0.043293655 0.010814329 4293580529
0.0080287503 0.044872012 0.010534689 4294567676
0.0080290884 0.046369217 0.010545302 4292067023
0.0080294255 0.047866423 0.010555916 4288448660
0.0060404581 0.049457669 0.010283749 4286145904
0.0050423699 0.051007688 0.010152497 4285357156
0.0050427089 0.052510511 0.010163151 4285554535
0.00096124777 0.054229293 0.0095937513 4285884013
0.00096158852 0.055739786 0.0096044587 4285554794
-0.0010628967 0.057365019 0.0093274917 4285029220
-0.0041190377 0.059058256 0.0089040026 4284700256
-0.0041186945 0.060578298 0.008914778 4283977303
-0.0061046877 0.062222093 0.0086434325 4283320655
-0.0081649953 0.063878119 0.0083615761 4284308577
-0.0081646508 0.065405771 0.0083724065 4285953145
-0.012186761 0.067206703 0.0078120395 4286808454
0.031265881 0.001763595 0.012107451 4291273914
0.031266209 0.0032169162 0.012117755 4285876316
0.031266537 0.0046702363 0.012128057 4281669640
0.033306867 0.0061382572 0.012432883 4280554752
0.034294114 0.0075930031 0.012585645 4280559137
0.034294441 0.0090406369 0.012595907 4281217847
0.034294765 0.010488272 0.012606169 4282069048
0.034295093 0.011935906 0.012616432 4283054660
0.034295421 0.01338354 0.012626695 4283056970
0.034295745 0.014831174 0.012636958 4282334528
0.021086348 0.020774715 0.010772384 4283648320
0.03127047 0.02211009 0.012251692 4285226582
0.031270798 0.023563409 0.012261995 4284897619
0.033311117 0.024981607 0.012566467 4281608487
0.033311445 0.026431095 0.012576743 4281542954
0.033311773 0.027880585 0.012587018 4281543983
0.033312101 0.029330073 0.012597295 4280031771
0.033312425 0.030779561 0.01260757 4279243795
0.033312753 0.032229051 0.012617846 4281416499
0.031273093 0.033736657 0.012334115 4287601298
0.031273421 0.035189979 0.012344418 4290231487
0.031273749 0.0366433 0.012354721 4288780467
0.029223273 0.038166609 0.012069524 4285423237
0.0099576768 0.043304235 0.0093251588 4289633207
0.0079165185 0.044882622 0.0090416847 4289830839
0.0079168556 0.046379827 0.009052299 4287264651
0.0079171937 0.047877032 0.0090629132 4285159528
0.0059279469 0.049468305 0.0087870304 4285159526
0.0059282854 0.050969251 0.0087976707 4285027940
0.0049300557 0.052521162 0.0086645456 4285554284
0.00084802159 0.05424 0.0080875224 4285817969
0.00084836234 0.055750489 0.0080982307 4285291625
0.00084870303 0.057260979 0.008108939 4284700002
-0.010287102 0.059423506 0.0065169516 4284502625
-0.010286757 0.060954917 0.006527808 4284043098
-0.010286411 0.062486332 0.0065386645 4283715414
-0.010286066 0.064017743 0.0065495209 4284702823
-0.0082791634 0.065416597 0.0068490608 4286084731
0.031157264 0.0032272148 0.010668511 4285548122
0.031157592 0.0046805348 0.010678813 4281735182
0.033198215 0.0061485283 0.010987487 4280554754
0.0341856 0.0076032612 0.011142091 4280295708
0.034185924 0.0090508955 0.011152353 4280822061
0.034186251 0.010498529 0.011162616 4281476909
0.033199523 0.011946483 0.01102859 4282528568
0.03319985 0.013395971 0.011038866 4283123017
0.029108781 0.01486215 0.010451162 4282728770
0.026100866 0.016337248 0.010021855 4282925634
0.024023859 0.020749815 0.009749366 4283582527
0.024024189 0.022216542 0.0097597642 4284897617
0.031161854 0.023573708 0.010812751 4284437068
0.034189519 0.024974871 0.011265242 4282069038
0.034189843 0.026422508 0.011275505 4280161301
0.03419017 0.027870141 0.011285767 4279964951
0.034190498 0.029317774 0.011296029 4280360738
0.034190822 0.030765409 0.011306292 4280099104
0.036215533 0.03215915 0.011612093 4280100385
0.033204429 0.03368881 0.011182725 4285298543
0.033204753 0.035138298 0.011193002 4289178799
0.031164804 0.036653597 0.010905476 4286938263
0.0098457318 0.043314818 0.007835974 4284632939
0.0078042871 0.044893231 0.0075486959 4283119955
0.0078046252 0.046390433 0.0075593097 4282856522
0.0058150981 0.047977999 0.0072796862 4282330175
0.0058154366 0.049478941 0.0072903265 4284435551
0.0048170649 0.051028989 0.007155301 4284370269
0.0048174039 0.052531809 0.0071659549 4284896613
0.0048177429 0.054034628 0.0071766083 4284831590
0.0048180819 0.055537451 0.0071872622 4284305246
0.0048184209 0.05704027 0.007197916 4284174173
-0.012418651 0.059552453 0.0046958649 4284634470
-0.012418305 0.061087657 0.0047067483 4284569188
-0.012417958 0.062622853 0.0047176317 4284636262
-0.012417613 0.064158052 0.0047285147 4285294960
0.031048324 0.0032375131 0.0092192804 4284233032
0.031048652 0.0046908334 0.0092295837 4281406478
0.034076758 0.0061658849 0.0096882749 4280488708
0.034077086 0.0076135192 0.0096985372 4279965460
0.03407741 0.009061153 0.0097088004 4279834907
0.034077737 0.010508788 0.0097190626 4280489755
0.033090867 0.011956753 0.0095831789 4281739052
0.033091195 0.013406242 0.0095934551 4282596671
0.026996393 0.014880674 0.0087016122 4282794561
0.025992202 0.020736089 0.0085942568 4283845698
0.025992531 0.022198914 0.0086046271 4284568651
0.029001523 0.02361552 0.0090600662 4283713343
0.03309381 0.02500215 0.0096756602 4280555799
0.034081329 0.026432766 0.009831951 4280358937
0.034081656 0.027880399 0.0098422132 4280162330
0.034081984 0.029328033 0.0098524764 4279308050
0.036106978 0.030725552 0.010162108 4279440660
0.036107305 0.032169383 0.010172344 4280362787
0.03610763 0.033613212 0.010182579 4283916633
0.033096101 0.035148568 0.0097475909 4284968047
0.0057025854 0.047988635 0.005782953 4283514962
0.0057029244 0.049489576 0.0057935934 4284370271
0.0047044125 0.051039636 0.0056567104 4284238683
0.0047047515 0.052542459 0.0056673642 4284633441
0.0047050905 0.054045279 0.0056780176 4284568418
0.0047054295 0.055548102 0.0056886715 4284371041
-0.012533384 0.061098535 0.0031758691 4285556085
-0.012533038 0.06263373 0.0031867526 4285623157
0.03396824 0.0061761434 0.0082446914 4280225286
0.033968568 0.0076237777 0.0082549546 4279635984
0.033968892 0.0090714116 0.0082652168 4279570454
0.03396922 0.010519046 0.0082754791 4280226583
0.032982215 0.011967025 0.0081377681 4281608236
0.030941676 0.013421059 0.007842171 4282266936
0.023803635 0.019303873 0.0068137632 4285161558
0.02588255 0.020746455 0.0071355617 4284174661
0.025882879 0.022209279 0.0071459319 4284437065
0.028892292 0.023625847 0.0076069878 4283187769
0.032985158 0.02501242 0.0082302494 4280556056
0.032985482 0.026461909 0.0082405256 4279964179
0.03298581 0.027911399 0.0082508009 4279899160
0.032986138 0.029360887 0.0082610771 4279900187
0.035998747 0.030735783 0.0087223286 4280229922
0.035999071 0.032179613 0.0087325638 4279836445
0.035999399 0.033623446 0.0087428 4282139968
0.033860054 0.0076340358 0.0068114009 4281740592
0.033860378 0.0090816701 0.0068216631 4282267454
0.033860706 0.010529304 0.0068319258 4283187527
0.030832408 0.011978036 0.0063826386 4283713612
0.030832736 0.013431357 0.0063929418 4282859073
0.023693688 0.019314267 0.0053511756 4285753695
0.025772894 0.02075682 0.0056768376 4285161556
0.023694349 0.022247722 0.0053719711 4284635214
0.028783062 0.023636172 0.0061539249 4283187515
0.030835358 0.025057927 0.0064753648 4280095506
0.030835686 0.026511248 0.0064856675 4280556316
0.032877155 0.027921669 0.0068053901 4281478192
0.032877482 0.029371157 0.0068156659 4281610807
0.033865277 0.030796183 0.0069756019 4281150513
0.033865605 0.032243818 0.0069858646 4281349173
0.033752192 0.010539562 0.0053883726 4284963940
0.030723466 0.011988334 0.0049333945 4285227108
0.030723793 0.013441656 0.0049436972 4283253318
0.02566291 0.019304361 0.0042077727 4285951074
0.02566324 0.020767186 0.0042181429 4285622109
0.025663571 0.02223001 0.0042285132 4285424731
0.030726088 0.023614902 0.0050158175 4284174410
0.030726416 0.025068225 0.0050261202 4281082401
0.032768175 0.026482452 0.0053497036 4280424732
0.032768503 0.02793194 0.0053599793 4280688422
0.032768827 0.029381428 0.0053702551 4281742393
0.032769155 0.030830918 0.0053805308 4282532167
0.033757091 0.032254077 0.0055423109 4282928207
0.023473794 0.019335054 0.0024259554 4286280039
0.025553586 0.020777551 0.0027594185 4286148453
0.025553916 0.022240376 0.0027697887 4286148454
0.025554245 0.023703203 0.002780159 4285358686
0.030617476 0.025078524 0.0035769057 4281542954
0.032659519 0.026492722 0.0039042928 4280029976
0.032659847 0.027942212 0.0039145686 4279767321
0.032660175 0.0293917 0.0039248443 4281807931
0.032660503 0.030841189 0.0039351201 4284111201
0.021333179 0.020835863 0.0006544661 4286411626
0.02133351 0.022306405 0.00066489103 4286411372
0.021333842 0.023776945 0.00067531603 4286148204
0.021222945 0.020846285 -0.00081194035 4286609005
0.021223277 0.022316825 -0.00080151536 4286345579
0.021223608 0.023787364 -0.00079109042 4286411376
0.020093298 0.022341076 -0.0024319827 4286279788
0.021113377 0.023797786 -0.0022574968 4286345841
0.019982921 0.022351511 -0.0039003061 4286148202
0.019983253 0.023823963 -0.0038898673 4286214255
0.019983584 0.025296418 -0.0038794288 4286279798
0.020892249 0.020877546 -0.0052111447 4287266685
0.020892581 0.022348087 -0.0052007199 4286082156
0.020892913 0.023818627 -0.0051902947 4286147951
0.020893244 0.025289167 -0.0051798699 4286148212
0.020782681 0.023829047 -0.0066566863 4286016113
0.020783013 0.025299586 -0.0066462616 4286016878
0.020783344 0.026770128 -0.0066358363 4285951596
0.020672446 0.023839468 -0.0081231073 4286016113
0.020672778 0.025310008 -0.008112683 4286279535
0.020673111 0.026780548 -0.0081022577 4286083435
0.020562215 0.023849888 -0.0095894989 4285884781
0.020562546 0.025320427 -0.0095790746 4286279790
0.020562878 0.026790969 -0.0095686493 4285951849
0.019431042 0.022403682 -0.011241848 4286476150
0.020451982 0.023860309 -0.011055905 4285818988
0.020452315 0.025330849 -0.01104548 4286016875
0.020452647 0.026801389 -0.011035056 4285820263
0.019320667 0.022414114 -0.012710156 4286476664
0.02034175 0.023870729 -0.012522297 4285753193
0.020342082 0.025341269 -0.012511872 4286016875
0.020342413 0.02681181 -0.012501447 4285820263
0.017220562 0.02097553 -0.014538394 4287858317
0.017220894 0.022451712 -0.01452793 4286608504
0.019210624 0.023897002 -0.014168026 4285753193
0.019210955 0.025369456 -0.014157588 4286214254
0.02023218 0.02682223 -0.013967869 4285951849
0.01504941 0.021010287 -0.016376212 4288055950
0.017110238 0.022462172 -0.015999967 4286740088
0.017110571 0.023938356 -0.015989503 4285753193
0.017110905 0.025414538 -0.015979039 4286148461
0.014937797 0.018060688 -0.017873082 4289701284
0.014938131 0.019540731 -0.01786259 4289174429
0.014938464 0.021020776 -0.017852098 4288121741
0.016999584 0.022472633 -0.017471991 4286805881
0.016999917 0.023948817 -0.017461525 4285753191
0.017000249 0.025424998 -0.017451061 4285885290
0.014826183 0.015111087 -0.019369954 4288056459
0.016887596 0.016578363 -0.018985888 4288977561
0.016887929 0.018054547 -0.018975424 4289438112
0.014827185 0.019551218 -0.019338477 4289174940
0.016888594 0.021006912 -0.018954493 4288188045
0.016888928 0.022483094 -0.018944029 4286674806
0.016889261 0.023959277 -0.018933564 4285424739
0.016889593 0.025435459 -0.018923098 4285885290
0.014715239 0.015121575 -0.020845825 4288122254
0.01677694 0.016588824 -0.020457927 4289043356
0.016777273 0.018065007 -0.020447461 4289503905
0.016777605 0.019541189 -0.020436997 4289240733
0.019789925 0.020981751 -0.019875165 4288253838
0.019790256 0.022452291 -0.01986474 4286740599
0.019790588 0.023922831 -0.019854315 4285490534
0.016778937 0.025445919 -0.020395137 4285622120
0.016665619 0.013646919 -0.02195088 4287266693
0.014604294 0.015132062 -0.022321712 4288122002
0.016666284 0.016599284 -0.02192995 4289109149
0.016666617 0.018075468 -0.021919485 4289569698
0.016666951 0.01955165 -0.021909019 4289306526
0.016667284 0.021027833 -0.021898555 4288319631
0.016667617 0.022504015 -0.02188809 4286740599
0.016667949 0.023980198 -0.021877624 4285490534
0.014493016 0.013662506 -0.023808075 4287134854
0.01449335 0.01514255 -0.023797583 4288056211
0.014493683 0.016622594 -0.023787091 4289043102
0.016555963 0.018085927 -0.023391508 4289569700
0.014494351 0.019582681 -0.023766106 4289306526
0.016556628 0.021038294 -0.023370577 4288319631
0.016556961 0.022514476 -0.023360113 4286740601
0.016557295 0.023990659 -0.023349648 4285490280
0.014382071 0.013672994 -0.025283962 4287200136
0.014382404 0.015153038 -0.02527347 4288055699
0.016444976 0.016620206 -0.024873996 4288977311
0.016445307 0.018096387 -0.02486353 4289503907
0.01644564 0.019572571 -0.024853066 4289240733
0.018437326 0.021025132 -0.02446709 4288253838
0.018437659 0.022497587 -0.024456652 4286675065
0.016446639 0.02400112 -0.024821671 4285425002
0.016333653 0.013678301 -0.026366964 4287331722
0.016333986 0.015154484 -0.026356498 4288121238
0.016334319 0.016630666 -0.026346033 4288977313
0.016334651 0.018106848 -0.026335569 4289438114
0.016334984 0.019583032 -0.026325103 4289240733
0.018326951 0.021035567 -0.025935398 4288319631
0.016335651 0.022535395 -0.026304174 4286806651
0.016335983 0.02401158 -0.026293708 4285622127
0.014159847 0.012213926 -0.028246213 4286213494
0.014160181 0.01369397 -0.02823572 4287529103
0.01622333 0.015164943 -0.027828537 4288318619
0.016223663 0.016641127 -0.027818071 4289108899
0.016223995 0.018117309 -0.027807606 4289503653
0.018216243 0.019573547 -0.027414147 4289306526
0.018216575 0.021046001 -0.027403709 4288451217
0.016224995 0.022545855 -0.027776212 4287004032
0.016225327 0.024022039 -0.027765747 4285819506
0.012035809 0.010741943 -0.030123428 4286082419
0.014048903 0.012224413 -0.029722083 4286214007
0.014049237 0.013704457 -0.029711591 4287595407
0.016112674 0.015175404 -0.029300559 4288384923
0.016113007 0.016651588 -0.029290095 4289174692
0.016113341 0.018127769 -0.029279629 4289569446
0.016113674 0.019603953 -0.029269164 4289372321
0.018106198 0.021056436 -0.028872032 4288517012
0.018106529 0.022528891 -0.028861592 4287135618
0.018106863 0.024001343 -0.028851153 4286082678
0.011924581 0.010752458 -0.031603072 4286215288
0.011924915 0.012236269 -0.031592555 4286149495
0.013938291 0.013714946 -0.031187478 4287266952
0.013938625 0.01519499 -0.031176986 4288385687
0.016002353 0.016662046 -0.030762117 4289043617
0.016002685 0.01813823 -0.030751653 4289306787
0.016003018 0.019614413 -0.030741187 4289372580
0.017995823 0.021066869 -0.03034034 4288319892
0.017996155 0.022539323 -0.0303299 4286675069
0.017996486 0.024011778 -0.030319462 4285753967
0.011813354 0.010762973 -0.033082705 4286281081
0.011813688 0.012246784 -0.033072185 4286149752
0.013827347 0.013725433 -0.032663349 4287398790
0.013827681 0.015205477 -0.032652855 4288517271
0.01788445 0.016659942 -0.031839963 4289175201
0.017884782 0.018132396 -0.031829525 4289438373
0.017885115 0.019604849 -0.031819087 4289504166
0.017885447 0.021077303 -0.031808648 4288451478
0.017885778 0.022549758 -0.03179821 4286806655
0.011702126 0.010773487 -0.034562349 4286346620
0.013716068 0.012255877 -0.034149729 4286281338
0.013716402 0.013735921 -0.034139235 4287464583
0.015780708 0.015206786 -0.033716645 4288517271
0.017774075 0.016670376 -0.033308271 4289175201
0.017774407 0.018142829 -0.033297833 4289438373
0.0187975 0.019604994 -0.03308323 4289504166
0.018797832 0.021075536 -0.033072807 4288517271
0.018798163 0.022546075 -0.033062384 4286872448
0.0115909 0.010784001 -0.036041968 4286412413
0.013605123 0.012266365 -0.035625599 4286346874
0.01566972 0.013741064 -0.035199147 4287398792
0.015670052 0.015217246 -0.035188682 4288451478
0.017663699 0.016680811 -0.03477658 4289043615
0.01766403 0.018153263 -0.034766141 4289306787
0.018687267 0.019615415 -0.034549639 4289438373
0.018687598 0.021085955 -0.034539212 4288451478
0.01868793 0.022556497 -0.034528788 4286806655
0.011479672 0.010794516 -0.037521612 4286478206
0.011480006 0.012278328 -0.037511092 4286346874
0.013494512 0.013756896 -0.037090994 4287398792
0.015559398 0.015227707 -0.036660705 4288451478
0.017553322 0.016691243 -0.036244903 4289109408
0.017553654 0.018163698 -0.036234464 4289306787
0.018577036 0.019625835 -0.036016028 4289438373
0.018577367 0.021096377 -0.036005605 4288451478
0.018577699 0.022566916 -0.035995182 4286938241
0.01857803 0.024037456 -0.035984755 4286082932
0.013383234 0.012287341 -0.038577355 4286478460
0.01544841 0.013761984 -0.038143191 4287596171
0.015448743 0.015238167 -0.038132727 4288583064
0.017442947 0.016701678 -0.037713211 4289175201
0.017443279 0.018174132 -0.037702773 4289438373
0.018466802 0.019636257 -0.037482437 4289569959
0.018467134 0.021106796 -0.03747201 4288648857
0.018467465 0.022577338 -0.037461586 4287135620
0.018467799 0.024047878 -0.037451163 4286280311
