# .PCD v0.7 - Point Cloud Data file format
VERSION 0.7
FIELDS x y z rgba
SIZE 4 4 4 4
TYPE F F F U
COUNT 1 1 1 1
WIDTH 1155
HEIGHT 1
VIEWPOINT 0 0 0 1 0 0 0
POINTS 1155
DATA ascii
-0.083211981 0.11930393 1.1817434 8276297
-0.080750637 0.11863366 1.1751041 6765114
-0.078316972 0.11797114 1.1685417 8079175
-0.076049812 0.11753152 1.1641872 8341833
-0.073860332 0.11719173 1.1608214 4922653
-0.071683489 0.1168539 1.1574751 4396052
-0.06951914 0.116518 1.1541479 4132366
-0.067367211 0.11618403 1.1508398 3934987
-0.065227583 0.11585198 1.1475507 3803144
-0.063100137 0.11552178 1.1442801 4461588
-0.060984761 0.11519343 1.1410277 5580840
-0.058881387 0.11486696 1.1377939 6435892
-0.056789905 0.11454235 1.1345785 7816260
-0.054720484 0.11424101 1.1315936 8802898
-0.052722272 0.11407182 1.1299177 7423044
-0.05072996 0.11390312 1.1282467 8474190
-0.048743535 0.11373492 1.1265806 8669513
-0.046762969 0.11356721 1.1249194 8079175
-0.044788234 0.1134 1.1232631 7882310
-0.042819303 0.11323327 1.1216116 7488066
-0.040856149 0.11306702 1.1199648 7159615
-0.038898759 0.11290128 1.1183231 5778476
-0.036947094 0.112736 1.116686 3803401
-0.035001133 0.1125712 1.1150537 5712683
-0.033060856 0.1124069 1.1134262 6567992
-0.031146038 0.1123145 1.1125109 6304820
-0.02924332 0.11225662 1.1119375 6173234
-0.027342567 0.11219881 1.111365 5975855
-0.025443772 0.11214107 1.110793 5317668
-0.023546929 0.11208338 1.1102216 5778219
-0.021652041 0.11202578 1.109651 5778476
-0.019759096 0.11196821 1.1090808 4988189
-0.017868096 0.11191071 1.1085112 4988446
-0.015979039 0.11185326 1.1079422 4264209
-0.014091918 0.11179588 1.1073738 3473922
-0.012206732 0.11173855 1.1068059 3539972
-0.010323481 0.11168129 1.1062387 5514790
-0.0084483251 0.11170563 1.1064799 5448997
-0.0065730284 0.11174148 1.106835 6830650
-0.0046965275 0.11177735 1.1071903 5054239
-0.002818821 0.11181324 1.1075457 5054239
-0.00093990884 0.11184915 1.1079015 5120032
0.00094021071 0.11188507 1.1082573 4396052
0.0028215386 0.11192103 1.1086135 3539972
0.0047040759 0.11195701 1.1089698 3342336
0.0065878252 0.11199303 1.1093266 3868937
0.0084727854 0.11202905 1.1096834 5646376
0.010358958 0.11206509 1.1100404 7684160
0.012246515 0.11210271 1.1104131 8143169
0.014147739 0.11223873 1.1117604 7749696
0.016053582 0.11237507 1.1131109 7355966
0.017964059 0.11251174 1.1144646 6699578
0.019879194 0.11264877 1.115822 5515047
0.021799002 0.11278614 1.1171826 6304306
0.023723492 0.11292383 1.1185465 3539972
0.025652694 0.11306187 1.1199138 3342336
0.027586609 0.11320022 1.1212842 3342336
0.029525269 0.11333893 1.1226583 4264466
0.031468686 0.11347798 1.1240356 4725017
0.033416878 0.11361738 1.1254164 4066830
0.035383385 0.11380062 1.1272314 3342336
0.037385825 0.1140747 1.1299462 3342336
0.039397936 0.1143501 1.1326742 3605765
0.041419782 0.11462683 1.1354153 4066573
0.043451443 0.11490493 1.1381699 4264466
0.045492981 0.11518435 1.1409377 4066573
0.047544472 0.11546515 1.1437191 3408129
0.049605988 0.1157473 1.1465139 3408129
0.051677603 0.11603085 1.1493225 3342336
0.053759396 0.11631578 1.1521449 3539972
0.055851437 0.11660212 1.1549811 4461845
0.057987362 0.11695756 1.1585019 3671558
0.06022653 0.1174911 1.1637868 3342336
0.062486228 0.11802954 1.1691202 3408386
0.064766727 0.11857293 1.1745026 6633271
0.067068316 0.11912134 1.1799349 10111048
0.069391303 0.11967485 1.1854175 9588302
0.071735978 0.12023354 1.1909515 8801099
0.07410264 0.12079746 1.1965373 10504264
0.076491602 0.12136668 1.2021756 10437700
0.078903176 0.12194127 1.2078671 9980747
-0.095904 0.12477832 1.2155398 8803138
-0.093299225 0.12405721 1.208515 5120032
-0.090724401 0.12334441 1.2015712 4066573
-0.088178985 0.12263974 1.1947066 3737351
-0.085662492 0.12194308 1.18792 4330002
-0.08317443 0.12125429 1.18121 6041648
-0.080714479 0.12057348 1.174578 6699321
-0.078309156 0.11994188 1.1684251 6896700
-0.076105177 0.11959385 1.1650348 9194315
-0.073913947 0.11924783 1.161664 7816260
-0.071735367 0.11890382 1.1583128 6765114
-0.069569319 0.1185618 1.1549809 5844012
-0.067415684 0.11822172 1.151668 5120032
-0.06527438 0.11788359 1.1483741 5581097
-0.06314528 0.11754737 1.1450988 4395795
-0.061028276 0.11721304 1.1418419 3474179
-0.058923274 0.1168806 1.1386033 3539972
-0.056830186 0.11655004 1.1353832 4922653
-0.054781612 0.11629079 1.1328577 7751238
-0.052781075 0.11611836 1.131178 9064785
-0.050786462 0.11594645 1.1295033 6896700
-0.048797745 0.11577504 1.1278335 6107184
-0.0468149 0.11560414 1.1261686 6501942
-0.044837903 0.11543375 1.1245087 7027772
-0.042866711 0.11526382 1.1228534 7224894
-0.040901326 0.11509442 1.1212032 6961722
-0.0389417 0.1149255 1.1195576 7619909
-0.036987819 0.11475708 1.1179169 6305077
-0.03503966 0.11458915 1.116281 8079175
-0.033097193 0.11442173 1.11465 9390409
-0.031184983 0.11434493 1.113902 8472905
-0.029279873 0.11428595 1.1133274 7290430
-0.027376726 0.11422703 1.1127534 6961722
-0.025475539 0.11416816 1.1121799 5580840
-0.023576314 0.11410936 1.1116071 5844012
-0.021679046 0.11405063 1.111035 6501942
-0.019783728 0.11399195 1.1104634 4527638
-0.017890356 0.11393332 1.1098922 3473922
-0.015998937 0.11387479 1.109322 3342336
-0.014109456 0.11381628 1.108752 3342336
-0.012221918 0.11375786 1.1081829 3342593
-0.010336316 0.11369947 1.1076142 3407872
-0.0084589152 0.11372542 1.1078669 3342336
-0.0065812711 0.11376197 1.108223 7619652
-0.0047024181 0.11379852 1.108579 8144968
-0.0028223582 0.11383511 1.1089355 8210504
-0.00094108854 0.11387172 1.109292 8276297
0.00094139122 0.11390834 1.1096488 6502199
0.0028250823 0.11394499 1.1100059 4066830
0.004709986 0.11398166 1.1103631 3342336
0.0065961042 0.11401837 1.1107208 3342336
0.0084834369 0.1140551 1.1110785 3869194
0.010371985 0.11409184 1.1114364 4725274
0.012261751 0.1141286 1.1117946 4988446
0.014163814 0.11425477 1.1130236 4988189
0.016071845 0.11439371 1.1143771 5317668
0.017984521 0.114533 1.115734 4922653
0.019901862 0.11467263 1.1170943 3605765
0.021823889 0.11481263 1.118458 3539972
0.023750609 0.11495295 1.119825 3408129
0.025682049 0.11509363 1.1211954 3671558
0.027618218 0.11523464 1.1225691 3934987
0.029559145 0.11537601 1.1239463 4198416
0.031504832 0.11551772 1.1253268 4396052
0.033455309 0.11565978 1.1267107 4725017
0.035412259 0.11580765 1.1281512 4856860
0.037416406 0.1160868 1.1308705 5317925
0.039430242 0.1163673 1.133603 6239284
0.041453827 0.11664914 1.1363486 6897471
0.04348724 0.11693235 1.1391076 7357508
0.045530558 0.11721697 1.1418802 5712683
0.047583841 0.11750295 1.1446661 3606022
0.049647156 0.11779032 1.1474655 3342336
0.051720608 0.11807913 1.1502789 3342336
0.053804234 0.11836932 1.1531059 4132366
0.055898134 0.11866095 1.1559469 8409939
0.058002379 0.11895403 1.1588019 6304563
0.060223877 0.11946048 1.1637355 6501942
0.062483463 0.12000792 1.1690685 3539972
0.064763837 0.12056038 1.1744503 7093822
0.067065321 0.12111796 1.179882 5975598
0.069388181 0.12168072 1.1853642 3869194
0.071732737 0.12224875 1.1908977 6370356
0.07409928 0.1228221 1.196483 7093822
0.076488122 0.12340084 1.2021209 9195343
0.078899592 0.12398507 1.2078123 9914440
0.081560247 0.12492139 1.2169335 7883310
-0.095859475 0.12678188 1.2149755 8474935
-0.093256168 0.12604955 1.2079573 7618881
-0.090682767 0.12532562 1.2010198 3935244
-0.088138752 0.12460995 1.1941614 3474179
-0.085623629 0.12390243 1.187381 3869194
-0.083136916 0.1232029 1.1806773 4264209
-0.080678366 0.12251159 1.1740524 4395795
-0.078366369 0.12201346 1.1692787 4856860
-0.076160625 0.12165917 1.1658835 7882567
-0.073967636 0.12130692 1.1625078 9784139
-0.07178732 0.12095673 1.1591518 8866378
-0.069619559 0.12060853 1.155815 9194572
-0.06746424 0.12026234 1.1524974 8341833
-0.065321252 0.11991812 1.1491987 8013896
-0.063190483 0.11957584 1.1459185 6896443
-0.061071839 0.11923549 1.1426569 4001037
-0.058965225 0.1188971 1.139414 3473922
-0.056870528 0.1185606 1.1361892 5975855
-0.054842878 0.11834516 1.1341246 8539983
-0.052840013 0.11816949 1.1324412 7291201
-0.05084309 0.11799434 1.1307627 5186082
-0.048852071 0.1178197 1.1290891 4198416
-0.046866946 0.1176456 1.1274207 3934987
-0.044887669 0.11747199 1.1257569 3803401
-0.042914227 0.11729889 1.1240981 3671558
-0.040946592 0.11712629 1.122444 3869194
-0.038984735 0.11695421 1.1207949 5910062
-0.037028637 0.11678263 1.1191506 8867920
-0.035078272 0.11661155 1.1175112 9458001
-0.033133611 0.11644098 1.1158766 10437700
-0.031224027 0.11638046 1.1152966 8734535
-0.029316509 0.11632034 1.1147205 6370356
-0.027410965 0.1162603 1.114145 5975341
-0.025507387 0.11620031 1.1135702 5449511
-0.023605773 0.11614041 1.1129961 6370099
-0.021706117 0.11608054 1.1124223 8538184
-0.019808419 0.11602074 1.1118493 6830907
-0.017912678 0.11596102 1.111277 4593431
-0.016018886 0.11590134 1.1107051 4066573
-0.014127041 0.11584174 1.1101339 3869194
-0.012237142 0.11578219 1.1095632 3737351
-0.010349185 0.1157227 1.1089932 3408129
-0.0084695341 0.1157503 1.1092576 3342336
-0.0065895342 0.11578753 1.1096144 9128265
-0.0047083246 0.11582478 1.1099714 10567487
-0.0028259039 0.11586206 1.1103287 10632766
-0.00094227132 0.11589937 1.1106862 10633023
0.00094257481 0.1159367 1.1110439 8474190
0.0028286353 0.11597405 1.1114018 5317668
0.0047159116 0.11601143 1.11176 3934987
0.0066044042 0.11604881 1.1121184 3539972
0.0084941154 0.11608624 1.1124771 3342336
0.010385047 0.1161237 1.112836 3342336
0.012277197 0.11616117 1.1131951 3342336
0.014179925 0.11627539 1.1142896 4000780
0.016090149 0.11641696 1.1156464 6765628
0.018005028 0.11655887 1.1170063 6764600
0.019924583 0.11670113 1.1183696 5383718
0.021848829 0.11684375 1.1197363 5581097
0.023777789 0.11698672 1.1211065 6041905
0.025711475 0.11713005 1.12248 6436663
0.027649902 0.11727373 1.1238569 6699835
0.029593093 0.11741776 1.1252372 7094593
0.031541064 0.11756214 1.1266209 7620680
0.033493832 0.11770689 1.128008 8409168
0.035451408 0.11785198 1.1293985 8671312
0.037447039 0.1181022 1.1317964 9261650
0.0394626 0.1183878 1.1345333 9719888
0.041487928 0.11867478 1.1372834 10046540
0.043523103 0.11896314 1.140047 9982289
0.045568191 0.11925292 1.1428239 6436406
0.047623269 0.11954413 1.1456146 3737351
0.049688406 0.11983674 1.1484188 3342336
0.051763676 0.1201308 1.1512368 4001037
0.053849149 0.12042628 1.1540685 7489094
0.055944916 0.12072323 1.1569142 10308170
0.058051039 0.12102166 1.1597741 9589587
0.060221225 0.12142968 1.1636842 5975855
0.062480692 0.12198611 1.1690166 3408129
0.064760961 0.12254766 1.1743981 3342336
0.067062326 0.12311441 1.1798294 3342336
0.069385067 0.12368643 1.1853111 3342336
0.071729496 0.12426378 1.1908439 3474179
0.07409592 0.12484656 1.1964288 3803401
0.07648465 0.12543483 1.2020663 5778219
0.078895986 0.12602866 1.2077571 4132623
0.081330262 0.12662813 1.2135019 5513990
-0.095814988 0.12878358 1.2144116 6040849
-0.093213148 0.12804005 1.2074001 5712426
-0.090641171 0.12730502 1.2004689 4856860
-0.088098556 0.12657839 1.1936169 3671558
-0.085584804 0.12586001 1.1868427 3342593
-0.083099499 0.12514985 1.180146 3671815
-0.080644093 0.12445077 1.1735537 3803144
-0.078423664 0.12408808 1.1701336 3934987
-0.076216139 0.1237275 1.1667334 6305077
-0.074021406 0.12336901 1.1633528 9720659
-0.071839347 0.12301259 1.1599919 4856860
-0.069669873 0.12265822 1.1566503 5646890
-0.067512855 0.1223059 1.1533279 6764857
-0.065368198 0.12195559 1.1500245 7816260
-0.06323576 0.12160724 1.1467396 9718346
-0.061115477 0.12126087 1.1434734 5515047
-0.059007231 0.12091646 1.1402256 3605765
-0.056915447 0.12058358 1.1370866 6172720
-0.054904275 0.12040412 1.1353943 9721173
-0.052899085 0.1202252 1.1337072 6699321
-0.050899841 0.12004679 1.1320249 4066573
-0.048906527 0.11986894 1.1303477 5120032
-0.046919104 0.11969159 1.1286753 5449254
-0.044937555 0.11951477 1.127008 5054496
-0.042961847 0.11933846 1.1253453 4791067
-0.040991962 0.11916268 1.1236877 4461588
-0.03902787 0.11898741 1.122035 4330002
-0.037069544 0.11881264 1.120387 7225665
-0.035116967 0.1186384 1.1187439 7619909
-0.033175074 0.1184824 1.1172729 9326158
-0.031263169 0.11842109 1.1166947 8931657
-0.029353244 0.11835986 1.1161172 5712683
-0.027445294 0.11829868 1.1155404 4988703
-0.025539313 0.11823756 1.114964 5515304
-0.023635302 0.11817651 1.1143883 6304563
-0.021733258 0.11811553 1.1138133 9192773
-0.019833175 0.11805462 1.1132389 9456202
-0.017935051 0.11799375 1.1126649 7686216
-0.016038882 0.11793296 1.1120917 6963264
-0.014144668 0.11787224 1.1115191 6831421
-0.012252402 0.11781156 1.1109469 6634042
-0.010362084 0.11775096 1.1103754 4066830
-0.0084801763 0.11778023 1.1106515 3342336
-0.0065978174 0.11781817 1.1110092 7290687
-0.0047142454 0.11785613 1.1113672 10047568
-0.002829459 0.11789412 1.1117254 10637649
-0.00094345701 0.11793213 1.1120838 10635593
0.00094376132 0.11797016 1.1124425 9194572
0.0028321971 0.11800821 1.1128013 7488837
0.0047218516 0.11804629 1.1131604 6239284
0.006612726 0.11808439 1.1135197 4461588
0.008504821 0.11812252 1.1138792 3342336
0.010398139 0.11816067 1.114239 3342336
0.01229268 0.11819885 1.114599 3342336
0.014196074 0.11830062 1.1155586 4000780
0.016108494 0.11844481 1.1169183 7423044
0.018025581 0.11858935 1.1182814 9652810
0.019947356 0.11873426 1.1196479 9130321
0.021873832 0.11887951 1.1210176 9326158
0.023805032 0.11902516 1.122391 9588559
0.025740968 0.11917114 1.1237676 9719117
0.027681656 0.11931749 1.1251476 9915468
0.029627124 0.1194642 1.1265311 10243405
0.031577379 0.11961128 1.127918 10636878
0.033532437 0.1197587 1.1293082 9981518
0.035492323 0.1199065 1.1307019 10568772
0.037477717 0.12012089 1.1327236 9654095
0.03949501 0.12041161 1.135465 7554373
0.041522086 0.12070373 1.1382197 5778476
0.043559022 0.12099729 1.1409879 4330259
0.045605894 0.12129227 1.1437695 3408386
0.047662765 0.12158869 1.1465647 4132366
0.049729712 0.12188655 1.1493735 5251618
0.051806815 0.12218589 1.1521962 6961979
0.053894144 0.12248669 1.1550328 8474190
0.055991776 0.12278898 1.1578833 4725274
0.058099784 0.12309276 1.1607479 3473922
0.060218565 0.1233987 1.1636329 3342336
0.062477924 0.12396414 1.1689649 3342336
0.064758077 0.12453477 1.1743459 3342336
0.067059331 0.12511069 1.1797767 3671815
0.06938196 0.12569195 1.1852579 5778476
0.07172627 0.12627864 1.1907903 5909805
0.07409256 0.12687083 1.1963745 3342336
0.076481164 0.1274686 1.2020115 3342336
0.078892373 0.12807204 1.2077018 3342336
0.081326529 0.12868121 1.2134463 5513990
-0.093170166 0.13002869 1.2068433 4000780
-0.090599611 0.12928259 1.1999185 7487809
-0.088058397 0.12854502 1.1930728 5975598
-0.085546009 0.1278158 1.1863047 4593688
-0.083062142 0.12709507 1.1796154 3671558
-0.080703273 0.12653476 1.1744149 3342336
-0.078481048 0.12616573 1.1709898 3671558
-0.07627175 0.12579885 1.1675847 5976112
-0.074075252 0.12543409 1.1641991 9392979
-0.071891464 0.12507145 1.1608334 4264466
-0.069720261 0.12471089 1.1574868 3934987
-0.067561537 0.1243524 1.1541595 3934987
-0.065415196 0.12399597 1.1508514 4132366
-0.063281097 0.12364152 1.1475617 8932171
-0.061159171 0.12328912 1.1442909 8800585
-0.059049297 0.1229387 1.1410385 4988446
-0.056979328 0.12265042 1.1383629 4856860
-0.054965813 0.12246769 1.1366669 8342604
-0.052958287 0.1222855 1.1349759 7948103
-0.050956722 0.12210385 1.1332899 5383461
-0.048961099 0.12192273 1.131609 6041391
-0.046971384 0.12174216 1.129933 8865864
-0.044987556 0.12156212 1.1282619 8866121
-0.043009575 0.12138258 1.1265956 8276040
-0.041037433 0.12120358 1.1249342 6633528
-0.039071098 0.12102511 1.1232778 4132623
-0.037110545 0.12084716 1.1216261 6304820
-0.035155751 0.12066974 1.1199795 4066830
-0.033216733 0.12052929 1.1186759 5910062
-0.031302407 0.12046684 1.1180964 9589330
-0.029390069 0.12040447 1.1175175 7553859
-0.027479703 0.12034214 1.1169389 6436663
-0.025571318 0.1202799 1.1163613 7488580
-0.023664908 0.12021774 1.1157843 6765371
-0.021760466 0.12015561 1.1152077 8800585
-0.019857993 0.12009358 1.1146319 10372678
-0.017957481 0.12003158 1.1140565 10112333
-0.016058933 0.11996967 1.1134819 9851217
-0.014162338 0.1199078 1.1129076 9720145
-0.012267701 0.11984601 1.1123341 9524565
-0.010375016 0.11978428 1.1117612 5317411
-0.0084908474 0.11981529 1.112049 3342336
-0.0066061225 0.11985394 1.1124077 4922653
-0.0047201812 0.1198926 1.1127666 5317668
-0.0028330227 0.1199313 1.1131257 4725274
-0.00094464573 0.11997 1.113485 6765114
0.00094495062 0.12000873 1.1138444 9588302
0.0028357676 0.12004749 1.1142042 10177098
0.0047278064 0.12008628 1.1145642 8997707
0.0066210683 0.12012509 1.1149244 5581097
0.0085155545 0.12016393 1.1152849 3342336
0.010411265 0.12020279 1.1156455 3342336
0.012308204 0.12024168 1.1160065 3342336
0.014212259 0.12033046 1.1168305 3737351
0.01612688 0.12047729 1.1181933 6634042
0.018046184 0.12062449 1.1195595 9130064
0.01997018 0.12077204 1.120929 9064528
0.021898892 0.12091997 1.1223019 10046283
0.023832336 0.12106826 1.1236783 8670284
0.025770528 0.12121693 1.1250582 6501942
0.027713485 0.12136595 1.1264412 5778219
0.029661231 0.12151536 1.127828 5054239
0.031613771 0.12166512 1.129218 4461845
0.033571135 0.12181527 1.1306115 3934987
0.035533335 0.12196577 1.1320084 9589587
0.03750845 0.1221429 1.1336524 6239027
0.039527476 0.12243877 1.1363984 3803401
0.041556295 0.12273604 1.1391575 3671815
0.043595005 0.12303479 1.1419303 5975341
0.045643654 0.12333497 1.1447165 9062215
0.047702327 0.12363664 1.1475164 10241092
0.049771097 0.12393978 1.1503299 10371393
0.051850032 0.12424441 1.1531574 9455431
0.053939212 0.12455054 1.1559986 6172977
0.056038711 0.12485818 1.1588539 3671558
0.058148608 0.12516734 1.1617234 3342336
0.06026898 0.12547804 1.164607 3342336
0.06247516 0.12594199 1.1689131 4330259
0.064755201 0.12652171 1.1742936 6830650
0.067056336 0.12710679 1.179724 9455688
0.069378838 0.12769727 1.1852046 9979719
0.071723036 0.12829332 1.1907367 5580840
0.074089207 0.12889493 1.1963204 3342336
0.076477684 0.12950222 1.2019569 3342336
0.078888766 0.13011524 1.2076466 3342336
0.081322789 0.1307341 1.2133905 8014618
-0.093127228 0.13201553 1.2062871 3869194
-0.090558097 0.13125835 1.1993686 5844012
-0.088018276 0.13050985 1.1925292 7421502
-0.085507251 0.12976983 1.1857672 7815746
-0.0830248 0.12903854 1.1790851 6041391
-0.080762543 0.12862183 1.1752774 4198416
-0.078538515 0.12824643 1.1718472 3671815
-0.076327436 0.12787323 1.1684371 5712683
-0.074129172 0.12750217 1.1650466 9064785
-0.071943641 0.12713328 1.1616758 4066830
-0.069770724 0.12676652 1.1583246 3605508
-0.067610301 0.12640187 1.1549926 3539972
-0.065462269 0.12603928 1.1516795 3671558
-0.063326508 0.12567876 1.1483852 8276040
-0.061202925 0.12532027 1.1451095 9717318
-0.059091426 0.12496383 1.1418526 7290944
-0.057043366 0.12472194 1.1396422 4725274
-0.055027496 0.12453591 1.1379424 4000780
-0.05301762 0.12435042 1.1362475 5186082
-0.051013734 0.1241655 1.1345578 8144197
-0.04901579 0.12398112 1.1328731 9259080
-0.047023781 0.1237973 1.1311934 10044998
-0.045037657 0.123614 1.1295185 8931143
-0.043057408 0.12343124 1.1278485 7422273
-0.041083001 0.123249 1.1261834 6633528
-0.039114419 0.12306732 1.1245233 4001037
-0.037151635 0.12288617 1.1228681 9456459
-0.03519462 0.12270556 1.1212177 4395795
-0.033258498 0.12258133 1.1200825 3539972
-0.03134175 0.12251775 1.1195016 3868937
-0.029426984 0.12245423 1.1189212 3869194
-0.027514204 0.12239077 1.1183413 3803144
-0.025603406 0.12232738 1.1177621 4132623
-0.023694586 0.12226406 1.1171836 4132623
-0.021787742 0.12220082 1.1166056 5778476
-0.019882871 0.12213764 1.1160283 7881796
-0.017979968 0.12207452 1.1154516 6961979
-0.016079031 0.12201147 1.1148754 5909805
-0.014180054 0.12194847 1.1142998 6107184
-0.012283039 0.12188555 1.1137248 6370356
-0.010387981 0.12182269 1.1131505 6896700
-0.0085015455 0.12185549 1.1134502 5186082
-0.0066144476 0.12189482 1.1138096 5844269
-0.0047261314 0.1219342 1.1141694 6172977
-0.0028365955 0.1219736 1.1145295 3342336
-0.00094583735 0.12201302 1.1148896 4066573
0.00094614318 0.12205247 1.1152501 5317411
0.0028393473 0.12209193 1.1156107 7028029
0.0047337762 0.12213143 1.1159716 9720145
0.0066294312 0.12217095 1.1163327 6041648
0.008526315 0.12221051 1.1166942 3342336
0.010424425 0.12225007 1.1170557 3342336
0.012323766 0.12228968 1.1174176 3342336
0.01422848 0.12236493 1.1181052 3342336
0.016145309 0.12251441 1.1194711 3474179
0.018066831 0.12266427 1.1208404 3342336
0.019993057 0.1228145 1.1222131 4264209
0.02192401 0.12296509 1.1235892 7488580
0.0238597 0.12311605 1.1249685 6304820
0.025800155 0.12326741 1.1263516 3342336
0.027745388 0.12341914 1.127738 3342336
0.029695416 0.12357125 1.1291279 3342336
0.031650253 0.12372372 1.1305211 3342336
0.033609919 0.12387656 1.1319177 3342336
0.03557444 0.12402981 1.1333179 4264209
0.037543822 0.12418342 1.1347215 3671558
0.03955999 0.12446924 1.1373333 3605765
0.041590571 0.12477172 1.1400971 4922653
0.043631043 0.12507565 1.1428744 6764600
0.04568148 0.12538108 1.1456652 6435892
0.047741957 0.125688 1.1484697 6107441
0.049812537 0.12599643 1.1512878 8144454
0.051893316 0.12630637 1.15412 5975341
0.053984355 0.12661785 1.1569661 4659224
0.056085724 0.12693085 1.1598262 5975598
0.058197513 0.12724541 1.1627004 7487552
0.060319796 0.12756154 1.165589 8996936
0.062472396 0.12791966 1.1688614 10110020
0.064752325 0.12850845 1.1742414 9257795
0.06705334 0.12910269 1.1796713 6698550
0.069375731 0.12970245 1.1851516 4330002
0.071719803 0.13030781 1.190683 3342336
0.074085861 0.13091885 1.1962663 3342336
0.076474205 0.13153563 1.2019022 3342336
0.07888516 0.13215826 1.2075914 3539972
-0.093084328 0.13400051 1.2057314 3868937
-0.090516627 0.13323234 1.1988194 4066573
-0.087978192 0.1324729 1.1919861 4922910
-0.085468598 0.1317222 1.1852312 6961722
-0.083060801 0.13109596 1.1795964 8931143
-0.080821894 0.13071194 1.176141 5844269
-0.078596063 0.13033018 1.1727059 3868937
-0.076383188 0.12995063 1.1692907 4330002
-0.074183173 0.12957329 1.1658953 6436406
-0.071995899 0.12919812 1.1625197 4396052
-0.069821261 0.12882514 1.1591636 4198416
-0.067659132 0.12845428 1.1558267 3539715
-0.065509409 0.12808555 1.1525089 3408129
-0.063371971 0.1277189 1.1492096 5844012
-0.061246742 0.12735434 1.1459293 8012611
-0.059133612 0.12699185 1.1426678 9061701
-0.057107538 0.12679809 1.1409243 9324359
-0.055089302 0.12660874 1.1392206 5778476
-0.053077087 0.12641998 1.137522 4000780
-0.051070865 0.12623176 1.1358285 5185825
-0.049070604 0.12604409 1.1341399 6435892
-0.047076289 0.12585701 1.1324565 7159101
-0.045087878 0.12567046 1.130778 6370099
-0.043105341 0.12548444 1.1291041 4264209
-0.041128676 0.12529899 1.1274354 3605765
-0.039157841 0.12511408 1.1257716 3606022
-0.03719281 0.1249297 1.1241126 10044741
-0.035233572 0.12474589 1.1224587 9259080
-0.033300374 0.12463854 1.1214927 7946818
-0.031381186 0.1245738 1.1209102 3408129
-0.029463993 0.12450913 1.1203283 3342336
-0.02754879 0.12444453 1.119747 3342336
-0.025635574 0.12438001 1.1191665 3342336
-0.02372434 0.12431554 1.1185864 3342336
-0.021815088 0.12425116 1.1180071 3869194
-0.019907812 0.12418682 1.1174282 5581097
-0.01800251 0.12412257 1.11685 6238770
-0.016099179 0.12405837 1.1162724 4396052
-0.014197815 0.12399425 1.1156955 3342336
-0.012298415 0.12393019 1.115119 3408129
-0.010400978 0.12386619 1.1145432 5580840
-0.0085122697 0.12390082 1.1148547 5778476
-0.006622795 0.12394088 1.1152152 5054496
-0.004732098 0.12398097 1.1155759 7093822
-0.0028401772 0.12402107 1.1159368 6633271
-0.00094703207 0.1240612 1.1162978 6107184
0.0009473387 0.12410137 1.1166593 4000780
0.0028429362 0.12414155 1.1170208 4593431
0.0047397618 0.12418176 1.1173826 9588816
0.0066378159 0.12422198 1.1177446 8866121
0.0085371016 0.12426226 1.118107 7553088
0.010437617 0.12430254 1.1184694 5515047
0.012339368 0.12434286 1.1188322 3342336
0.014244738 0.12440404 1.1193827 3342336
0.016163781 0.1245562 1.1207519 3342336
0.018087529 0.12470874 1.1221244 3342336
0.020015988 0.12486164 1.1235002 3408129
0.021949183 0.12501492 1.1248794 3342336
0.023887131 0.12516858 1.1262619 3342336
0.025829853 0.12532263 1.1276481 3342336
0.027777364 0.12547706 1.1290377 3342336
0.029729679 0.12563187 1.1304307 3342336
0.031686816 0.12578706 1.1318271 3342336
0.0336488 0.12594265 1.1332271 3342336
0.035615642 0.12609863 1.1346306 6633785
0.03758736 0.12625498 1.1360373 8669256
0.039592564 0.12650307 1.1382697 9782083
0.041624896 0.12681073 1.1410381 9780541
0.043667138 0.12711988 1.1438198 6173234
0.045719363 0.12743056 1.1466153 3803401
0.047781646 0.12774277 1.1494244 4066573
0.049854059 0.1280565 1.1522474 4988703
0.051936671 0.12837178 1.1550843 7225665
0.054029569 0.12868862 1.1579351 10174785
0.056132823 0.12900701 1.1608001 10043970
0.058246508 0.12932698 1.1636792 9717061
0.060370691 0.12964854 1.1665725 9848904
0.062505484 0.12997171 1.1694804 5383461
0.064749442 0.13049503 1.1741892 3671558
0.067050345 0.13109843 1.1796186 3342336
0.069372617 0.13170744 1.1850984 3342336
0.071716569 0.13232212 1.1906292 3342336
0.074082501 0.13294257 1.1962121 4198416
0.076470725 0.13356887 1.2018474 6633785
0.078881554 0.13420108 1.2075361 9327443
-0.093041465 0.13598368 1.2051762 3737608
-0.090475179 0.13520448 1.1982704 3671558
-0.087938137 0.13443416 1.1914434 4132623
-0.085430011 0.13367285 1.1846961 4461588
-0.083122067 0.13319559 1.1804664 8407112
-0.080881327 0.13280515 1.177006 8275526
-0.078653701 0.13241699 1.1735659 4988446
-0.076439038 0.13203107 1.1701456 4330002
-0.074237265 0.13164742 1.1667454 4725017
-0.072048239 0.13126597 1.1633648 5186082
-0.069871865 0.13088673 1.1600038 8472134
-0.067708023 0.13050967 1.156662 6238770
-0.065556608 0.13013476 1.1533393 3605765
-0.063417509 0.12976198 1.1500355 4001037
-0.061290622 0.12939131 1.1467503 4395795
-0.059198517 0.12907217 1.143922 4527638
-0.057171863 0.12887894 1.1422094 4856860
-0.055151254 0.12868626 1.1405017 4725274
-0.053136691 0.12849419 1.1387994 6041134
-0.051128127 0.12830266 1.137102 6370099
-0.049125545 0.12811172 1.1354097 5054239
-0.047128916 0.12792134 1.1337225 5251875
-0.045138203 0.12773152 1.1320401 4527638
-0.043153387 0.12754224 1.1303626 3671558
-0.041174453 0.12735353 1.1286902 3474179
-0.039201356 0.12716538 1.1270226 3474179
-0.037234087 0.12697779 1.1253601 9653067
-0.035272613 0.12679075 1.1237024 6107184
-0.03334235 0.12670094 1.1229064 9651782
-0.031420726 0.12663504 1.1223226 3473922
-0.029501097 0.12656923 1.1217391 3342593
-0.027583461 0.12650347 1.1211563 3342336
-0.02566782 0.12643778 1.1205742 3342336
-0.02375417 0.12637219 1.1199929 3342336
-0.0218425 0.12630664 1.1194119 3737351
-0.019932814 0.12624116 1.1188316 5580840
-0.01802511 0.12617576 1.118252 8143940
-0.016119376 0.12611042 1.1176729 7289916
-0.014215619 0.12604515 1.1170945 5317668
-0.012313831 0.12597996 1.1165167 4527638
-0.010414008 0.12591483 1.1159395 3408129
-0.0085230209 0.12595131 1.1162628 3342336
-0.006631162 0.12599207 1.1166241 3342336
-0.0047380785 0.12603289 1.1169858 4725274
-0.0028437679 0.1260737 1.1173476 8604491
-0.00094822975 0.12611456 1.1177096 7750724
0.00094853714 0.12615544 1.1180719 4330259
0.0028465339 0.12619634 1.1184344 3671815
0.0047457614 0.12623726 1.1187971 6830650
0.0066462224 0.12627822 1.1191602 7750210
0.0085479161 0.1263192 1.1195233 7553345
0.010450845 0.12636021 1.1198868 5515047
0.012355009 0.12640125 1.1202505 3539972
0.014261035 0.12644784 1.1206634 3342336
0.016182296 0.12660268 1.1220356 3342336
0.018108269 0.12675788 1.1234112 3342336
0.02003897 0.12691347 1.1247902 3342336
0.02197442 0.12706947 1.1261727 3342336
0.023914628 0.12722582 1.1275584 3342336
0.025859619 0.12738256 1.1289475 3408129
0.027809413 0.12753972 1.1303403 3934987
0.029764023 0.12769726 1.1317365 4461845
0.031723469 0.1278552 1.1331363 4988703
0.033687767 0.12801351 1.1345394 4000780
0.03565694 0.12817223 1.1359462 5778476
0.037630994 0.12833133 1.1373562 6764857
0.039625186 0.12854023 1.1392076 5844012
0.041659277 0.12885311 1.1419805 4395795
0.043703295 0.12916751 1.1447669 3408386
0.045757312 0.12948346 1.147567 3803401
0.047821403 0.12980095 1.1503808 4132623
0.04989564 0.13012001 1.1532085 5910062
0.051980104 0.13044064 1.1560502 9127751
0.054074865 0.13076286 1.1589059 10504778
0.056179997 0.13108665 1.1617756 6699578
0.058295574 0.13141206 1.1646595 6764857
0.060421683 0.13173908 1.1675578 9588302
0.062558398 0.13206773 1.1704705 3606022
0.064746566 0.13248143 1.174137 3342336
0.067047343 0.13309398 1.1795658 3342336
0.069369502 0.13371223 1.1850451 4922653
0.071713336 0.13433625 1.1905756 7620166
0.074079148 0.13496612 1.1961579 9982803
0.076467246 0.13560192 1.2017928 10047054
0.078877948 0.13624373 1.2074809 10118222
-0.092998631 0.13796501 1.2046214 4000780
-0.090433776 0.13717483 1.1977221 3408386
-0.087898135 0.13639365 1.1909014 3474179
-0.08543922 0.13569759 1.1848238 3934730
-0.083183423 0.13529834 1.1813378 5910062
-0.08094085 0.13490142 1.1778722 8800842
-0.078711405 0.13450684 1.1744269 7488066
-0.076494969 0.13411456 1.1710018 6436406
-0.074291423 0.13372456 1.1675966 7554373
-0.072100654 0.13333683 1.1642112 4461588
-0.069922544 0.13295132 1.1608452 6699064
-0.067756996 0.13256805 1.1574986 6304563
-0.065603882 0.13218693 1.154171 4396052
-0.063463107 0.13180798 1.1508623 4461588
-0.061334569 0.13143122 1.1475726 4330259
-0.059265368 0.13116105 1.1452137 3934987
-0.057236321 0.13096447 1.1434972 3803401
-0.055213351 0.13076846 1.1417859 3737608
-0.053196426 0.13057305 1.1400796 5646376
-0.051185519 0.1303782 1.1383784 7224637
-0.049180608 0.13018396 1.1366824 6107184
-0.047181658 0.12999028 1.1349913 7816260
-0.045188647 0.12979718 1.1333052 8143683
-0.043201543 0.12960462 1.131624 4593431
-0.04122033 0.12941267 1.1299479 3473922
-0.039244976 0.12922126 1.1282767 3408129
-0.037275452 0.12903041 1.1266103 5712426
-0.03531174 0.12884012 1.1249489 3671301
-0.033384435 0.12876853 1.1243237 10306628
-0.031460363 0.12870148 1.1237383 3474179
-0.029538292 0.1286345 1.1231534 3408129
-0.027618222 0.12856759 1.1225692 3342336
-0.02570015 0.12850076 1.1219857 3342336
-0.023784071 0.12843399 1.1214027 3342336
-0.021869984 0.12836729 1.1208204 3737608
-0.019957881 0.12830067 1.1202387 6699064
-0.018047763 0.1282341 1.1196575 9847619
-0.016139628 0.12816763 1.1190771 9977920
-0.014233468 0.12810121 1.1184971 10110020
-0.012329284 0.12803487 1.1179179 8538698
-0.01042707 0.12796858 1.1173391 3605765
-0.0085337991 0.12800699 1.1176745 3671558
-0.0066395509 0.12804848 1.1180367 3803401
-0.0047440743 0.12809001 1.1183993 3869194
-0.0028473677 0.12813155 1.118762 3342336
-0.00094943051 0.12817313 1.119125 3342336
0.00094973866 0.12821472 1.1194882 3342336
0.0028501409 0.12825634 1.1198516 3342336
0.0047517773 0.12829798 1.1202153 3342336
0.00665465 0.12833968 1.1205792 3342336
0.0085587576 0.12838136 1.1209432 4132366
0.010464104 0.12842309 1.1213076 5120032
0.01237069 0.12846486 1.1216723 5448997
0.014278515 0.12850663 1.1220371 5580583
0.016200854 0.12865382 1.1233222 6107184
0.01812906 0.12881175 1.124701 6830393
0.020062005 0.12897003 1.1260831 7553345
0.021999707 0.12912872 1.1274687 8341062
0.023942187 0.12928781 1.1288577 9062472
0.025889453 0.12944727 1.13025 9586503
0.027841536 0.12960716 1.131646 10110020
0.029798448 0.12976743 1.1330456 10633023
0.031760205 0.12992811 1.1344484 10043970
0.033726826 0.13008918 1.1358548 5646376
0.035698328 0.13025066 1.1372647 3342336
0.037674736 0.13041255 1.1386782 3342336
0.039657865 0.13058077 1.1401471 3671558
0.041693717 0.13089888 1.1429245 5778219
0.043739513 0.13121854 1.1457156 8734535
0.045795325 0.13153976 1.1485204 8604234
0.04786123 0.13186258 1.1513389 5844012
0.049937293 0.13218695 1.1541712 7159358
0.052023601 0.13251296 1.1570176 7487038
0.054120231 0.13284057 1.1598781 6107184
0.056227248 0.1331698 1.1627527 4132623
0.058344729 0.13350065 1.1656415 5317411
0.06047276 0.13383316 1.1685448 9981261
0.062611416 0.13416731 1.1714624 5054496
0.064760774 0.13450316 1.1743947 5910319
0.067044348 0.13508935 1.1795131 8539212
0.069366388 0.13571684 1.184992 10571599
0.071710095 0.13635018 1.1905218 9522252
0.074075788 0.13698947 1.1961037 8605005
0.076463766 0.13763478 1.2017381 7423301
0.078874342 0.13828617 1.2074257 9134385
-0.09295585 0.13994452 1.2040672 6698275
-0.090392418 0.13914338 1.1971743 3737351
-0.087858215 0.13835144 1.1903605 3605508
-0.08550252 0.13780995 1.1857016 3473922
-0.083244868 0.13740419 1.1822104 4330002
-0.081000462 0.13700078 1.1787397 7619138
-0.078769222 0.13659978 1.1752895 9653581
-0.076550983 0.1362011 1.1718593 9916239
-0.074345656 0.13580473 1.1684489 9064785
-0.072153129 0.13541067 1.1650585 4593431
-0.069973297 0.1350189 1.1616877 4659224
-0.067806035 0.13462937 1.1583363 3934987
-0.065651231 0.13424206 1.1550039 5712683
-0.063508771 0.13385695 1.1516905 8473419
-0.061378576 0.13347405 1.148396 7684931
-0.059332371 0.13325466 1.1465085 7027772
-0.057300933 0.1330547 1.144788 6304306
-0.055275582 0.13285534 1.1430727 4593688
-0.053256299 0.1326566 1.1413628 3473922
-0.051243041 0.13245843 1.1396577 3408386
-0.049235791 0.13226086 1.1379578 3605765
-0.04723452 0.13206387 1.1362629 5120032
-0.045239203 0.13186745 1.1345731 8012611
-0.043249801 0.13167162 1.1328881 8471877
-0.041266304 0.13147637 1.1312082 7356737
-0.039288681 0.13128169 1.1295332 4395795
-0.037316907 0.1310876 1.1278633 3474179
-0.035355154 0.13090964 1.126332 3539715
-0.033426624 0.13084136 1.1257446 9782854
-0.031500101 0.13077314 1.1251577 5449254
-0.029575584 0.130705 1.1245714 4857117
-0.02765307 0.13063692 1.1239856 4593431
-0.025732562 0.13056894 1.1234007 4330259
-0.02381405 0.130501 1.1228162 4132623
-0.021897536 0.13043314 1.1222324 3671558
-0.01998301 0.13036536 1.1216491 3737608
-0.018070476 0.13029765 1.1210666 7027772
-0.016159929 0.13023001 1.1204847 7158330
-0.014251363 0.13016245 1.1199033 7422530
-0.012344776 0.13009495 1.1193225 10305600
-0.010440166 0.13002752 1.1187425 9389381
-0.0085446052 0.13006788 1.1190897 9717318
-0.0066479612 0.1301101 1.119453 9913926
-0.0047500851 0.13015233 1.1198163 9587788
-0.0028509768 0.1301946 1.12018 3342336
-0.0009506343 0.13023691 1.120544 3342336
0.00095094327 0.13027923 1.1209081 3342336
0.002853757 0.13032158 1.1212724 3342336
0.0047578081 0.13036394 1.121637 3342336
0.0066630975 0.13040633 1.1220018 3342336
0.008569628 0.13044877 1.1223669 5844012
0.010477398 0.13049123 1.1227322 9062215
0.01238641 0.13053371 1.1230977 9716804
0.014296666 0.13057622 1.1234634 9913669
0.016219452 0.13070969 1.1246119 10110020
0.018149897 0.13087031 1.1259937 9389381
0.020085093 0.13103132 1.1273791 7815489
0.022025058 0.13119273 1.1287678 7158844
0.023969809 0.13135456 1.1301601 6370099
0.025919361 0.13151675 1.1315557 5777962
0.027873734 0.13167936 1.1329547 4988446
0.029832952 0.13184239 1.1343575 4461588
0.031797025 0.13200583 1.1357636 3934987
0.033765975 0.13216968 1.1371733 3408129
0.035739817 0.13233392 1.1385864 3342336
0.037718575 0.13249858 1.1400032 3342336
0.039702263 0.13266365 1.1414235 3737351
0.041728213 0.13294803 1.1438702 5580583
0.043775793 0.13327296 1.1466659 6041391
0.045833405 0.13359949 1.1494753 4527638
0.047901124 0.13392763 1.1522986 3671558
0.049979027 0.13425739 1.1551358 3342336
0.052067179 0.13458875 1.1579868 3342336
0.054165669 0.13492176 1.160852 3671815
0.056274574 0.13525644 1.1637315 5580840
0.058393963 0.13559276 1.1666251 8997450
0.060523912 0.13593076 1.1695333 10568001
0.062664509 0.13627045 1.1724559 10440013
0.064815834 0.13661183 1.1753932 9849675
0.06704136 0.13708457 1.1794605 9063500
0.069363274 0.13772129 1.1849388 8145739
0.071706869 0.13836396 1.1904683 6502456
0.074072428 0.13901263 1.1960495 5844269
0.07646028 0.13966744 1.2016833 4791067
-0.092913106 0.14192222 1.2035136 7684402
-0.090351082 0.14111012 1.1966269 4198416
-0.087838821 0.14034018 1.1900978 3737608
-0.08556591 0.13992544 1.1865807 3539972
-0.083306409 0.13951313 1.1830844 3671815
-0.081060171 0.13910326 1.1796086 5580840
-0.078827105 0.13869579 1.1761532 8538698
-0.076607078 0.13829069 1.1727179 8473676
-0.074399978 0.13788795 1.1693027 7554373
-0.0722057 0.13748758 1.1659074 4593431
-0.070024125 0.13708949 1.1625316 3605765
-0.06785515 0.1366937 1.1591753 3605765
-0.065698639 0.13630016 1.155838 4264209
-0.063554503 0.13590887 1.1525198 7028286
-0.061439481 0.13555695 1.1495355 8342604
-0.059399519 0.135353 1.147806 8604491
-0.057365689 0.13514967 1.1460818 8866635
-0.055337958 0.13494696 1.1443627 6370870
-0.053316303 0.13474484 1.1426487 3408386
-0.051300693 0.13454333 1.14094 3408129
-0.049291104 0.13434242 1.1392362 4001037
-0.047287505 0.1341421 1.1375375 6567992
-0.04528987 0.13394238 1.1358439 7422273
-0.043298174 0.13374324 1.1341552 7027515
-0.041312389 0.1335447 1.1324714 7159358
-0.03933249 0.13334674 1.1307927 5054496
-0.037358455 0.13314937 1.129119 3473922
-0.035399918 0.13298887 1.127758 3408129
-0.033468921 0.13291943 1.1271691 8406341
-0.031539936 0.13285004 1.1265806 9848390
-0.029612968 0.13278073 1.1259929 9979205
-0.02768801 0.1327115 1.1254058 10306885
-0.025765054 0.13264231 1.1248192 10044741
-0.023844102 0.1325732 1.1242331 9717061
-0.021925155 0.13250419 1.1236479 6239027
-0.020008203 0.13243525 1.1230632 3605765
-0.018093247 0.13236637 1.1224792 4132623
-0.016180281 0.13229759 1.1218958 4264209
-0.014269301 0.13222885 1.121313 4461845
-0.012360306 0.1321602 1.1207308 5514790
-0.010453293 0.13209161 1.1201491 5580840
-0.0085554393 0.13213401 1.1205087 5383461
-0.0066563929 0.13217694 1.1208727 5251618
-0.0047561117 0.1322199 1.121237 5120032
-0.002854595 0.1322629 1.1216017 3473922
-0.00095184112 0.13230592 1.1219665 3342336
0.00095215091 0.13234898 1.1223316 3342336
0.0028573822 0.13239203 1.1226968 3342336
0.0047638537 0.13243514 1.1230623 3342336
0.0066715674 0.13247827 1.123428 3342336
0.0085805235 0.13252142 1.123794 3605508
0.010490724 0.1325646 1.1241602 3737608
0.012402171 0.13260783 1.1245267 3671815
0.014314864 0.13265108 1.1248934 5383204
0.016238092 0.13277029 1.1259043 8145225
0.018170783 0.13293363 1.1272895 6107184
0.020108236 0.13309738 1.1286781 3408129
0.022050468 0.13326152 1.1300701 3934987
0.023997491 0.13342606 1.1314653 5778476
0.025949335 0.13359101 1.1328642 3606022
0.02790601 0.13375638 1.1342666 3342336
0.029867532 0.13392216 1.1356723 3342336
0.031833932 0.13408837 1.1370819 3342336
0.033805214 0.13425499 1.1384948 3342336
0.035781402 0.13442203 1.1399113 3342336
0.037762515 0.13458948 1.1413313 3342336
0.039748568 0.13475734 1.1427548 3408129
0.041762769 0.13500059 1.1448175 3342336
0.043812133 0.13533081 1.1476178 3342336
0.045871545 0.13566265 1.1504319 3342336
0.047941081 0.13599612 1.1532598 3342336
0.050020821 0.13633126 1.1561017 3342336
0.052110828 0.13666801 1.1589575 3342336
0.054211192 0.13700646 1.1618276 4132623
0.056321979 0.13734658 1.1647117 7291201
0.058443282 0.13768841 1.1676105 8932171
0.060575165 0.13803193 1.1705236 8407369
0.062717706 0.13837716 1.1734512 7620166
0.064870998 0.13872413 1.1763935 6634042
0.067038365 0.13907959 1.1794078 5975855
0.069360167 0.13972555 1.1848856 5844269
0.071703635 0.14037754 1.1904145 6106927
0.074069075 0.14103565 1.1959953 6830136
0.076456808 0.14169994 1.2016287 4001037
-0.092870407 0.1438981 1.2029605 8146491
-0.090309799 0.14307506 1.1960801 5712426
-0.087904185 0.14246541 1.1909834 5120289
-0.085629396 0.14204405 1.187461 4198416
-0.083368033 0.14162521 1.1839596 3803401
-0.081119969 0.14120883 1.1804787 4132623
-0.078885078 0.14079489 1.1770182 5975855
-0.076663248 0.14038335 1.1735778 6107184
-0.074454375 0.13997424 1.1701577 5581097
-0.072258346 0.13956748 1.1667573 4659224
-0.070075028 0.13916309 1.1633767 3737351
-0.067904331 0.13876101 1.1600155 3474179
-0.065746114 0.13836123 1.1566733 3605765
-0.063600302 0.13796374 1.1533504 4791067
-0.061509203 0.13766345 1.15084 5910062
-0.059466824 0.1374561 1.1491066 6107698
-0.057430591 0.13724938 1.1473784 6239541
-0.055400476 0.13704328 1.1456555 4066573
-0.05337644 0.13683778 1.1439376 3408129
-0.051358473 0.13663292 1.1422249 3408129
-0.049346536 0.13642865 1.1405174 3737608
-0.047340605 0.13622501 1.1388149 6107698
-0.045340657 0.13602197 1.1371175 6304820
-0.043346647 0.13581949 1.1354249 4527638
-0.041358575 0.13561766 1.1337376 3737608
-0.039376393 0.13541637 1.1320549 3605765
-0.037400097 0.13521573 1.1303775 3803144
-0.035444789 0.13507339 1.1291876 3408386
-0.033511322 0.13500276 1.1285971 3803401
-0.031579878 0.13493221 1.1280073 4264209
-0.029650446 0.13486171 1.1274179 4461845
-0.027723033 0.1347913 1.1268294 4725017
-0.025797628 0.13472095 1.1262412 4922653
-0.023874234 0.13465069 1.1256539 8406598
-0.021952847 0.13458049 1.1250671 8996165
-0.020033462 0.13451038 1.124481 6172977
-0.018116074 0.13444033 1.1238954 5646890
-0.016200684 0.13437039 1.1233106 7159358
-0.014287286 0.1343005 1.1227263 6436406
-0.012375876 0.13423066 1.1221426 3473922
-0.010466518 0.13416173 1.1215663 3342336
-0.0085662995 0.13420536 1.121931 3342336
-0.0066648456 0.13424903 1.1222961 6830907
-0.0047621531 0.13429272 1.1226614 3868937
-0.0028582222 0.13433644 1.1230268 3342336
-0.00095305109 0.13438021 1.1233927 3342336
0.00095336157 0.13442399 1.1237587 3342336
0.0028610169 0.1344678 1.1241249 3342336
0.0047699157 0.13451162 1.1244913 3342336
0.0066800588 0.13455547 1.1248579 3342336
0.0085914498 0.13459937 1.1252249 3342336
0.010504087 0.13464329 1.125592 4725274
0.012417972 0.13468723 1.1259594 6304563
0.014333108 0.13473122 1.126327 5185825
0.016256779 0.13483563 1.1272 3869194
0.018191719 0.1350017 1.1285883 3539972
0.02013143 0.13516818 1.12998 3671558
0.022075934 0.13533507 1.1313752 5646890
0.024025243 0.13550237 1.1327738 10244947
0.025979377 0.13567008 1.1341758 5975855
0.027938358 0.13583823 1.1355815 5778476
0.029902199 0.13600677 1.1369905 4659224
0.031870924 0.13617575 1.1384032 4988703
0.033844545 0.13634516 1.1398194 7619909
0.035823084 0.13651501 1.1412392 8473933
0.037806559 0.13668525 1.1426624 8802127
0.039794989 0.13685593 1.1440893 4856860
0.041797381 0.13705653 1.1457663 3539972
0.043848529 0.13739206 1.1485713 3737351
0.045909744 0.13772924 1.15139 4132623
0.047981106 0.13806808 1.1542226 4593431
0.050062682 0.13840859 1.1570692 5054239
0.052154548 0.13875078 1.1599299 4856603
0.054256786 0.13909467 1.1628047 3935244
0.056369472 0.13944027 1.1656939 4198416
0.058492683 0.1397876 1.1685975 5186339
0.060626496 0.14013664 1.1715155 4791067
0.062770985 0.14048745 1.174448 5449254
0.064926244 0.14083999 1.1773953 5120032
0.067092337 0.14119433 1.1803575 4198416
0.069357052 0.14172962 1.1848325 7421502
0.071700402 0.14239094 1.1903609 7816003
0.074065715 0.14305845 1.1959411 7290944
0.076453321 0.14373225 1.201574 4198416
-0.09026859 0.14503829 1.1955343 6370356
-0.087969646 0.14459379 1.1918703 6435892
-0.085692979 0.14416584 1.1883428 5383461
-0.083429746 0.14374042 1.184836 4856860
-0.08117985 0.14331751 1.1813501 5712426
-0.078943133 0.14289707 1.1778845 4856860
-0.076719508 0.14247909 1.1744391 4132623
-0.074508853 0.14206354 1.1710138 4593431
-0.072311059 0.14165042 1.1676085 6238513
-0.070126005 0.1412397 1.164223 6041134
-0.067953572 0.14083132 1.1608567 5120289
-0.065793663 0.14042528 1.1575098 3473922
-0.06364616 0.14002156 1.154182 3868937
-0.061579086 0.13977475 1.1521475 3934987
-0.059534278 0.13956396 1.1504101 3737608
-0.057495642 0.13935384 1.1486781 4001037
-0.055463124 0.13914433 1.1469511 3671558
-0.053436715 0.13893546 1.1452293 3408129
-0.051416386 0.13872723 1.143513 3408129
-0.049402095 0.1385196 1.1418015 4330002
-0.047393825 0.13831259 1.1400951 6436406
-0.045391548 0.1381062 1.1383939 5844269
-0.043395236 0.13790043 1.1366976 4593431
-0.041404862 0.13769524 1.1350063 3934987
-0.0394204 0.13749066 1.1333201 3539972
-0.037441831 0.13728671 1.1316389 6699321
-0.035489779 0.13716321 1.1306208 8867149
-0.033553835 0.13709138 1.1300288 5317925
-0.031619918 0.13701963 1.1294374 3539715
-0.029688023 0.13694797 1.1288468 5844012
-0.027758146 0.13687637 1.1282566 5251875
-0.025830286 0.13680485 1.127667 6041648
-0.023904443 0.13673341 1.1270782 7882567
-0.02198061 0.13666205 1.1264899 9194315
-0.020058781 0.13659075 1.1259022 8866635
-0.01813896 0.13651954 1.1253152 7883081
-0.016221138 0.1364484 1.1247288 8932685
-0.014305316 0.13637735 1.1241431 9261393
-0.012391486 0.13630635 1.1235579 4132623
-0.010479817 0.13623762 1.1229914 3342336
-0.0085771875 0.13628198 1.1233571 3342336
-0.0066733202 0.1363264 1.1237231 9260365
-0.00476821 0.13637081 1.1240892 7159615
-0.002861859 0.13641529 1.1244558 6370356
-0.00095426402 0.13645975 1.1248224 6567735
0.00095457531 0.13650426 1.1251893 6633528
0.0028646607 0.13654882 1.1255566 5185825
0.0047759921 0.13659339 1.1259239 3737351
0.0066885725 0.13663799 1.1262915 3342336
0.0086024022 0.13668261 1.1266594 3342336
0.010517482 0.13672726 1.1270274 4461588
0.012433813 0.13677195 1.1273957 6041648
0.014351398 0.13681667 1.1277643 5581097
0.016275506 0.13690573 1.1284986 6831164
0.0182127 0.13707453 1.12989 8801613
0.020154679 0.13724376 1.131285 7619909
0.022101458 0.13741341 1.1326833 6766142
0.024053056 0.13758348 1.1340852 10045769
0.026009493 0.13775398 1.1354905 10504778
0.027970782 0.13792489 1.1368994 10636364
0.029936947 0.13809624 1.1383117 7619395
0.031908002 0.13826801 1.1397276 6238770
0.033883967 0.13844021 1.141147 8998478
0.035864864 0.13861285 1.1425701 8670284
0.037850704 0.13878591 1.1439967 8078918
0.039841522 0.13895945 1.1454271 7685702
0.041837309 0.13913336 1.1468607 5975341
0.043884989 0.13945675 1.1495262 6501171
0.045948014 0.13979928 1.1523497 7224123
0.048021197 0.14014348 1.155187 7749439
0.050104614 0.14048941 1.1580384 7684417
0.052198339 0.14083703 1.1609038 6830650
0.054302465 0.1411864 1.1637837 4066573
0.056417041 0.14153749 1.1666776 3408129
0.058542166 0.14189033 1.1695861 3342336
0.060677908 0.14224494 1.172509 3342336
0.062824361 0.14260133 1.1754466 7027258
0.064981595 0.14295951 1.1783991 7881796
0.067149676 0.14331946 1.1813662 5448997
0.069353938 0.14373353 1.1847793 7290944
0.071697168 0.14440416 1.1903073 5910062
0.07406237 0.14508107 1.195887 5909805
0.076449841 0.14576437 1.2015193 9922115
-0.090327337 0.14716251 1.1963124 6370356
-0.088035204 0.14672534 1.1927586 6238770
-0.08575666 0.14629076 1.1892258 5515304
-0.083491564 0.14585875 1.1857139 5054239
-0.081239805 0.14542928 1.1822226 6501942
-0.079001278 0.14500234 1.1787519 4988446
-0.076775849 0.14457789 1.1753016 3605765
-0.074563414 0.14415593 1.1718713 4461588
-0.072363846 0.14373641 1.168461 6238770
-0.070177048 0.14331932 1.1650704 6830393
-0.068002902 0.14290465 1.1616994 6633271
-0.065841287 0.14249234 1.1583476 3474179
-0.063702546 0.14210568 1.1552044 4659481
-0.061649125 0.14189085 1.153458 6501685
-0.059601892 0.14167663 1.1517166 6238256
-0.057560835 0.14146307 1.1499805 5843755
-0.055525925 0.14125016 1.1482497 5515047
-0.053497132 0.1410379 1.1465242 5185825
-0.051474426 0.14082626 1.1448038 4791067
-0.049457777 0.14061525 1.1430885 5515047
-0.047447167 0.14040488 1.1413783 8078918
-0.045442563 0.14019513 1.1396732 8209990
-0.043443929 0.13998599 1.1379731 8209990
-0.041451253 0.13977748 1.136278 7224894
-0.039464504 0.13956958 1.134588 4988446
-0.037483655 0.13936231 1.132903 5778219
-0.035534881 0.13925831 1.1320577 8145739
-0.033596456 0.13918532 1.1314642 6765114
-0.031660058 0.13911238 1.1308713 5778219
-0.029725691 0.13903953 1.1302791 8013125
-0.02779335 0.13896674 1.1296874 6962236
-0.025863029 0.13889404 1.1290964 7817031
-0.023934726 0.13882141 1.1285059 7948360
-0.022008438 0.13874885 1.1279161 7422273
-0.020084167 0.13867639 1.1273271 8538441
-0.018161902 0.138604 1.1267385 8145482
-0.016241645 0.13853168 1.1261507 7423044
-0.014323391 0.13845944 1.1255635 8671055
-0.012407136 0.13838728 1.1249769 4725274
-0.010493151 0.13831881 1.1244202 3407872
-0.0085881045 0.13836391 1.1247869 3342336
-0.0066818153 0.13840903 1.1251537 8078404
-0.0047742827 0.1384542 1.1255208 9587531
-0.0028655047 0.13849939 1.1258882 9654352
-0.00095548015 0.13854462 1.1262559 9720145
0.0009557922 0.13858987 1.1266237 10178640
0.0028683133 0.13863514 1.1269917 8276297
0.0047820853 0.13868047 1.1273602 5646633
0.0066971076 0.1387258 1.1277287 4659481
0.0086133825 0.13877116 1.1280975 3737608
0.010530911 0.13881655 1.1284665 3934987
0.012449695 0.13886198 1.1288358 5515047
