# .PCD v0.7 - Point Cloud Data file format
VERSION 0.7
FIELDS x y z
SIZE 4 4 4
TYPE F F F
COUNT 1 1 1
WIDTH 1272
HEIGHT 1
VIEWPOINT 0 0 0 1 0 0 0
POINTS 1272
DATA ascii
-0.071724661 -0.15605837 -0.023571372
-0.074147172 -0.16192657 -0.02086246
-0.076675072 -0.16899461 -0.017599046
-0.079990059 -0.18670088 -0.0094184279
0.10334767 -0.14556473 -0.030315548
0.10125768 -0.14464921 -0.030740619
0.099171236 -0.14373499 -0.031165034
0.097212441 -0.14419562 -0.030956507
0.095276535 -0.144934 -0.030619979
0.093337961 -0.14567322 -0.030283034
0.091404982 -0.1465109 -0.029900879
0.089535132 -0.14814717 -0.029150933
0.087659597 -0.14978856 -0.028398693
0.08577837 -0.15143484 -0.027644217
0.083687544 -0.15045065 -0.028100878
0.081276283 -0.14517349 -0.030534148
0.078888461 -0.13994771 -0.032943785
0.076523706 -0.13477236 -0.035330117
0.074181624 -0.129646 -0.037693918
0.071861796 -0.12456638 -0.040036142
0.069564082 -0.11953515 -0.042356044
0.067381501 -0.11600238 -0.043985963
0.065267533 -0.1133576 -0.045207053
0.063164219 -0.1107263 -0.046421945
0.061071485 -0.10810798 -0.047630787
0.058989238 -0.10550302 -0.048833489
0.056917462 -0.10291189 -0.050029784
0.05485601 -0.10033375 -0.051220179
0.052804809 -0.097768366 -0.052404612
0.050763793 -0.095215738 -0.053583145
0.048732888 -0.092675865 -0.054755777
0.046734266 -0.09063524 -0.055698603
0.044776335 -0.089348972 -0.056294084
0.042823333 -0.088065922 -0.056888044
0.040875237 -0.086786211 -0.057480514
0.038932029 -0.085509598 -0.058071524
0.036993697 -0.084236324 -0.058661044
0.035060216 -0.082966149 -0.059249073
0.033131566 -0.081699073 -0.059835672
0.03120774 -0.080435455 -0.060420692
0.029288707 -0.079174697 -0.06100437
0.027374458 -0.077917159 -0.061586529
0.025475148 -0.077065527 -0.061981857
0.023590839 -0.076719224 -0.062144578
0.021707833 -0.076373279 -0.062307119
0.019826123 -0.076027453 -0.062469542
0.017945711 -0.075681984 -0.062631875
0.016066592 -0.075336754 -0.06279406
0.014188766 -0.074991643 -0.062956154
0.012312235 -0.074647009 -0.0631181
0.010436991 -0.074302375 -0.063280016
0.0085630389 -0.07395798 -0.063441783
0.0066903741 -0.073614061 -0.063603401
0.0048199673 -0.073472202 -0.063671947
0.0029519501 -0.073959291 -0.063451052
0.0010821267 -0.074446738 -0.063229918
-0.00078950473 -0.074934781 -0.063008517
-0.0026629469 -0.075423181 -0.062786996
-0.0045382017 -0.075911939 -0.062565267
-0.006415274 -0.076401412 -0.06234327
-0.0082941642 -0.076891124 -0.062121093
-0.010174875 -0.077381432 -0.061898708
-0.012057411 -0.077872217 -0.061676055
-0.013941772 -0.078363478 -0.061453223
-0.015828345 -0.078879535 -0.061218977
-0.017732684 -0.080301225 -0.060567945
-0.019642381 -0.081726611 -0.059915125
-0.02155746 -0.083156049 -0.059260488
-0.023477944 -0.08458966 -0.058603972
-0.025403854 -0.086027086 -0.057945669
-0.027335212 -0.087468565 -0.057285517
-0.029272048 -0.088914335 -0.056623429
-0.031214375 -0.09036392 -0.055959523
-0.033162232 -0.091818035 -0.055293649
-0.035115626 -0.093275964 -0.054625958
-0.037076347 -0.094786823 -0.053933918
-0.039090563 -0.097558796 -0.052661449
-0.041115679 -0.10034579 -0.051382154
-0.043151781 -0.1031478 -0.050095916
-0.04519897 -0.10596508 -0.048802704
-0.047257368 -0.10879868 -0.047501981
-0.049327046 -0.1116479 -0.046194077
-0.051408086 -0.11451286 -0.04487896
-0.053500574 -0.11739367 -0.043556631
-0.055604603 -0.12028998 -0.04222706
-0.057720296 -0.12320274 -0.040890038
-0.059966296 -0.12822777 -0.038580924
-0.062262591 -0.13379389 -0.036022812
-0.064583138 -0.1394189 -0.033437669
-0.066928305 -0.14510339 -0.030825138
-0.069298476 -0.15084881 -0.028184682
-0.071694098 -0.15665573 -0.025515914
-0.074115545 -0.16252536 -0.022818327
-0.076563202 -0.16845816 -0.020091712
-0.079485007 -0.18071872 -0.014453232
0.099551611 -0.14882821 -0.031020969
0.097460501 -0.14790803 -0.031446308
0.095455773 -0.14792603 -0.031441569
0.09351375 -0.14866871 -0.031104565
0.091569051 -0.14941245 -0.030767143
0.089621693 -0.15015763 -0.030429065
0.087733641 -0.15166885 -0.029739857
0.085851006 -0.15331942 -0.028986722
0.083683066 -0.15135771 -0.029889524
0.081272066 -0.14607674 -0.032313794
0.078884475 -0.14084703 -0.03471455
0.076519951 -0.13566774 -0.037092149
0.074178025 -0.13053662 -0.039447695
0.071858428 -0.12545305 -0.041781306
0.069567196 -0.12051278 -0.044049323
0.067440592 -0.11784762 -0.045274317
0.065324724 -0.11519617 -0.046493113
0.063219517 -0.11255783 -0.047705829
0.061124928 -0.10993296 -0.048912406
0.059040841 -0.10732132 -0.050112844
0.056967225 -0.10472351 -0.051306963
0.054903965 -0.10213858 -0.052495062
0.052850973 -0.099566638 -0.05367732
0.050808184 -0.097007453 -0.054853648
0.048775509 -0.094461024 -0.056024164
0.04679095 -0.092760265 -0.056807011
0.044830706 -0.091469824 -0.057401776
0.042875402 -0.090182841 -0.057995021
0.040925007 -0.088898838 -0.058586836
0.038979523 -0.087618172 -0.059177101
0.037038919 -0.086340725 -0.059765905
0.03510318 -0.085066497 -0.06035319
0.033172287 -0.083795488 -0.060939014
0.031246219 -0.082527578 -0.061523438
0.02932496 -0.081262887 -0.062106371
0.027408496 -0.080001414 -0.062687814
0.025510047 -0.079267561 -0.063027442
0.02362337 -0.078919947 -0.063189983
0.021737996 -0.07857281 -0.063352376
0.019853925 -0.078225791 -0.06351465
0.017971151 -0.077879131 -0.063676834
0.016089676 -0.077532589 -0.063838899
0.014209497 -0.077186525 -0.064000815
0.012330615 -0.07684046 -0.064162612
0.010453024 -0.076494753 -0.064324349
0.0085767265 -0.076149285 -0.064485967
0.0067017213 -0.075804055 -0.064647436
0.0048289113 -0.075647414 -0.064722478
0.0029585944 -0.076136291 -0.064501703
0.001086466 -0.076625407 -0.064280838
-0.00078747451 -0.07711488 -0.064059764
-0.0026632305 -0.077605069 -0.063838422
-0.0045408038 -0.078095615 -0.063616872
-0.0064201984 -0.078586638 -0.063395143
-0.0083014164 -0.079078138 -0.063173175
-0.010184458 -0.079569995 -0.062951058
-0.01206933 -0.080062449 -0.062728673
-0.013956033 -0.080555379 -0.06250605
-0.015844567 -0.081048787 -0.062283248
-0.017748954 -0.082343996 -0.061693013
-0.01966076 -0.083774149 -0.061040998
-0.021577952 -0.085207999 -0.060387254
-0.023500562 -0.086645901 -0.059731632
-0.025428608 -0.088087857 -0.059074223
-0.027362121 -0.089533865 -0.058414876
-0.02930112 -0.090984166 -0.057753682
-0.031245625 -0.0924384 -0.05709064
-0.033195663 -0.093896806 -0.056425691
-0.035151258 -0.095359385 -0.055758864
-0.037112433 -0.096826255 -0.0550901
-0.039115176 -0.099245131 -0.053985059
-0.041141789 -0.10203856 -0.052708477
-0.043179411 -0.10484713 -0.05142495
-0.045228139 -0.1076712 -0.050134361
-0.047288056 -0.11051065 -0.048836708
-0.049359296 -0.11336666 -0.047531545
-0.051441923 -0.11623842 -0.04621917
-0.053536005 -0.11912566 -0.044899642
-0.055641659 -0.12202913 -0.043572783
-0.057758979 -0.12494856 -0.042238533
-0.059940908 -0.12881964 -0.040468425
-0.062236212 -0.13438672 -0.03792116
-0.064555749 -0.14001292 -0.035346985
-0.066899888 -0.14569849 -0.03274554
-0.069269016 -0.15144485 -0.03011632
-0.071663551 -0.15725261 -0.027458996
-0.074083917 -0.16312331 -0.024772882
-0.076530486 -0.16905743 -0.022057772
-0.079003699 -0.17505568 -0.019313216
0.097835436 -0.15303177 -0.031303048
0.095739603 -0.15210527 -0.03172943
0.093690194 -0.1516754 -0.031929106
0.091742009 -0.15242261 -0.031591594
0.089791141 -0.15317076 -0.031253636
0.087837584 -0.15392011 -0.030915201
0.085923754 -0.15520686 -0.030331492
0.083678603 -0.15226454 -0.031677783
0.081267834 -0.14697963 -0.034093171
0.078880489 -0.14174598 -0.036485076
0.076516189 -0.13656288 -0.038853854
0.074174434 -0.13142687 -0.041201144
0.071855068 -0.12633973 -0.043526143
0.069628306 -0.12236792 -0.045342058
0.067499772 -0.11969596 -0.046564817
0.065381996 -0.11703748 -0.047781408
0.063274913 -0.11439234 -0.048991859
0.06117845 -0.1117608 -0.050196111
0.059092522 -0.10914248 -0.051394314
0.057017073 -0.10653788 -0.052586228
0.054952003 -0.10394663 -0.053772092
0.052897211 -0.10136789 -0.054952145
0.050852645 -0.098802269 -0.056126207
0.048818208 -0.096249163 -0.057294548
0.046847768 -0.094890296 -0.057917982
0.044885203 -0.093595684 -0.058512002
0.042927586 -0.092304409 -0.059104592
0.040974896 -0.091016352 -0.059695631
0.039027121 -0.089731514 -0.060285211
0.037084244 -0.088450015 -0.0608733
0.03514624 -0.087171733 -0.061459839
0.03321309 -0.085896432 -0.062045038
0.031284787 -0.084624588 -0.062628627
0.029361293 -0.083355844 -0.063210845
0.027442614 -0.082090318 -0.063791573
0.025545033 -0.081474841 -0.064075679
0.023655981 -0.081126153 -0.064238012
0.021768233 -0.080777705 -0.064400315
0.019881792 -0.080429614 -0.06456241
0.017996654 -0.080081642 -0.064724416
0.016112816 -0.079734027 -0.064886332
0.014230276 -0.079386652 -0.065048099
0.012349039 -0.079039395 -0.065209746
0.010469095 -0.078692496 -0.065371305
0.0085904496 -0.078345954 -0.065532714
0.0067130961 -0.077999413 -0.065694094
0.0048378767 -0.07782799 -0.065775603
0.0029652545 -0.078318536 -0.065555036
0.001090816 -0.078809202 -0.06533438
-0.00078543945 -0.079300702 -0.065113485
-0.0026635146 -0.079792321 -0.064892441
-0.0045434115 -0.080284536 -0.064671159
-0.0064251348 -0.080777228 -0.064449608
-0.0083086854 -0.081270397 -0.064227939
-0.010194065 -0.081764042 -0.064006031
-0.012081278 -0.082258165 -0.063783884
-0.013970328 -0.082752764 -0.063561529
-0.015861213 -0.083247721 -0.063338935
-0.017765261 -0.084391296 -0.062820554
-0.019679174 -0.085825741 -0.062169433
-0.021598488 -0.08726424 -0.061516464
-0.023523232 -0.088706791 -0.060861737
-0.025453424 -0.090153158 -0.060205191
-0.027389087 -0.091603696 -0.059546798
-0.029330257 -0.093058527 -0.058886409
-0.031276941 -0.094517291 -0.058224261
-0.033229172 -0.095980227 -0.057560235
-0.035186976 -0.097447574 -0.056894213
-0.037150364 -0.098918855 -0.056226373
-0.039139811 -0.10093373 -0.055310607
-0.041167937 -0.10373372 -0.054036677
-0.043207079 -0.10654896 -0.052755833
-0.045257352 -0.10937971 -0.051467955
-0.047318812 -0.11222571 -0.050173074
-0.049391598 -0.11508781 -0.048870921
-0.051475804 -0.11796623 -0.047561318
-0.053571496 -0.12086064 -0.046244472
-0.055678766 -0.12377077 -0.044920444
-0.05779773 -0.12669736 -0.043588907
-0.059928466 -0.12964004 -0.042250097
-0.062209863 -0.13497931 -0.039818048
-0.064528383 -0.14060634 -0.0372549
-0.066871494 -0.14629298 -0.034664541
-0.069239572 -0.1520403 -0.032046556
-0.071633048 -0.15784925 -0.029400498
-0.074052304 -0.16372067 -0.026726007
-0.076497771 -0.16965574 -0.0240224
-0.078969881 -0.17565554 -0.021289468
-0.081828386 -0.18663257 -0.016286373
0.096109077 -0.15726036 -0.031586796
0.094008535 -0.15632755 -0.032014132
0.0919156 -0.15544385 -0.032419175
0.089961238 -0.15619558 -0.032081127
0.088004157 -0.15694839 -0.031742662
0.086044386 -0.15770203 -0.031403691
0.083674125 -0.15317124 -0.033465713
0.081263617 -0.14788252 -0.035872102
0.078876503 -0.14264494 -0.038255155
0.076512396 -0.13745755 -0.040615469
0.07417085 -0.13231725 -0.042954236
0.071851708 -0.12722629 -0.045270681
0.069689512 -0.12422627 -0.046636969
0.067559049 -0.1215474 -0.047857463
0.065439366 -0.11888212 -0.049071759
0.063330397 -0.11623019 -0.050279945
0.061232064 -0.11359161 -0.051482022
0.059144285 -0.11096662 -0.052677929
0.057067011 -0.10835546 -0.053867549
0.055000119 -0.10575742 -0.055051208
0.052943528 -0.10317212 -0.056228995
0.050897174 -0.10059983 -0.057400942
0.048874594 -0.098327219 -0.058436692
0.046904717 -0.097025096 -0.059031487
0.04493982 -0.095726311 -0.059624851
0.042979889 -0.094430864 -0.060216665
0.041024894 -0.093138635 -0.060807049
0.039074831 -0.091849744 -0.061395824
0.037129678 -0.090564072 -0.061983168
0.035189398 -0.089281619 -0.062569022
0.033253994 -0.088002384 -0.063153446
0.031323437 -0.086726367 -0.063736379
0.029397711 -0.08545357 -0.064317882
0.027476802 -0.084183872 -0.064897865
0.025580112 -0.083687842 -0.065126449
0.023688674 -0.083337963 -0.065288723
0.021798549 -0.082988322 -0.065450817
0.019909734 -0.082639039 -0.065612763
0.018022222 -0.082289875 -0.06577462
0.016136015 -0.081940949 -0.065936357
0.01425111 -0.081592381 -0.066097975
0.012367509 -0.081244051 -0.066259444
0.010485207 -0.080895841 -0.066420913
0.0086042052 -0.080547988 -0.066582143
0.0067244996 -0.080200374 -0.066743344
0.0048468644 -0.080013812 -0.06683135
0.0029719309 -0.080506027 -0.066611022
0.0010951769 -0.080998719 -0.066390514
-0.00078339921 -0.081491649 -0.066169918
-0.0026637996 -0.081985056 -0.065949082
-0.0045460262 -0.08247894 -0.065728039
-0.006430083 -0.082973301 -0.065506786
-0.0083159721 -0.083468139 -0.065285295
-0.010203695 -0.083963335 -0.065063626
-0.012093257 -0.084459245 -0.064841688
-0.013984658 -0.084955513 -0.064619601
-0.015877903 -0.085452378 -0.064397216
-0.017781604 -0.086443126 -0.063950539
-0.019697625 -0.087881982 -0.063300341
-0.021619068 -0.089325011 -0.062648207
-0.023545947 -0.090771973 -0.061994374
-0.02547829 -0.092223108 -0.061338663
-0.027416114 -0.093678057 -0.060681164
-0.029359456 -0.095137417 -0.060021698
-0.031308327 -0.096600831 -0.059360385
-0.033262759 -0.098068416 -0.058697224
-0.035222769 -0.099540174 -0.058032125
-0.037188381 -0.10101622 -0.057365179
-0.039164487 -0.10262483 -0.056637973
-0.041194119 -0.10543138 -0.055366755
-0.043234799 -0.1082533 -0.054088563
-0.0452866 -0.1110906 -0.052803457
-0.047349621 -0.11394328 -0.051511317
-0.049423959 -0.11681181 -0.050212085
-0.051509731 -0.11969656 -0.048905402
-0.053607032 -0.12259775 -0.047591329
-0.05571593 -0.12551504 -0.046269983
-0.057836525 -0.12844831 -0.044941306
-0.059968919 -0.13139802 -0.043605268
-0.062183522 -0.1355713 -0.041713595
-0.064501047 -0.14119941 -0.039161325
-0.06684313 -0.146887 -0.036582053
-0.069210157 -0.1526354 -0.033975333
-0.071602553 -0.15844518 -0.031340629
-0.074020728 -0.16431779 -0.028677523
-0.076465085 -0.17025369 -0.025985599
-0.078936048 -0.17625433 -0.023264408
-0.081434064 -0.18232077 -0.020513415
0.094416596 -0.16202539 -0.031640977
0.092267171 -0.16057497 -0.032300532
0.090165488 -0.15963727 -0.032728195
0.088171348 -0.15998775 -0.032573223
0.086103678 -0.15942281 -0.032832235
0.08366967 -0.15407795 -0.035253316
0.081259392 -0.14878517 -0.037650824
0.078872509 -0.14354366 -0.040025026
0.076508582 -0.13835138 -0.042376935
0.074167266 -0.13320738 -0.04470703
0.071894117 -0.12878758 -0.046709567
0.069750816 -0.12608784 -0.047934026
0.06761843 -0.12340194 -0.049152255
0.06549684 -0.12072963 -0.050364286
0.063385978 -0.1180709 -0.051570177
0.061285764 -0.11542553 -0.052769989
0.059196133 -0.11279386 -0.053963631
0.057117026 -0.11017603 -0.055150956
0.055048309 -0.10757118 -0.056332409
0.052989922 -0.10497946 -0.057507932
0.050941776 -0.10240036 -0.058677673
0.048934016 -0.1004712 -0.059553504
0.046961792 -0.099164784 -0.060147643
0.04499457 -0.097861946 -0.060740232
0.043032318 -0.096562207 -0.061331302
0.041075017 -0.095265925 -0.061920881
0.039122652 -0.093972862 -0.062509
0.037175208 -0.092683017 -0.063095629
0.035232656 -0.091396391 -0.063680768
0.033294987 -0.090113103 -0.064264417
0.03136218 -0.088832915 -0.064846635
0.02943421 -0.087555945 -0.065427423
0.027511073 -0.086282313 -0.06600666
0.025615273 -0.085906446 -0.066179961
0.023721449 -0.085555136 -0.066342026
0.021828936 -0.085204303 -0.066504031
0.019937739 -0.084853709 -0.066665828
0.018047852 -0.084503353 -0.066827506
0.01615927 -0.084153473 -0.066989034
0.014271996 -0.083803713 -0.067150474
0.012386026 -0.083454072 -0.067311853
0.01050136 -0.083104789 -0.067473084
0.0086179953 -0.082755625 -0.067634225
0.0067359325 -0.082406819 -0.067795187
0.0048558749 -0.082205236 -0.067889661
0.0029786241 -0.082699239 -0.067669541
0.0010995484 -0.0831936 -0.067449272
-0.00078135397 -0.08368808 -0.067228913
-0.0026640852 -0.084183156 -0.067008346
-0.0045486474 -0.084678829 -0.066787511
-0.0064350441 -0.085174739 -0.066566497
-0.0083232773 -0.085671365 -0.066345274
-0.01021335 -0.086168468 -0.066123784
-0.012105266 -0.086665928 -0.065902144
-0.013999024 -0.087163866 -0.065680265
-0.015894631 -0.08766228 -0.065458149
-0.017797982 -0.088499367 -0.065082997
-0.019716121 -0.089942634 -0.064433694
-0.021639692 -0.091390193 -0.063782454
-0.023568718 -0.092841923 -0.063129395
-0.025503211 -0.094297469 -0.062474608
-0.027443206 -0.095757186 -0.061817944
-0.029388716 -0.097220838 -0.061159492
-0.031339783 -0.09868902 -0.060499012
-0.033296414 -0.10016102 -0.059836775
-0.03525864 -0.10163754 -0.059172571
-0.03722648 -0.103118 -0.058506548
-0.039199967 -0.10460287 -0.057838529
-0.041220345 -0.10713142 -0.05669871
-0.043262545 -0.1099599 -0.05542326
-0.045315895 -0.112804 -0.054140836
-0.047380473 -0.11566335 -0.052851468
-0.049456384 -0.11853868 -0.051554948
-0.05154372 -0.12142962 -0.050251335
-0.053642623 -0.12433749 -0.048940092
-0.055753142 -0.12726158 -0.047621548
-0.05787538 -0.130202 -0.046295702
-0.060009442 -0.13315874 -0.044962376
-0.062157206 -0.13616306 -0.043607682
-0.064473718 -0.14179212 -0.041066349
-0.066814773 -0.14748067 -0.038498163
-0.069180757 -0.15322989 -0.035902619
-0.071572095 -0.15904075 -0.03327924
-0.073989168 -0.16491419 -0.030627638
-0.076432414 -0.17085117 -0.027947307
-0.078902245 -0.17685264 -0.025237799
-0.081399113 -0.18292016 -0.022498608
0.096307851 -0.18492454 -0.023540854
0.093546227 -0.17670077 -0.027247667
0.090515405 -0.16484767 -0.032588691
0.088408984 -0.16390342 -0.033017367
0.086098976 -0.16033334 -0.03462851
0.0836652 -0.1549843 -0.037040621
0.08125516 -0.14968759 -0.039429158
0.078868531 -0.14444226 -0.041794538
0.076504767 -0.13924533 -0.044138074
0.074163668 -0.13409728 -0.046459556
0.071957476 -0.13065892 -0.048011154
0.069812238 -0.1279524 -0.049233228
0.067677915 -0.12525958 -0.050449163
0.06555441 -0.12258035 -0.051658928
0.063441642 -0.11991459 -0.052862614
0.061339553 -0.11726242 -0.054060161
0.059248079 -0.1146242 -0.05525142
0.05716712 -0.11199957 -0.056436539
0.055096585 -0.10938805 -0.057615727
0.053036384 -0.10678941 -0.058789045
0.050986458 -0.104204 -0.059956461
0.04899358 -0.10262018 -0.060672879
0.047019005 -0.1013096 -0.061266303
0.04504944 -0.10000247 -0.061858177
0.043084864 -0.098698556 -0.062448502
0.041125249 -0.097397983 -0.063037336
0.039170582 -0.096100748 -0.06362474
0.037220843 -0.094806731 -0.064210624
0.035276014 -0.093516052 -0.064795017
0.033336077 -0.092228591 -0.065377951
0.031401008 -0.090944231 -0.065959454
0.029470799 -0.089663327 -0.066539407
0.02754806 -0.088483155 -0.06707406
0.025650525 -0.088130534 -0.067236066
0.023754304 -0.087778032 -0.067398041
0.021859406 -0.087426007 -0.067559808
0.01996582 -0.08707422 -0.067721426
0.018073548 -0.086722791 -0.067882955
0.016182587 -0.086371481 -0.068044364
0.014292932 -0.08602041 -0.068205684
0.012404589 -0.085669696 -0.068366855
0.010517552 -0.085319221 -0.068527937
0.0086318208 -0.084968865 -0.068688869
0.0067473929 -0.084618747 -0.068849742
0.0048649074 -0.084402025 -0.068950623
0.0029853338 -0.084897697 -0.068730742
0.0011039306 -0.085393608 -0.068510771
-0.00077930366 -0.085889995 -0.068290591
-0.0026643714 -0.086386859 -0.068070203
-0.0045512752 -0.086884081 -0.067849636
-0.0064400169 -0.08738178 -0.06762889
-0.0083306013 -0.087880075 -0.067407846
-0.010223027 -0.088378727 -0.067186713
-0.012117302 -0.088877857 -0.066965282
-0.014013427 -0.089377701 -0.066743582
-0.0159114 -0.089877784 -0.066521734
-0.017814392 -0.090560019 -0.066217959
-0.019734656 -0.092007935 -0.06556949
-0.02166036 -0.093460023 -0.064919204
-0.02359153 -0.094916165 -0.064267039
-0.025528187 -0.096376359 -0.063613087
-0.027470347 -0.097840488 -0.062957376
-0.029418046 -0.099308908 -0.062299728
-0.031371307 -0.10078162 -0.061640203
-0.033330142 -0.10225838 -0.06097883
-0.035294589 -0.10373932 -0.060315579
-0.037264667 -0.10522479 -0.059650332
-0.039240398 -0.10671419 -0.058983266
-0.041246604 -0.10883385 -0.058032572
-0.043290328 -0.11166912 -0.056759864
-0.045345224 -0.11451966 -0.055480182
-0.047411371 -0.11738604 -0.054193467
-0.049488857 -0.12026793 -0.052899808
-0.051577792 -0.12316579 -0.051598907
-0.053678263 -0.12607986 -0.050290823
-0.055790413 -0.12901086 -0.04897505
-0.057914298 -0.13195819 -0.047651976
-0.060050018 -0.13492209 -0.046321481
-0.062197667 -0.13790244 -0.044983625
-0.064446412 -0.14238423 -0.042970002
-0.066786446 -0.14807397 -0.040412813
-0.069151387 -0.15382427 -0.037828386
-0.071541645 -0.15963596 -0.035216391
-0.073957637 -0.16551024 -0.032576233
-0.076399766 -0.17144817 -0.029907465
-0.078868479 -0.17745072 -0.02720964
-0.081364185 -0.18351895 -0.024482369
0.096072786 -0.18319267 -0.026570916
0.09354075 -0.17762309 -0.029071271
0.091033913 -0.17210907 -0.031546652
0.088551857 -0.16664928 -0.033997685
0.08609426 -0.16124338 -0.036424518
0.083660744 -0.15589052 -0.038827538
0.081250943 -0.15058988 -0.041207165
0.078864537 -0.14534062 -0.043563753
0.076500945 -0.14013892 -0.045898944
0.074179158 -0.13526136 -0.048088789
0.072020955 -0.13253373 -0.049314827
0.06987375 -0.12982005 -0.050534695
0.06773749 -0.1271202 -0.051748306
0.065612063 -0.12443405 -0.052955776
0.063497409 -0.1217615 -0.054157108
0.061393436 -0.11910242 -0.05535239
0.059300099 -0.1164574 -0.056541353
0.0572173 -0.11382598 -0.057724208
0.055144932 -0.11120766 -0.058901191
0.053082928 -0.10860258 -0.060072184
0.051035229 -0.10609215 -0.061200768
0.049053274 -0.10477406 -0.061794907
0.047076348 -0.1034593 -0.062387526
0.045104444 -0.10214788 -0.062978625
0.043137532 -0.10083979 -0.063568234
0.041175596 -0.099535048 -0.064156383
0.039218619 -0.09823364 -0.064743012
0.037266586 -0.096935451 -0.065328151
0.035319466 -0.095640481 -0.065911859
0.033377256 -0.094348848 -0.066494048
0.03143993 -0.093060553 -0.067074776
0.029507464 -0.091775358 -0.067654043
0.027585806 -0.090714037 -0.068132997
0.025685869 -0.090360343 -0.068294823
0.023787245 -0.09000653 -0.06845668
0.021889949 -0.089653194 -0.068618268
0.01999397 -0.089300215 -0.068779767
0.018099308 -0.088947475 -0.068941116
0.016205959 -0.088594973 -0.069102347
0.014313923 -0.088242948 -0.069263458
0.012423199 -0.087890804 -0.06942451
0.010533785 -0.087539136 -0.069585413
0.0086456807 -0.087187588 -0.069746196
0.0067588831 -0.086836398 -0.06990689
0.0048739621 -0.086604178 -0.070014179
0.0029920603 -0.087101519 -0.069794595
0.0011083238 -0.087599218 -0.069574833
-0.00077724829 -0.088097394 -0.069354862
-0.0026646587 -0.088595927 -0.069134712
-0.0045539089 -0.089094937 -0.068914384
-0.0064450023 -0.089594185 -0.068693936
-0.0083379429 -0.090094149 -0.06847316
-0.010232732 -0.090594709 -0.068252146
-0.01212937 -0.091095507 -0.068030983
-0.014027864 -0.091596901 -0.067809612
-0.015928213 -0.092098653 -0.067588031
-0.017830843 -0.09262532 -0.067355335
-0.019753233 -0.094077766 -0.06670779
-0.021681074 -0.095534265 -0.066058427
-0.023614394 -0.096994936 -0.065407157
-0.025553217 -0.098459899 -0.064754039
-0.027497556 -0.099928677 -0.064099193
-0.02944744 -0.10140163 -0.063442498
-0.031402901 -0.10287899 -0.062783837
-0.033363953 -0.10436028 -0.062123388
-0.03533062 -0.10584599 -0.061461031
-0.03730293 -0.10733587 -0.060796767
-0.039280914 -0.10883003 -0.060130596
-0.041272901 -0.11053878 -0.059368342
-0.04331816 -0.11338061 -0.058098346
-0.045374598 -0.11623794 -0.056821436
-0.04744231 -0.119111 -0.055537492
-0.049521379 -0.1219998 -0.054246545
-0.051611912 -0.12490457 -0.052948415
-0.053713992 -0.12782532 -0.051643133
-0.055827737 -0.13076264 -0.05033052
-0.057953276 -0.133717 -0.049010217
-0.060090661 -0.13668793 -0.047682583
-0.062239986 -0.13967532 -0.046347558
-0.064419128 -0.14297599 -0.044872224
-0.066758141 -0.14866668 -0.042326033
-0.069122031 -0.15441793 -0.039752811
-0.071511224 -0.16023058 -0.037152052
-0.073926136 -0.16610593 -0.034523308
-0.076367162 -0.17204493 -0.031866074
-0.078834735 -0.17804831 -0.02917996
-0.081329279 -0.18411726 -0.026464552
0.096067041 -0.18411893 -0.02840358
0.093535274 -0.1785453 -0.030894518
0.091028698 -0.17302698 -0.03336063
0.088546902 -0.16756338 -0.035802424
0.086089551 -0.16215342 -0.038220167
0.083656274 -0.15679663 -0.040614188
0.081246719 -0.15149194 -0.042984933
0.078860484 -0.14623791 -0.045333058
0.07649713 -0.14103228 -0.047659457
0.074244715 -0.13714629 -0.049396992
0.072084524 -0.13441163 -0.050620735
0.069935367 -0.13169104 -0.051838249
0.067797162 -0.12898403 -0.053049594
0.065669827 -0.12629098 -0.054254711
0.063553266 -0.12361151 -0.055453748
0.061447404 -0.12094539 -0.056646794
0.059352204 -0.11829358 -0.057833463
0.057267562 -0.11565548 -0.059014022
0.055193372 -0.11303061 -0.060188651
0.05312955 -0.11041874 -0.061357439
0.051097438 -0.10825533 -0.062326103
0.04911311 -0.10693294 -0.062919497
0.047133822 -0.10561389 -0.063511372
0.04515956 -0.10429817 -0.064101815
0.043190319 -0.10298592 -0.06469065
0.041226059 -0.10167688 -0.065277994
0.039266773 -0.1003713 -0.065863848
0.037312433 -0.09906894 -0.066448301
0.035363026 -0.097769916 -0.067031205
0.033418532 -0.096473992 -0.067612678
0.031478934 -0.095181525 -0.068192661
0.029544216 -0.093892276 -0.068771183
0.027623644 -0.092950642 -0.069194645
0.025721295 -0.092595518 -0.069356352
0.02382027 -0.092240632 -0.06951797
0.021920567 -0.091886103 -0.069679439
0.020022193 -0.091531932 -0.069840699
0.018125134 -0.091178 -0.07000193
0.016229391 -0.090824187 -0.070163012
0.014334966 -0.090470731 -0.070323974
0.012441857 -0.090117633 -0.070484817
0.010550059 -0.089764655 -0.070645571
0.0086595751 -0.089411914 -0.070806205
0.0067704013 -0.089059412 -0.07096675
0.0048830402 -0.088812053 -0.071080387
0.0029988028 -0.089310944 -0.070861101
0.0011127279 -0.089810312 -0.070641547
-0.00077518768 -0.090310276 -0.070421815
-0.0026649463 -0.090810478 -0.070201904
-0.0045565497 -0.091311157 -0.069981843
-0.0064500012 -0.091812313 -0.069761544
-0.0083453041 -0.092313945 -0.069541037
-0.010242458 -0.092816055 -0.069320351
-0.012141468 -0.093318641 -0.069099426
-0.014042338 -0.093821824 -0.068878233
-0.015945069 -0.094325364 -0.068656862
-0.017849665 -0.0948295 -0.068435282
-0.01977185 -0.096152008 -0.067848623
-0.021701835 -0.097613156 -0.067200094
-0.023637312 -0.099078357 -0.066549778
-0.0255783 -0.10054785 -0.065897584
-0.027524821 -0.1020214 -0.065243602
-0.029476903 -0.10349911 -0.064587742
-0.031434558 -0.10498089 -0.063930064
-0.033397831 -0.10646683 -0.063270539
-0.035366733 -0.1079573 -0.062609017
-0.037341282 -0.10945195 -0.061945677
-0.039321527 -0.11095089 -0.0612804
-0.041307464 -0.11245412 -0.060613215
-0.043346029 -0.1150946 -0.059438765
-0.045404017 -0.11795872 -0.058164597
-0.047473297 -0.12083858 -0.056883395
-0.049553949 -0.12373418 -0.055595219
-0.05164608 -0.12664586 -0.054299891
-0.053749781 -0.12957364 -0.05299738
-0.055865142 -0.13251752 -0.051687717
-0.057992294 -0.13547832 -0.050370514
-0.060131352 -0.13845628 -0.049045682
-0.062282372 -0.14145082 -0.047713459
-0.064445458 -0.14446241 -0.046373695
-0.066729851 -0.14925891 -0.044237822
-0.069092706 -0.15501124 -0.041675717
-0.071480833 -0.16082484 -0.039086223
-0.07389465 -0.16670102 -0.036468923
-0.076334573 -0.17264098 -0.033823192
-0.078801006 -0.17864519 -0.031148821
-0.08129441 -0.18471521 -0.028445154
0.093529798 -0.17946726 -0.032717437
0.091023482 -0.17394489 -0.03517431
0.088541947 -0.16847736 -0.037606835
0.086084843 -0.16306335 -0.040015489
0.083651818 -0.15770262 -0.042400479
0.081242502 -0.152394 -0.044762284
0.078856431 -0.14713508 -0.047101974
0.076493315 -0.14192563 -0.049419641
0.074310385 -0.13903469 -0.05070737
0.072148211 -0.13629264 -0.051928878
0.069997087 -0.13356489 -0.053144008
0.067856945 -0.13085097 -0.054352999
0.065727681 -0.12815076 -0.05555588
0.063609205 -0.12546438 -0.056752622
0.061501462 -0.12279147 -0.057943344
0.059404407 -0.1201331 -0.059127629
0.057317905 -0.11748797 -0.060305953
0.055241875 -0.1148563 -0.061478317
0.053176247 -0.11223775 -0.062644839
0.051159788 -0.11042351 -0.063454062
0.049173087 -0.10909694 -0.064046651
0.047191426 -0.10777348 -0.06463784
0.045214824 -0.1064536 -0.065227419
0.043243237 -0.10513717 -0.065815538
0.041276637 -0.10382372 -0.066402227
0.039315034 -0.10251397 -0.066987306
0.037358388 -0.10120744 -0.067570955
0.035406686 -0.09990412 -0.068153143
0.033459906 -0.098604143 -0.068733871
0.031518031 -0.097307384 -0.069313139
0.029581051 -0.096014082 -0.069890887
0.027661579 -0.09519273 -0.070258945
0.025756814 -0.094836533 -0.070420474
0.023853377 -0.094480455 -0.070581913
0.021951267 -0.094124615 -0.070743203
0.020050485 -0.093769133 -0.070904404
0.018151021 -0.093413889 -0.071065456
0.016252883 -0.093059123 -0.071226299
0.014356063 -0.092704475 -0.071387112
0.012460559 -0.092349946 -0.071547836
0.010566375 -0.091995776 -0.071708411
0.0086735059 -0.091641843 -0.071868837
0.0067819492 -0.091288149 -0.072029203
0.0048921402 -0.091025174 -0.072149277
0.0030055628 -0.091525853 -0.07193017
0.0011171431 -0.092027009 -0.071710914
-0.00077312201 -0.092528641 -0.07149142
-0.0026652347 -0.093030512 -0.071271747
-0.0045591965 -0.09353286 -0.071051955
-0.0064550117 -0.094035804 -0.070831865
-0.0083526811 -0.094539106 -0.070611656
-0.010252208 -0.095043004 -0.070391178
-0.012153597 -0.095547378 -0.070170462
-0.014056849 -0.096052229 -0.069949567
-0.015961966 -0.096557558 -0.069728404
-0.017868951 -0.097063243 -0.069507122
-0.019790506 -0.098230898 -0.068991929
-0.021722641 -0.099696457 -0.068344355
-0.023660274 -0.10116631 -0.067694962
-0.025603438 -0.10264045 -0.067043662
-0.027552145 -0.10411865 -0.066390544
-0.029506424 -0.10560089 -0.065735579
-0.031466298 -0.10708743 -0.065078825
-0.033431787 -0.10857815 -0.064420164
-0.035402924 -0.11007327 -0.063759625
-0.037379723 -0.11157256 -0.063097209
-0.039362226 -0.11307627 -0.062432796
-0.041350435 -0.11458427 -0.061766505
-0.043373939 -0.1168111 -0.060781091
-0.04543348 -0.11968189 -0.059509665
-0.047504328 -0.12256855 -0.058231235
-0.049586564 -0.12547106 -0.05694586
-0.051680304 -0.12838966 -0.055653304
-0.053785622 -0.13132435 -0.054353595
-0.055902623 -0.13427514 -0.053046733
-0.058031406 -0.13724273 -0.05173254
-0.060172107 -0.14022726 -0.050410777
-0.062324818 -0.14322907 -0.049081326
-0.06448961 -0.14624757 -0.047744513
-0.066701584 -0.14985067 -0.046148181
-0.069063395 -0.15560383 -0.043597192
-0.071450464 -0.1614185 -0.041018963
-0.073863193 -0.16729575 -0.038413048
-0.076301999 -0.17323643 -0.03577888
-0.078767307 -0.17924172 -0.033116132
0.093524337 -0.18038911 -0.034539968
0.09101826 -0.17486268 -0.036987573
0.088536985 -0.16939098 -0.039410949
0.086080149 -0.16397327 -0.041810423
0.083647348 -0.15860826 -0.044186532
0.081238285 -0.15329593 -0.046539307
0.078852385 -0.14803213 -0.048870564
0.076551467 -0.1436891 -0.050794691
0.074376158 -0.14092582 -0.052020043
0.072211996 -0.13817686 -0.053239137
0.070058912 -0.13544196 -0.054452002
0.067916825 -0.13272101 -0.055658638
0.065785624 -0.13001388 -0.056859195
0.063665248 -0.12732047 -0.058053643
0.061555617 -0.12464076 -0.05924201
0.059456687 -0.12197548 -0.060424
0.057368331 -0.11932355 -0.061600029
0.055290468 -0.11668509 -0.062770069
0.053223018 -0.11405975 -0.063934356
0.05122228 -0.11259657 -0.064584672
0.049233198 -0.11126572 -0.065176517
0.047249172 -0.10993809 -0.065766901
0.045270201 -0.10861391 -0.066355765
0.043296266 -0.10729319 -0.066943079
0.041327335 -0.10597569 -0.067528963
0.039363403 -0.10466152 -0.068113387
0.03740444 -0.1033507 -0.06869629
0.035450436 -0.10204321 -0.069277704
0.033501372 -0.10073906 -0.069857657
0.031557217 -0.099438131 -0.07043618
0.029617971 -0.098140657 -0.071013153
0.02769961 -0.09744066 -0.071325928
0.025792422 -0.097083032 -0.071487337
0.023886571 -0.096725881 -0.071648538
0.021982044 -0.096368849 -0.071809709
0.020078847 -0.096012056 -0.071970731
0.018176978 -0.09565562 -0.072131604
0.016276432 -0.095299423 -0.072292358
0.014377212 -0.094943702 -0.072452933
0.01247931 -0.094587982 -0.072613508
0.01058273 -0.0942325 -0.072773933
0.0086874701 -0.093877375 -0.07293421
0.0067935255 -0.093522489 -0.073094368
0.0049012629 -0.093243897 -0.073220819
0.0030123396 -0.093746245 -0.073002011
0.001121569 -0.09424907 -0.072782993
-0.00077105116 -0.094752491 -0.072563708
-0.0026655237 -0.09525615 -0.072344273
-0.0045618508 -0.095760405 -0.07212466
-0.0064600352 -0.096265018 -0.071904838
-0.0083600786 -0.096769989 -0.071684897
-0.010261986 -0.097275555 -0.071464628
-0.012165756 -0.097781718 -0.07124421
-0.014071395 -0.098288119 -0.071023583
-0.015978904 -0.098795235 -0.070802718
-0.017888289 -0.099302828 -0.070581585
-0.019809205 -0.10031432 -0.070137739
-0.021743491 -0.10178453 -0.069491088
-0.023683293 -0.10325891 -0.06884262
-0.025628632 -0.10473758 -0.068192244
-0.027579527 -0.10622042 -0.06754005
-0.029536014 -0.10770756 -0.066885978
-0.031498097 -0.10919875 -0.066230118
-0.033465821 -0.11069423 -0.065572351
-0.03543919 -0.11219388 -0.064912766
-0.03741825 -0.11369795 -0.064251214
-0.039403018 -0.11520642 -0.063587785
-0.041393504 -0.11671919 -0.062922448
-0.043401882 -0.11852986 -0.062125355
-0.045462981 -0.12140757 -0.0608567
-0.047535397 -0.12430102 -0.059581071
-0.049619228 -0.12721044 -0.058298409
-0.051714569 -0.13013583 -0.057008684
-0.053821504 -0.13307744 -0.055711865
-0.055940147 -0.13603538 -0.054407775
-0.058070589 -0.13900989 -0.053096414
-0.060212929 -0.14200097 -0.05177778
-0.062367316 -0.1450097 -0.050451279
-0.064533822 -0.14803559 -0.049117327
-0.066712536 -0.1510784 -0.047775835
-0.0690341 -0.1561963 -0.045517236
-0.071420111 -0.16201192 -0.042950213
-0.073831759 -0.16789013 -0.040355623
-0.076269463 -0.17383176 -0.037732989
-0.078733638 -0.179838 -0.035081863
0.093518861 -0.18131071 -0.036362231
0.091013052 -0.17578036 -0.038800508
0.088532031 -0.1703046 -0.041214705
0.086075425 -0.1648826 -0.043605149
0.083642893 -0.15951389 -0.045972139
0.081234023 -0.15419704 -0.0483163
0.07884834 -0.14892894 -0.050638914
0.076619364 -0.14559096 -0.052111864
0.074442044 -0.14282042 -0.053334892
0.072275899 -0.14006442 -0.054551601
0.070120849 -0.13732225 -0.055762112
0.067976803 -0.13459426 -0.056966454
0.065843664 -0.13187999 -0.058164686
0.063721374 -0.12917954 -0.059356838
0.061609861 -0.12649304 -0.060542822
0.059509054 -0.12382084 -0.061722517
0.057418846 -0.12116224 -0.062896192
0.055339139 -0.11851686 -0.064063996
0.053281512 -0.11611372 -0.065125167
0.051284928 -0.114775 -0.065717816
0.049293444 -0.11343962 -0.066308975
0.047307044 -0.11210769 -0.066898584
0.045325715 -0.11077935 -0.067486644
0.043349419 -0.10945421 -0.068073273
0.041378148 -0.10813242 -0.068658412
0.039411884 -0.10681409 -0.069242001
0.037450608 -0.10549909 -0.069824129
0.035494294 -0.10418731 -0.070404828
0.033542935 -0.10287899 -0.070984006
0.031596497 -0.10157388 -0.071561694
0.029654976 -0.10027224 -0.072137982
0.027737733 -0.099694192 -0.072395623
0.025828125 -0.099335492 -0.072556823
0.023919843 -0.09897691 -0.072717935
0.022012897 -0.098618686 -0.072878927
0.020107282 -0.098260581 -0.0730398
0.018203 -0.097902954 -0.073200464
0.016300043 -0.097545564 -0.073361039
0.014398414 -0.097188532 -0.073521495
0.01249811 -0.09683162 -0.073681831
0.010599129 -0.096474946 -0.073842078
0.0087014707 -0.096118748 -0.074002177
0.0068051317 -0.095762432 -0.074162215
0.0049104076 -0.095467985 -0.074295074
0.0030191329 -0.095972121 -0.074076504
0.0011260061 -0.096476734 -0.073857725
-0.00076897501 -0.096981704 -0.073638737
-0.0026658135 -0.09748739 -0.073419511
-0.0045645107 -0.097993195 -0.073200136
-0.0064650704 -0.098499596 -0.072980553
-0.0083674937 -0.099006355 -0.07276082
-0.010271784 -0.09951371 -0.072540849
-0.012177945 -0.10002154 -0.07232067
-0.014085977 -0.10052973 -0.072100312
-0.015995886 -0.10103852 -0.071879655
-0.017907673 -0.10154778 -0.07165885
-0.019827945 -0.10240227 -0.071286082
-0.021764386 -0.10387701 -0.070640385
-0.02370636 -0.10535616 -0.069992781
-0.02565388 -0.10683948 -0.069343388
-0.027606972 -0.10832697 -0.068692118
-0.029565664 -0.10981876 -0.06803894
-0.031529974 -0.11131471 -0.067383975
-0.033499926 -0.11281484 -0.066727161
-0.035475545 -0.11431926 -0.06606847
-0.037456859 -0.1158281 -0.065407872
-0.039443895 -0.11734134 -0.064745337
-0.041436672 -0.11885875 -0.064080924
-0.043435208 -0.1203807 -0.063414603
-0.045492526 -0.12313563 -0.062205672
-0.047566511 -0.12603587 -0.060932875
-0.049651936 -0.12895232 -0.059652954
-0.051748887 -0.13188463 -0.058366001
-0.053857449 -0.13483328 -0.057072014
-0.055977732 -0.13779813 -0.055770785
-0.058109831 -0.14077979 -0.054462284
-0.060253851 -0.14377803 -0.053146482
-0.062409885 -0.14679307 -0.051823258
-0.064578116 -0.14982611 -0.050492108
-0.066758551 -0.15287632 -0.049153507
-0.069004841 -0.15678817 -0.04743579
-0.071389787 -0.16260475 -0.044880003
-0.073800355 -0.16848403 -0.042296737
-0.076236948 -0.1744265 -0.039685607
-0.078699999 -0.18043357 -0.037046164
0.093513384 -0.18223232 -0.038184106
0.091007851 -0.17669779 -0.040613085
0.088527076 -0.17121798 -0.043018103
0.086070724 -0.16579205 -0.045399457
0.08363843 -0.16041929 -0.047757477
0.081229746 -0.15509754 -0.050093085
0.078878 -0.15028793 -0.052204281
0.076687381 -0.14749593 -0.053431273
0.074508041 -0.14471811 -0.054651946
0.072339915 -0.14195484 -0.055866301
0.070182875 -0.13920563 -0.057074487
0.068036877 -0.1364705 -0.058276504
0.065901808 -0.13374919 -0.059472382
0.063777603 -0.13104182 -0.06066215
0.06166419 -0.12834841 -0.061845839
0.059561506 -0.1256693 -0.06302318
0.057469439 -0.12300378 -0.06419456
0.055387892 -0.12035173 -0.06536001
0.053346708 -0.11830145 -0.066261768
0.051347725 -0.11695844 -0.066853613
0.049353842 -0.11561877 -0.067443997
0.047365062 -0.11428255 -0.068032831
0.045381356 -0.11294967 -0.068620175
0.043402694 -0.11162025 -0.069206059
0.04142908 -0.11029416 -0.069790393
0.039460484 -0.10897154 -0.070373237
0.037496876 -0.10765225 -0.070954621
0.035538256 -0.10633641 -0.071534514
0.033584591 -0.10502368 -0.072112948
0.031635866 -0.10371453 -0.072689891
0.029692065 -0.10240847 -0.073265433
0.027775956 -0.10195345 -0.073468059
0.025863912 -0.10159343 -0.073629081
0.023953205 -0.10123378 -0.073789984
0.02204383 -0.10087425 -0.073950827
0.020135792 -0.10051495 -0.074111521
0.018229086 -0.10015613 -0.074272007
0.016323714 -0.099797428 -0.074432433
0.01441967 -0.099439085 -0.07459271
0.012516956 -0.09908098 -0.074752897
0.010615568 -0.098723114 -0.074912965
0.0087155066 -0.098365486 -0.075072885
0.0068167672 -0.098008096 -0.075232774
0.004919576 -0.097697794 -0.075371981
0.0030259439 -0.098203719 -0.075153619
0.0011304544 -0.098710001 -0.074935108
-0.00076689379 -0.099216759 -0.074716389
-0.0026661037 -0.099723995 -0.074497402
-0.004567178 -0.10023183 -0.074278235
-0.0064701177 -0.10073978 -0.07405898
-0.0083749266 -0.10124832 -0.073839486
-0.010281609 -0.10175747 -0.073619753
-0.012190164 -0.10226697 -0.073399842
-0.014100596 -0.10277694 -0.073179722
-0.016012911 -0.10328752 -0.072959304
-0.017927105 -0.10379845 -0.072738767
-0.019846722 -0.10449475 -0.072437048
-0.02178533 -0.10597426 -0.071792185
-0.023729477 -0.10745794 -0.071145535
-0.025679184 -0.10894591 -0.070497066
-0.027634475 -0.11043805 -0.06984672
-0.029595379 -0.11193448 -0.069194496
-0.031561915 -0.11343521 -0.068540424
-0.03353411 -0.11494023 -0.067884505
-0.035511982 -0.11644953 -0.067226678
-0.037495557 -0.11796302 -0.066567034
-0.039484862 -0.11948079 -0.065905511
-0.04147993 -0.12100321 -0.065241992
-0.043480776 -0.12252992 -0.064576596
-0.045522112 -0.12486631 -0.063556552
-0.047597684 -0.12777358 -0.062286466
-0.049684688 -0.13069659 -0.061009496
-0.051783253 -0.13363606 -0.059725374
-0.053893447 -0.13659161 -0.058434129
-0.056015376 -0.13956374 -0.057135731
-0.05814914 -0.14255232 -0.055830091
-0.06029484 -0.1455577 -0.05451715
-0.06245257 -0.1485799 -0.053196818
-0.064622462 -0.15161949 -0.051868916
-0.06680464 -0.15467697 -0.050533205
-0.068999156 -0.15775162 -0.049189955
-0.071359485 -0.16319722 -0.046808302
-0.073768966 -0.16907734 -0.044236392
-0.076204449 -0.17502075 -0.041636765
-0.078666389 -0.1810289 -0.039008826
0.093507916 -0.18315345 -0.040005654
0.091002628 -0.17761487 -0.042425424
0.088522121 -0.17213112 -0.044821203
0.08606603 -0.16670126 -0.047193438
0.083633974 -0.16132456 -0.049542457
0.081225455 -0.15599793 -0.051869571
0.078948155 -0.1522035 -0.053528368
0.076755501 -0.14940399 -0.054752976
0.074574158 -0.14661914 -0.055971235
0.07240402 -0.14384848 -0.057183295
0.07024502 -0.14109224 -0.058389038
0.068097055 -0.13834995 -0.059588701
0.065960057 -0.13562173 -0.060782194
0.063833922 -0.13290721 -0.061969697
0.061718613 -0.13020676 -0.063150972
0.059614055 -0.12752098 -0.064325929
0.057520121 -0.12484854 -0.065495014
0.055436719 -0.12218958 -0.066658229
0.053412057 -0.12049431 -0.067401022
0.051410649 -0.11914676 -0.067992151
0.049414378 -0.1178028 -0.0685817
0.047423203 -0.11646217 -0.069169819
0.04543712 -0.115125 -0.069756329
0.0434561 -0.11379129 -0.070341408
0.041480128 -0.11246091 -0.070925027
0.039509192 -0.11113399 -0.071507096
0.037543252 -0.10981041 -0.072087705
0.035582315 -0.10849029 -0.072666824
0.03362634 -0.10717338 -0.073244512
0.031675324 -0.10585994 -0.07382071
0.029730108 -0.1045801 -0.074382216
0.027814278 -0.10421854 -0.074543208
0.025899794 -0.10385734 -0.074704051
0.023986647 -0.10349625 -0.074864805
0.022074841 -0.10313553 -0.075025409
0.020164371 -0.10277492 -0.075185955
0.018255241 -0.10241479 -0.075346321
0.016347444 -0.10205489 -0.075506568
0.01444098 -0.10169524 -0.075666696
0.01253585 -0.10133594 -0.075826675
0.010632048 -0.10097677 -0.075986594
0.0087295771 -0.10061795 -0.076146364
0.0068284315 -0.10025936 -0.076306045
0.0049287677 -0.099933326 -0.07645154
0.0030327712 -0.1004408 -0.076233506
0.0011349136 -0.10094875 -0.076015234
-0.0007648074 -0.1014573 -0.075796723
-0.0026663949 -0.10196632 -0.075578034
-0.0045698509 -0.1024757 -0.075359136
-0.0064751785 -0.10298556 -0.075140059
-0.00838238 -0.10349602 -0.074920774
-0.010291459 -0.10400683 -0.074701309
-0.012202414 -0.104518 -0.074481666
-0.014115254 -0.10502988 -0.074261755
-0.016029976 -0.10554212 -0.074041694
-0.017946588 -0.10605484 -0.073821396
-0.019865548 -0.10659212 -0.073590398
-0.021806322 -0.10807616 -0.072946519
-0.023752648 -0.1095646 -0.072300792
-0.025704546 -0.1110571 -0.071653247
-0.027662043 -0.11255389 -0.071003854
-0.029625162 -0.1140551 -0.070352584
-0.031593926 -0.11556047 -0.069699466
-0.033568371 -0.11707038 -0.069044352
-0.035548493 -0.11858433 -0.068387628
-0.037534337 -0.12010258 -0.067728877
-0.039525926 -0.12162524 -0.067068279
-0.041523289 -0.12315255 -0.066405654
-0.043526445 -0.12468415 -0.065741181
-0.045551747 -0.12659961 -0.064909339
-0.047628891 -0.12951356 -0.063642144
-0.049717501 -0.13244361 -0.062367916
-0.05181767 -0.13538986 -0.061086655
-0.053929497 -0.13835257 -0.059798241
-0.056053068 -0.14133161 -0.058502734
-0.058188502 -0.14432746 -0.057199925
-0.060335882 -0.14733988 -0.055889845
-0.062495314 -0.15036935 -0.054572403
-0.064666912 -0.15341586 -0.053247541
-0.066850796 -0.15648013 -0.05191499
-0.069047064 -0.15956229 -0.05057463
-0.071329206 -0.16378921 -0.048735172
-0.073737599 -0.16967016 -0.046174616
-0.076171979 -0.17561454 -0.043586433
-0.078632794 -0.18162352 -0.040970147
0.090997428 -0.17853194 -0.044237316
0.088517167 -0.17304426 -0.046623945
0.086061321 -0.16761035 -0.048987091
0.083629504 -0.1622296 -0.051327169
0.081224538 -0.15694338 -0.05362612
0.079018444 -0.15412217 -0.054854631
0.076823749 -0.15131563 -0.056076825
0.074640371 -0.14852339 -0.057292759
0.072468236 -0.14574546 -0.058502436
0.070307255 -0.14298195 -0.059705853
0.068157338 -0.1402325 -0.060903132
0.066018395 -0.13749725 -0.062094271
0.063890338 -0.13477558 -0.063279361
0.061773133 -0.13206846 -0.064458281
0.059666682 -0.12937552 -0.065630972
0.057570878 -0.12669617 -0.066797674
0.055486534 -0.12404746 -0.067951143
0.053477556 -0.12269229 -0.068542928
0.051473733 -0.12134022 -0.069133312
0.049475048 -0.11999184 -0.069722116
0.047481481 -0.11864692 -0.070309401
0.045493014 -0.11730558 -0.070895165
0.043509621 -0.11596733 -0.071479499
0.041531291 -0.11463267 -0.072062314
0.039558008 -0.11330146 -0.072643608
0.037589736 -0.1119737 -0.073223412
0.035626475 -0.11064917 -0.073801786
0.033668194 -0.10932809 -0.074378669
0.031714872 -0.10801035 -0.074954093
0.029770976 -0.10685211 -0.075460255
0.027852697 -0.10648936 -0.075621068
0.025935763 -0.10612673 -0.075781763
0.024020176 -0.10576457 -0.075942338
0.022105929 -0.10540253 -0.076102793
0.020193027 -0.10504085 -0.07626313
0.018281458 -0.10467917 -0.076423377
0.016371235 -0.1043182 -0.076583385
0.014462344 -0.10395724 -0.076743364
0.012554792 -0.10359675 -0.076903164
0.01064857 -0.10323638 -0.077062935
0.0087436829 -0.10287625 -0.077222526
0.0068401261 -0.10251635 -0.077382028
0.0049379813 -0.10217422 -0.077533871
0.0030396159 -0.1026836 -0.077316016
0.0011393842 -0.10319322 -0.077098012
-0.0007627157 -0.10370344 -0.076879799
-0.0026666869 -0.10421425 -0.076661348
-0.0045725317 -0.10472554 -0.076442659
-0.0064802524 -0.10523719 -0.07622388
-0.0083898511 -0.10574931 -0.076004863
-0.010301332 -0.10626179 -0.075785637
-0.012214695 -0.10677475 -0.075566232
-0.014129947 -0.10728842 -0.075346619
-0.016047087 -0.10780245 -0.075126737
-0.01796612 -0.10831684 -0.074906737
-0.019887049 -0.10883206 -0.074686408
-0.021827355 -0.11018258 -0.074103475
-0.023775866 -0.11167568 -0.073458672
-0.025729964 -0.11317283 -0.07281208
-0.027689669 -0.11467451 -0.072163582
-0.029655011 -0.11618036 -0.071513265
-0.031626008 -0.1176905 -0.070861042
-0.0336027 -0.11920518 -0.07020694
-0.035585091 -0.12072402 -0.069550991
-0.037573207 -0.12224716 -0.068893224
-0.039567087 -0.12377459 -0.06823355
-0.041566744 -0.12530655 -0.067571968
-0.04357221 -0.12684292 -0.066908479
-0.045583513 -0.12838393 -0.066242993
-0.047660146 -0.13125604 -0.064999729
-0.049750347 -0.134193 -0.063728362
-0.051852137 -0.13714629 -0.062449902
-0.053965591 -0.14011592 -0.061164379
-0.056090821 -0.14310211 -0.059871674
-0.058227915 -0.14610499 -0.058571786
-0.060376991 -0.14912492 -0.057264566
-0.062538125 -0.15216142 -0.055950046
-0.064711437 -0.1552152 -0.054628104
-0.066897035 -0.15828627 -0.053298652
-0.069095045 -0.16137558 -0.051961362
-0.071305573 -0.16448277 -0.050616294
-0.073706262 -0.17026263 -0.04811132
-0.076139547 -0.17620784 -0.045534551
-0.078599222 -0.18221778 -0.042929828
0.090992212 -0.1794489 -0.046048939
0.088512212 -0.17395705 -0.04842639
0.086056612 -0.1685192 -0.050780475
0.083624981 -0.16313356 -0.053111911
0.08129701 -0.1588729 -0.054957062
0.079088852 -0.1560443 -0.056183189
0.076892108 -0.15323025 -0.057403028
0.074706703 -0.15043062 -0.058616549
0.072532572 -0.14764565 -0.059823781
0.070369594 -0.14487487 -0.061024845
0.068217717 -0.14211828 -0.062219739
0.066076823 -0.13937587 -0.063408524
0.063946858 -0.1366474 -0.064591229
0.061827738 -0.13393313 -0.065767765
0.059719402 -0.13123327 -0.066938072
0.057621729 -0.12854701 -0.068102479
0.055554625 -0.12625498 -0.069096506
0.05354321 -0.12489539 -0.069687515
0.051536962 -0.12353903 -0.070277065
0.049535863 -0.12218624 -0.070865095
0.047539901 -0.12083691 -0.071451604
0.045549039 -0.11949104 -0.072036654
0.043563277 -0.11814862 -0.072620124
0.041582584 -0.11680967 -0.073202193
0.03960694 -0.11547405 -0.073782742
0.037636332 -0.114142 -0.074361712
0.035670735 -0.11281306 -0.07493937
0.033710133 -0.11148769 -0.075515479
0.031754512 -0.11016589 -0.076090068
0.029811947 -0.10912985 -0.076541096
0.027891213 -0.1087659 -0.076701701
0.025971828 -0.10840207 -0.076862216
0.024053792 -0.1080386 -0.077022582
0.0221371 -0.10767537 -0.077182829
0.020221753 -0.10731238 -0.077342987
0.018307744 -0.10694951 -0.077503115
0.016395083 -0.10658711 -0.077663004
0.014483764 -0.10622507 -0.077822745
0.01257378 -0.10586315 -0.077982426
0.010665135 -0.10550159 -0.078141958
0.008757825 -0.10514015 -0.0783014
0.0068518501 -0.10477918 -0.078460693
0.0049472186 -0.10442072 -0.078618854
0.0030464779 -0.10493189 -0.078401268
0.0011438659 -0.1054433 -0.078183562
-0.00076061877 -0.1059553 -0.077965587
-0.0026669791 -0.10646778 -0.077747405
-0.0045752181 -0.10698074 -0.077529013
-0.0064853383 -0.10749441 -0.077310383
-0.0083973408 -0.10800821 -0.077091664
-0.010311231 -0.10852259 -0.076872677
-0.012227007 -0.10903734 -0.07665354
-0.014144679 -0.10955268 -0.076434135
-0.016064238 -0.11006838 -0.076214612
