# .PCD v0.7 - Point Cloud Data file format
VERSION 0.7
FIELDS x y z
SIZE 4 4 4
TYPE F F F
COUNT 1 1 1
WIDTH 1310
HEIGHT 1
VIEWPOINT 0 0 0 1 0 0 0
POINTS 1310
DATA ascii
-0.0089248419 -0.01601566 0.15281731
-0.0076960325 -0.014114596 0.15448654
-0.0069831014 -0.012230131 0.15545607
-0.0065428019 -0.010354023 0.15605581
-0.0062133074 -0.0084818639 0.15650523
-0.0061355233 -0.0066141025 0.15661323
-0.006339848 -0.004748798 0.15633863
-0.0066425204 -0.0028827502 0.15593058
-0.0072593689 -0.0010154174 0.15509641
-0.0079491735 0.00085554202 0.15416324
-0.0095763803 0.00273449 0.15195864
-0.020129442 0.0046868292 0.13764757
-0.021076798 0.0066030552 0.13636506
-0.022027016 0.0085247252 0.13507885
-0.022979796 0.010451862 0.13378912
-0.023935378 0.01238449 0.13249558
-0.024984419 0.014324581 0.13107526
-0.0261783 0.016274184 0.12945855
-0.027376354 0.018230721 0.12783617
-0.028578639 0.020194223 0.12620807
-0.029785275 0.022164738 0.12457407
-0.030996203 0.024142295 0.12293428
-0.032211423 0.026126934 0.12128866
-0.033431113 0.028118696 0.11963695
-0.034655035 0.030117612 0.11797953
-0.035883546 0.032123737 0.11631596
-0.014377773 0.057570666 0.14551985
-0.011345387 0.059187632 0.14963508
-0.0083406568 0.060789842 0.15371269
-0.0053631663 0.062377464 0.15775341
-0.0024122596 0.063950695 0.16175807
0.0005120635 0.065509744 0.16572666
0.0034101009 0.067054823 0.16965944
0.0056952834 0.068649024 0.1727612
0.0056316853 0.070488706 0.17267734
0.0055677295 0.072328769 0.17259306
0.0055037737 0.074169189 0.1725089
0.0054399967 0.076009974 0.17242473
0.0053760409 0.077851109 0.17234051
0.011168659 -0.092067875 0.17690092
0.011107087 -0.09025488 0.17681956
0.011045337 -0.088441581 0.17673796
0.010983825 -0.086627901 0.1766566
0.010922134 -0.084813885 0.17657512
0.010860384 -0.082999542 0.17649353
0.0078556538 -0.081559941 0.17240542
0.0047795177 -0.080112025 0.1682201
0.0016711354 -0.078650415 0.16399097
-0.0014682412 -0.077174693 0.15971959
-0.0046371222 -0.075684391 0.15540826
-0.0078368783 -0.074179448 0.15105474
-0.033345759 -0.047828231 0.11636764
-0.032104194 -0.045795608 0.11806041
-0.03086704 -0.043770399 0.1197471
-0.029634416 -0.041752562 0.12142771
-0.028406322 -0.039742067 0.12310201
-0.027182579 -0.037738856 0.12477052
-0.025963366 -0.035742901 0.12643272
-0.024748504 -0.033754159 0.12808901
-0.023537934 -0.031772587 0.12973952
-0.022331953 -0.029798158 0.13138384
-0.021130085 -0.027830821 0.13302237
-0.019932687 -0.025870549 0.134655
-0.018842816 -0.023920991 0.13614112
-0.017826736 -0.021980112 0.13752675
-0.0095285177 -0.019826287 0.14882517
-0.0070767999 -0.017878914 0.15216506
-0.0056710839 -0.01597102 0.15408111
-0.0049107075 -0.014085031 0.15511864
-0.0041854978 -0.012204061 0.15610826
-0.0038560629 -0.010333472 0.15655923
-0.0036816597 -0.0084667709 0.15679914
-0.0035923719 -0.006601925 0.15692317
-0.0037378073 -0.0047392701 0.15672773
-0.0039749146 -0.0028761788 0.15640748
-0.0044561028 -0.0010120762 0.15575504
-0.005214572 0.00085518393 0.15472507
-0.0061485171 0.0027275437 0.15345627
-0.0076996684 0.0046096919 0.1513474
-0.016889811 0.0065775998 0.1388405
-0.018057704 0.0084944358 0.13725334
-0.01922965 0.01041802 0.13566071
-0.020405829 0.012348392 0.13406235
-0.021586061 0.014285583 0.13245833
-0.022770464 0.01622963 0.13084882
-0.023959041 0.01818057 0.12923354
-0.025151968 0.020138443 0.12761241
-0.026349068 0.022103282 0.1259855
-0.027550399 0.024075124 0.12435299
-0.028756082 0.026054012 0.1227144
-0.029966056 0.028039977 0.12107003
-0.031180263 0.030033058 0.11941993
-0.032398999 0.032033298 0.1177637
-0.012304068 0.057521272 0.14515114
-0.0092837811 0.059137046 0.14926445
-0.0062912107 0.060738083 0.15334016
-0.0033253431 0.062324539 0.15737939
-0.00038617849 0.063896649 0.16138226
0.0025264621 0.065454602 0.16534901
0.0054144859 0.066998437 0.1692822
0.0056278706 0.06881313 0.16957515
0.005564034 0.070657179 0.16949069
0.005499959 0.072501615 0.169406
0.0054359436 0.074346401 0.16932136
0.005371809 0.076191559 0.16923654
0.011115074 -0.092282541 0.17374504
0.011052191 -0.090465486 0.17366153
0.010990381 -0.088647917 0.17357957
0.010928571 -0.086830005 0.17349762
0.010866821 -0.08501175 0.1734156
0.010805011 -0.083193131 0.1733337
0.010048807 -0.081462875 0.17230302
0.0069848895 -0.080016449 0.16811949
0.0038895607 -0.078556255 0.1638931
0.00076723099 -0.077081509 0.15962994
-0.0023872852 -0.075592585 0.15532273
-0.0055730343 -0.074089095 0.15097278
-0.0087894201 -0.072570689 0.14658117
-0.029986382 -0.047698606 0.11765873
-0.028754175 -0.04567166 0.11934477
-0.027526438 -0.043652091 0.12102461
-0.026303113 -0.041639853 0.12269843
-0.025084317 -0.039634913 0.12436604
-0.023869872 -0.037637226 0.1260277
-0.022659838 -0.035646752 0.1276834
-0.021454155 -0.033663455 0.12933302
-0.020252824 -0.031687289 0.1309768
-0.019055784 -0.029718226 0.13261467
-0.017863095 -0.027756222 0.13424659
-0.016674578 -0.02580124 0.13587266
-0.015490413 -0.023853239 0.13749301
-0.01431042 -0.021912185 0.13910753
-0.0057570338 -0.019755913 0.15079474
-0.0041697025 -0.017838506 0.15296566
-0.0030806661 -0.015942359 0.1544559
-0.002433002 -0.014061958 0.15534323
-0.0019233227 -0.012187856 0.15604192
-0.0015869737 -0.010319416 0.15650398
-0.0013381839 -0.0084540443 0.15684623
-0.0012459159 -0.006591673 0.15697485
-0.0014349818 -0.0047318465 0.15671909
-0.0016877651 -0.0028712128 0.15637624
-0.0021322966 -0.0010094019 0.15577161
-0.0026509762 0.00085506425 0.15506548
-0.003436029 0.0027236599 0.15399557
-0.004596889 0.0045994697 0.15241235
-0.0066687465 0.0064911298 0.14958471
-0.014705956 0.0084719937 0.13860828
-0.015868783 0.010390171 0.13702232
-0.017035663 0.012315095 0.13543087
-0.018206596 0.014246801 0.13383389
-0.019381762 0.016185325 0.13223124
-0.020561039 0.018130705 0.13062292
-0.02174449 0.020082975 0.12900883
-0.022932231 0.022042172 0.12738907
-0.024124086 0.024008337 0.12576348
-0.025320232 0.025981503 0.12413222
-0.026520669 0.027961703 0.12249506
-0.027725399 0.029948987 0.12085199
-0.02893436 0.031943388 0.11920315
-0.030147791 0.033944942 0.11754823
-0.013269961 0.055842463 0.14063358
-0.010234058 0.057471965 0.14478302
-0.0072258711 0.059086546 0.14889443
-0.0042450428 0.060686395 0.15296859
-0.0012910366 0.062271703 0.15700603
0.0016363859 0.063842684 0.16100711
0.0045387745 0.065399401 0.16497397
0.0056240559 0.067129932 0.1664589
0.0055602789 0.068977989 0.16637421
0.0054959655 0.070826463 0.16628891
0.0054317713 0.07267528 0.16620374
0.0053676367 0.074524462 0.16611856
0.0053032041 0.076374039 0.16603303
0.01099813 -0.090676919 0.17049015
0.010935068 -0.088855252 0.17040616
0.010873199 -0.087033056 0.17032379
0.01081115 -0.085210532 0.17024124
0.010749221 -0.083387658 0.1701588
0.010687292 -0.081564419 0.17007637
0.0091830492 -0.07992135 0.16801637
0.0061056614 -0.07846196 0.16379952
0.0029965043 -0.076988667 0.15953916
-0.00014454126 -0.075501211 0.15523505
-0.003313899 -0.073998883 0.15089214
-0.006516099 -0.072481945 0.14650428
-0.0097491145 -0.07094992 0.14207417
-0.027872145 -0.049598329 0.11725789
-0.026644886 -0.047569666 0.1189431
-0.025422037 -0.045548376 0.12062222
-0.024203539 -0.043534413 0.12229538
-0.02298969 -0.041527748 0.12396234
-0.021780014 -0.039528336 0.12562329
-0.020574689 -0.037536141 0.12727833
-0.019373894 -0.035551123 0.12892729
-0.018177271 -0.033573233 0.13057035
-0.016984999 -0.031602446 0.13220763
-0.015796959 -0.029638719 0.13383889
-0.014613211 -0.027682016 0.13546437
-0.013433695 -0.025732294 0.13708401
-0.012258291 -0.023789518 0.13869792
-0.0052366853 -0.021660281 0.14832693
-0.003062129 -0.019717725 0.15131062
-0.0017955899 -0.017812476 0.15304959
-0.00079631805 -0.015921051 0.15442204
-0.00022178888 -0.014044533 0.15521216
0.00033336878 -0.012171691 0.15597576
0.00062829256 -0.010306157 0.15638256
0.00074410439 -0.0084446426 0.15654385
0.00082200766 -0.0065841782 0.15665323
0.00069230795 -0.0047256551 0.15647787
0.00056248903 -0.0028663923 0.15630251
0.00011444092 -0.0010068339 0.15569067
-0.00048357248 0.00085551885 0.15487337
-0.0011637807 0.002721665 0.15394342
-0.002261281 0.0045947391 0.15244138
-0.0037061572 0.0064776368 0.1504631
-0.0065255165 0.0083867004 0.1466006
-0.012526453 0.010362474 0.13837653
-0.013684213 0.012281982 0.13679194
-0.014846027 0.014208235 0.13520175
-0.016012013 0.016141269 0.13360596
-0.017182112 0.018081119 0.13200438
-0.018356204 0.020027818 0.13039744
-0.019534528 0.021981407 0.12878472
-0.020717144 0.023941927 0.12716615
-0.021903872 0.025909403 0.12554187
-0.023094773 0.027883876 0.12391198
-0.024290025 0.02986539 0.12227613
-0.02548945 0.031853981 0.12063438
-0.026693106 0.033849675 0.11898696
-0.027901173 0.035852529 0.11733347
-0.014243066 0.054151062 0.13608235
-0.011191308 0.055794459 0.14026815
-0.0081676245 0.057422746 0.14441562
-0.0051715374 0.059036136 0.14852512
-0.0022024512 0.060634796 0.15259767
0.00073981285 0.062218957 0.15663338
0.0036554337 0.063788824 0.16063261
0.0056203008 0.06543906 0.16332847
0.0055562854 0.067291185 0.16324317
0.0054920316 0.069143675 0.16315764
0.0054277182 0.07099653 0.16307199
0.0053633451 0.072849773 0.16298634
0.0052984953 0.074703433 0.16289979
0.010880589 -0.089063399 0.16721928
0.010817409 -0.087237082 0.16713488
0.01075536 -0.085410252 0.16705191
0.010693192 -0.083583094 0.16696888
0.010631144 -0.081755564 0.16688597
0.010568976 -0.079927705 0.16680288
0.0083130002 -0.078368321 0.1637013
0.0052201748 -0.076896094 0.15944803
0.0020952821 -0.075409763 0.15515089
-0.0010617375 -0.073909059 0.15080947
-0.0042476058 -0.072393358 0.14642841
-0.0074659586 -0.070862792 0.1420027
-0.025761604 -0.0514948 0.11685765
-0.024539232 -0.049464419 0.11854219
-0.023321271 -0.047441415 0.12022066
-0.022107661 -0.045425739 0.12189305
-0.020898521 -0.043417361 0.1235593
-0.019693673 -0.041416239 0.12521952
-0.018493176 -0.039422322 0.12687391
-0.017297089 -0.037435591 0.12852222
-0.016105235 -0.035455994 0.13016462
-0.014917612 -0.033483487 0.13180125
-0.013734341 -0.031518046 0.13343185
-0.012555182 -0.029559627 0.13505673
-0.011380374 -0.027608192 0.13667583
-0.01020968 -0.025663707 0.13828909
-0.0090430975 -0.02372613 0.13989657
-0.0024216771 -0.021614596 0.14900923
-0.00082528591 -0.019693226 0.15120822
0.00036102533 -0.017792294 0.15284282
0.0011901259 -0.01590695 0.1539861
0.0017763376 -0.014031638 0.15479517
0.0022600293 -0.012161636 0.1554631
0.0025363564 -0.010297709 0.15584582
0.0027182102 -0.0084366063 0.15609854
0.0028501749 -0.0065770592 0.15628266
0.0026441216 -0.0047207032 0.15600169
0.0024356842 -0.002863175 0.15571737
0.0020714998 -0.001004669 0.1552189
0.0015541911 0.00085615856 0.15450972
0.00086241961 0.002720726 0.15356058
-5.364418e-07 0.0045905192 0.15237582
-0.0013542771 0.0064702607 0.15051585
-0.0034596324 0.0083675934 0.14762181
-0.0094275475 0.01033851 0.13941383
-0.010524154 0.012252301 0.13790768
-0.011624455 0.014172493 0.13639653
-0.012728333 0.01609911 0.13488036
-0.013835967 0.018032193 0.13335913
-0.014986992 0.019972973 0.13177818
-0.016156077 0.021920986 0.13017231
-0.017329276 0.023875885 0.1285609
-0.018506646 0.025837706 0.12694377
-0.019688249 0.027806489 0.12532079
-0.020874023 0.029782267 0.12369204
-0.022063971 0.031765081 0.12205756
-0.02325815 0.033754963 0.1204173
-0.02445668 0.035751957 0.11877108
-0.025659442 0.037756097 0.11711901
-0.012155831 0.054104384 0.13571954
-0.0091164112 0.05574654 0.13990337
-0.0061048269 0.057373609 0.14404893
-0.0031206608 0.058985796 0.1481567
-0.00016343594 0.06058329 0.15222746
0.0027669668 0.062166315 0.15626121
0.0056165457 0.06374047 0.16018385
0.0055523515 0.065596655 0.16009808
0.0054881573 0.067453191 0.16001219
0.0054236054 0.069310129 0.15992588
0.0053590536 0.071167432 0.15983963
0.005294621 0.073025092 0.15975344
0.010762513 -0.087441921 0.16393232
0.010699213 -0.085610926 0.16384745
0.010636926 -0.083779454 0.16376394
0.010574698 -0.081947617 0.16368043
0.010512352 -0.080115438 0.16359693
0.010450065 -0.0782829 0.16351342
0.0074383616 -0.076803751 0.15935707
0.0043264031 -0.075318918 0.15506232
0.0011872053 -0.073819205 0.15073001
-0.0019847155 -0.072304986 0.14635253
-0.0051886439 -0.070775911 0.14193088
-0.0084232688 -0.069231533 0.13746691
-0.02365464 -0.053388018 0.11645818
-0.022437036 -0.051355932 0.11814201
-0.021223962 -0.049331225 0.1198197
-0.02001524 -0.047313847 0.12149137
-0.018810809 -0.045303755 0.12315708
-0.017610848 -0.04330093 0.12481654
-0.016415179 -0.041305315 0.12647021
-0.015223801 -0.03931687 0.12811792
-0.014036596 -0.037335567 0.12975973
-0.012936831 -0.035365798 0.1312809
-0.011844635 -0.033402782 0.13279152
-0.010756135 -0.031446263 0.13429713
-0.0096712112 -0.029496206 0.13579768
-0.0085899234 -0.027552577 0.13729334
-0.0075120926 -0.025615346 0.13878411
-0.0035170317 -0.023579068 0.14430302
-0.00034207106 -0.021593126 0.14868939
0.00124681 -0.019673618 0.15088576
0.0022822618 -0.017778479 0.152318
0.0031562448 -0.01589329 0.15352726
0.0036652684 -0.014021057 0.15423262
0.0040775537 -0.012153589 0.15480441
0.0043619871 -0.010290537 0.15519965
0.0044946074 -0.008431104 0.15538538
0.0045691133 -0.0065730307 0.1554907
0.0044420362 -0.0047168429 0.15531772
0.0042735338 -0.002860103 0.15508765
0.0039156079 -0.0010026614 0.15459597
0.0034735203 0.00085696846 0.15398806
0.0028128624 0.0027201057 0.15307838
0.0018659234 0.004589139 0.15177345
0.00064748526 0.0064663989 0.15009373
-0.0011987686 0.0083588939 0.14754719
-0.0068066716 0.010322043 0.13980687
-0.0078970194 0.012232508 0.13830405
-0.008991003 0.014149348 0.13679618
-0.010088563 0.016072595 0.13528329
-0.011189878 0.018002285 0.13376534
-0.012294888 0.019938447 0.13224226
-0.013403594 0.021881115 0.130714
-0.014516056 0.023830321 0.12918067
-0.015632212 0.025786094 0.12764221
-0.016752183 0.027748475 0.12609857
-0.017876029 0.029717498 0.12454957
-0.01900351 0.031693187 0.12299544
-0.020134926 0.033675585 0.12143606
-0.021270096 0.035664719 0.11987132
-0.02240932 0.037660636 0.11830115
-0.023552299 0.039663352 0.11672568
-0.013127506 0.052401591 0.13113672
-0.010072231 0.054057781 0.1353575
-0.0070451498 0.055698704 0.13953924
-0.0040457249 0.057324573 0.14368266
-0.0010733604 0.058935549 0.14778894
0.0018720627 0.060531873 0.15185779
0.0047918558 0.062113639 0.15589142
0.0055484176 0.063894369 0.15693843
0.0054840446 0.065754987 0.15685213
0.0054194927 0.067615993 0.15676546
0.0053547621 0.069477387 0.15667868
0.0052901506 0.07133913 0.15659195
0.010707557 -0.087647691 0.16071492
0.010643899 -0.08581242 0.16062915
0.01058048 -0.083976738 0.1605438
0.010517955 -0.082140587 0.1604597
0.010455489 -0.080304071 0.1603756
0.010393023 -0.078467198 0.16029161
0.0096496344 -0.076711833 0.15926385
0.006555438 -0.075227924 0.15497839
0.0034293532 -0.073729739 0.15064871
0.00027251244 -0.072216861 0.14627647
-0.0029157996 -0.070689119 0.14186072
-0.0061357617 -0.069146246 0.1374011
-0.0093876123 -0.067588009 0.13289714
-0.021551311 -0.055277996 0.1160593
-0.020338595 -0.053244222 0.11774242
-0.019195259 -0.051222797 0.11932951
-0.018079698 -0.049210057 0.12087792
-0.016967952 -0.047204062 0.12242115
-0.015859902 -0.045204766 0.1239593
-0.014755607 -0.043212149 0.12549216
-0.013654947 -0.041226156 0.12702
-0.012557864 -0.039246771 0.12854284
-0.011464596 -0.037273962 0.13006055
-0.010374784 -0.035307679 0.13157326
-0.0092886686 -0.033347912 0.1330809
-0.0082061291 -0.031394608 0.13458359
-0.0071271658 -0.029447753 0.13608128
-0.0060517192 -0.027507303 0.13757408
-0.0049798489 -0.025573231 0.13906199
-0.00096070766 -0.023538778 0.14463389
0.0015029907 -0.021579374 0.14805049
0.00292027 -0.019666038 0.1500169
0.0039722919 -0.017770961 0.15147722
0.0047612786 -0.015888453 0.15257305
0.0053300261 -0.014015296 0.15336365
0.0058031678 -0.012147238 0.1540218
0.00608778 -0.010284926 0.15441865
0.0062060356 -0.0084264297 0.15458518
0.0062866807 -0.0065690051 0.15469944
0.0061599612 -0.0047135474 0.15452629
0.005977869 -0.0028575992 0.15427649
0.0056197047 -0.0010008489 0.15378273
0.0051028132 0.0008582077 0.15306908
0.0044367909 0.0027209087 0.15214866
0.0036100149 0.0045886347 0.15100569
0.002402246 0.006465028 0.14933455
0.00083935261 0.0083530601 0.14717156
-0.0041947365 0.010305633 0.14019877
-0.0052788258 0.012212782 0.13869911
-0.0063665509 0.014126284 0.13719451
-0.007457912 0.016046174 0.13568485
-0.0085529685 0.017972482 0.13417011
-0.0096516013 0.019905237 0.13265038
-0.010753989 0.02184448 0.13112551
-0.011860073 0.023790235 0.12959558
-0.012969851 0.02574254 0.1280604
-0.014083326 0.027701419 0.12652022
-0.015200615 0.029666921 0.12497461
-0.016321719 0.031639073 0.12342381
-0.017446578 0.033617899 0.12186795
-0.018575251 0.035603445 0.12030661
-0.019707739 0.037595738 0.11874008
-0.020844162 0.039594822 0.11716819
-0.023668051 0.041705679 0.11325812
-0.014106572 0.05068595 0.12651926
-0.011035204 0.052356336 0.1307773
-0.0079923272 0.054011263 0.134996
-0.0049774647 0.055650953 0.13917571
-0.0019899011 0.057275582 0.14331764
0.00097042322 0.058885377 0.14742184
0.0039049983 0.060480442 0.15149039
0.0055444241 0.062184267 0.15376431
0.0054798722 0.064048998 0.1536774
0.0054152608 0.065914087 0.1535905
0.0053504109 0.067779586 0.15350318
0.0052856803 0.069645435 0.15341598
0.0052208304 0.071511671 0.15332866
0.010588586 -0.086014822 0.15739596
0.010524571 -0.084174849 0.15730959
0.010461032 -0.082334459 0.1572237
0.010398388 -0.080493592 0.15713912
0.010335863 -0.07865236 0.1570546
0.010273159 -0.076810792 0.1569699
0.0087760091 -0.075137518 0.15489024
0.0056660175 -0.073640488 0.15056753
0.0025240183 -0.072128981 0.14620024
-0.00064891577 -0.070602596 0.14178997
-0.0038537383 -0.06906116 0.13733542
-0.0070904493 -0.067504406 0.13283658
-0.010359347 -0.065932073 0.12829298
-0.01882267 -0.055177175 0.11653829
-0.017705917 -0.05315432 0.11809409
-0.01659286 -0.051138245 0.11964464
-0.015483558 -0.049128916 0.12119007
-0.014377952 -0.047126301 0.1227302
-0.013275981 -0.045130365 0.12426537
-0.012177765 -0.043141082 0.1257953
-0.011083066 -0.041158404 0.12732023
-0.0099921823 -0.039182317 0.12884003
-0.0089047551 -0.037212782 0.13035476
-0.0078210235 -0.035249759 0.13186455
-0.0067408085 -0.033293214 0.13336939
-0.0056641698 -0.031343121 0.13486922
-0.004591167 -0.029399456 0.13636404
-0.0035216212 -0.027462173 0.13785398
-0.0024555326 -0.025531247 0.13933915
0.00059920549 -0.02353443 0.14358985
0.0032324791 -0.02156942 0.14725435
0.0045807362 -0.019658828 0.14913177
0.0055975318 -0.017765203 0.15054846
0.0062879324 -0.01588553 0.15151107
0.0069158077 -0.014011231 0.15238672
0.0073129535 -0.012144932 0.15294158
0.0075867772 -0.010282908 0.15332496
0.0077421069 -0.0084240241 0.15354353
0.0078207254 -0.0065668263 0.15365529
0.0076858401 -0.0047116303 0.15347028
0.0074815154 -0.0028559556 0.15318859
0.0071504712 -0.00099927874 0.15273082
0.0067167878 0.00085946836 0.15213025
0.0060030222 0.0027219621 0.15114033
0.0052586198 0.0045888191 0.15010762
0.0040430427 0.0064648069 0.14841974
0.0024275184 0.0083530946 0.1461758
-0.0015226603 0.010288171 0.1406852
-0.0027447939 0.012194546 0.13898832
-0.0037512779 0.014103303 0.1375913
-0.0048362613 0.016019842 0.13608503
-0.0059251189 0.017942782 0.13457352
-0.0070174336 0.019872144 0.13305712
-0.0081135035 0.02180797 0.13153565
-0.0092132688 0.023750288 0.13000894
-0.01031667 0.025699133 0.12847716
-0.011423767 0.027654532 0.12694031
-0.012534618 0.029616525 0.1253981
-0.013649225 0.031585142 0.12385094
-0.014767647 0.033560421 0.1222983
-0.015889764 0.035542384 0.12074053
-0.017015755 0.037531082 0.11917746
-0.018145561 0.03952653 0.11760908
-0.019279182 0.04152878 0.1160354
-0.012005508 0.050642055 0.12616265
-0.0089465976 0.052311152 0.13041866
-0.005916059 0.053964831 0.13463521
-0.0029133558 0.055603281 0.13881302
6.2167645e-05 0.057226691 0.1429531
0.0030106306 0.058835302 0.14705545
0.0055403709 0.060466312 0.15057558
0.0054756999 0.062335156 0.1504882
0.0054110885 0.064204365 0.15040088
0.005346179 0.066073969 0.15031314
0.0052811503 0.067943953 0.15022522
0.0052162409 0.069814302 0.15013754
0.010468781 -0.084373862 0.1540603
0.010404766 -0.082529142 0.15397358
0.010340989 -0.080684021 0.15388709
0.010278285 -0.078838415 0.15380204
0.010215402 -0.076992467 0.15371686
0.010152698 -0.075146146 0.15363187
0.0078959465 -0.07355161 0.1504845
0.0047687888 -0.072041459 0.14612234
0.0016118884 -0.07051634 0.14171869
-0.0015774369 -0.068976298 0.13726979
-0.0047994256 -0.067421064 0.13277531
-0.0080522895 -0.065850183 0.12823766
-0.019422591 -0.057291772 0.1123811
-0.016216457 -0.055086046 0.11685848
-0.015105844 -0.053066626 0.11841136
-0.013998926 -0.051053967 0.11995882
-0.012895763 -0.049048036 0.12150109
-0.011796176 -0.047048789 0.12303835
-0.010700405 -0.045056205 0.12457043
-0.0096081495 -0.043070246 0.12609744
-0.0085195899 -0.04109088 0.12761933
-0.0074346066 -0.039118074 0.12913626
-0.0063531995 -0.037151795 0.1306482
-0.0052754283 -0.035192009 0.13215494
-0.0042011738 -0.03323869 0.13365692
-0.0031304359 -0.031291801 0.13515383
-0.0020632148 -0.029351311 0.13664591
-0.0011382699 -0.027423035 0.13793939
-0.00027811527 -0.025502697 0.13914245
0.0020812154 -0.023532905 0.14243776
0.0044960976 -0.021574998 0.14581066
0.0059561133 -0.01966029 0.14785087
0.0069823861 -0.017766062 0.14928573
0.007733047 -0.015884615 0.15033591
0.0084640384 -0.014007973 0.15135872
0.0087670684 -0.012143672 0.15178412
0.0090497136 -0.010281464 0.15218115
0.0092216134 -0.0084223542 0.1524235
0.0091966391 -0.006566246 0.15239125
0.0091717243 -0.0047099995 0.15235901
0.0089515448 -0.0028544564 0.15205425
0.0086212754 -0.00099779246 0.15159583
0.0081940293 0.00086093356 0.15100217
0.0074173212 0.0027236848 0.14992076
0.0065973997 0.004591268 0.14877898
0.0054427385 0.0064670458 0.14717013
0.0036894679 0.0083574122 0.14472586
0.00026220083 0.010284869 0.13994539
-0.00062793493 0.012184131 0.13870567
-0.0015205741 0.01408862 0.13746256
-0.0024155974 0.015998358 0.1362161
-0.0033131242 0.017913373 0.13496608
-0.0043924451 0.019839166 0.13346243
-0.0054821968 0.021771589 0.13194418
-0.0065755844 0.02371048 0.13042092
-0.0076726675 0.025655875 0.12889254
-0.0087733865 0.027607802 0.12735897
-0.0098779202 0.029566301 0.12582028
-0.01098609 0.031531401 0.12427634
-0.012097955 0.033503138 0.12272727
-0.013213754 0.035481542 0.12117285
-0.014333189 0.037466645 0.11961329
-0.015456378 0.039458483 0.11804843
-0.016583443 0.041457091 0.11647826
-0.022765577 0.043793589 0.10785365
-0.012983143 0.048914798 0.12151307
-0.0099081993 0.050598238 0.12580669
-0.0068618655 0.052266061 0.13006049
-0.0038435459 0.053918481 0.13427502
-0.00085282326 0.055555679 0.1384511
0.0021106601 0.057177886 0.14258915
0.0050472021 0.058785312 0.14668965
0.005471468 0.06061342 0.14728421
0.0054066777 0.062486768 0.14719629
0.0053417683 0.064360499 0.14710832
0.0052767396 0.066234611 0.1470201
0.0052115321 0.06810911 0.14693165
0.010348499 -0.082724713 0.15070826
0.010284305 -0.080875248 0.15062082
0.010220408 -0.079025358 0.15053391
0.010157466 -0.077175006 0.15044826
0.010094464 -0.07532429 0.15036261
0.010031581 -0.073473208 0.15027702
0.0070107579 -0.071953863 0.14604801
0.0038662553 -0.07043042 0.14164597
0.0006930232 -0.068891674 0.13720369
-0.002512753 -0.067337811 0.1327157
-0.0057508349 -0.06576848 0.12818271
-0.0090215802 -0.064183459 0.12360382
-0.015266955 -0.057064436 0.11486632
-0.013618648 -0.054995209 0.11717778
-0.012514234 -0.052979223 0.11872733
-0.011413455 -0.050969966 0.12027186
-0.010316312 -0.04896741 0.12181127
-0.0092228651 -0.046971526 0.12334549
-0.0081331134 -0.044982281 0.12487459
-0.0070468783 -0.04299964 0.12639856
-0.0059642792 -0.041023564 0.12791765
-0.0048853159 -0.039054036 0.12943155
-0.0038098097 -0.037091006 0.1309405
-0.0027378798 -0.035134453 0.1324445
-0.0016695261 -0.033184342 0.13394356
-0.00080162287 -0.031250112 0.13516176
5.9604645e-05 -0.029321253 0.13637072
0.00091850758 -0.027397526 0.13757628
0.0017752647 -0.025478903 0.13877887
0.0026295185 -0.023565372 0.13997805
0.0056554675 -0.021584099 0.14421892
0.0071599483 -0.019667009 0.14632875
0.0082435012 -0.01777035 0.1478489
0.0090246797 -0.015887501 0.14894551
0.0096181035 -0.014013311 0.14977932
0.010047734 -0.012145691 0.15038359
0.01038748 -0.010282021 0.15086198
0.010541141 -0.0084227743 0.15107971
0.01051259 -0.0065662786 0.15104234
0.01048404 -0.0047096247 0.15100491
0.010283232 -0.0028535547 0.15072614
0.0098831654 -0.00099659897 0.15016836
0.0093749762 0.0008628479 0.14945912
0.0087478757 0.0027257802 0.14858341
0.0078493953 0.00459436 0.14732754
0.0066723824 0.0064710355 0.1456815
0.0047123432 0.0083648963 0.14293885
0.002371192 0.010276323 0.1396625
0.0014848113 0.012173735 0.13842362
0.00059598684 0.014076362 0.13718134
-0.00029528141 0.01598423 0.13593572
-0.0011889935 0.017897364 0.13468653
-0.0020852685 0.019815778 0.13343388
-0.0029839277 0.021739498 0.13217783
-0.0039470792 0.023670811 0.13083148
-0.0050378442 0.025612766 0.12930644
-0.0061323047 0.027561236 0.12777621
-0.0072303414 0.029516252 0.12624091
-0.0083321929 0.03147785 0.12470037
-0.0094377398 0.033446055 0.1231547
-0.010546863 0.035420902 0.12160385
-0.01165998 0.037402436 0.12004763
-0.012776673 0.039390672 0.11848617
-0.013897181 0.041385654 0.11691958
-0.017301679 0.043537218 0.11215425
-0.01396811 0.047174405 0.1168282
-0.010876954 0.048872359 0.12115997
-0.0078146458 0.050554499 0.12545139
-0.0047807097 0.052221049 0.12970293
-0.0017747283 0.053872205 0.13391542
0.001204133 0.055508159 0.13808984
0.0041565895 0.057129078 0.14222729
0.0054672956 0.058883723 0.14406556
0.0054023862 0.060761224 0.14397711
0.0053372979 0.062639117 0.14388859
0.00527215 0.064517379 0.1437999
0.005206883 0.066396043 0.14371097
0.0051414967 0.068275079 0.14362198
0.010291994 -0.082921229 0.14742732
0.010227621 -0.081067346 0.14733934
0.010163248 -0.07921309 0.14725143
0.010099232 -0.077358425 0.14716405
0.010036111 -0.075503282 0.1470778
0.0099731088 -0.073647775 0.14699167
0.0092447996 -0.071866758 0.14597046
0.0061175227 -0.070344441 0.14157671
0.0029581189 -0.068807252 0.13713789
-0.000233531 -0.067254946 0.13265383
-0.003455162 -0.065687001 0.12812746
-0.0067101121 -0.064103477 0.12355441
-0.0099980235 -0.062504053 0.11893511
-0.019103646 -0.059473027 0.10614008
-0.012131274 -0.056924004 0.11594415
-0.011029303 -0.05490467 0.11749595
-0.0099309683 -0.052892104 0.11904246
-0.0088362694 -0.050886232 0.12058401
-0.0077451468 -0.048887048 0.12212038
-0.0066578388 -0.046894517 0.1236515
-0.005573988 -0.044908591 0.12517774
-0.0044938326 -0.042929254 0.12669879
-0.0034171939 -0.040956471 0.12821484
-0.0023441315 -0.038990203 0.12972581
-0.0013284087 -0.03703348 0.13115633
-0.00046384335 -0.035090875 0.13237423
0.00039857626 -0.033153445 0.13358909
0.0012585521 -0.031221183 0.13480061
0.0021163821 -0.029294057 0.13600898
0.0029717684 -0.027372057 0.137214
0.0038250089 -0.025455149 0.13841593
0.0046759248 -0.023543328 0.13961464
0.0063452721 -0.021609012 0.14196378
0.0082114339 -0.019678434 0.14458954
0.0094034672 -0.017777469 0.14626777
0.010231316 -0.015892513 0.14743394
0.010773063 -0.014018657 0.14819807
0.011289239 -0.012148468 0.14892614
0.011541247 -0.010285535 0.14928293
0.011689901 -0.0084254378 0.14949441
0.011755824 -0.0065670577 0.14958966
0.011639297 -0.004710393 0.14942849
0.011425853 -0.0028534727 0.149131
0.011142552 -0.00099540933 0.14873528
0.010556877 0.00086476409 0.14791453
0.0099346638 0.0027285181 0.14704257
0.008964777 0.0045984676 0.14568174
0.0076553822 0.0064775762 0.14384389
0.0054758191 0.0083758384 0.14078283
0.0044121742 0.010268826 0.13929027
0.0035935044 0.012163359 0.13814217
0.0027083755 0.01406413 0.13690066
0.0018209219 0.015970131 0.13565582
0.00093096495 0.017881386 0.13440752
3.862381e-05 0.01979791 0.13315576
-0.00085633993 0.021719735 0.13190043
-0.0017537475 0.023646878 0.1306417
-0.0026534796 0.025579354 0.12937963
-0.0035557747 0.02751719 0.12811399
-0.004592061 0.029466379 0.12665999
-0.0056875348 0.031424481 0.1251229
-0.0067867041 0.03338917 0.12358063
-0.0078895092 0.035360482 0.12203318
-0.008996129 0.037338451 0.12048036
-0.010106385 0.039323095 0.11892253
-0.011220455 0.041314472 0.11735928
-0.012992203 0.043355666 0.11487168
-0.02185744 0.045895074 0.10241389
-0.011853158 0.047133386 0.11647785
-0.0087746978 0.048830006 0.12080741
-0.0057247877 0.050510839 0.12509674
-0.0027033091 0.05217611 0.12934613
0.00029069185 0.053825997 0.13355684
0.0032574534 0.055460729 0.13772917
0.0054631829 0.057146017 0.14083189
0.0053979754 0.059027698 0.1407429
0.0053328276 0.060909756 0.14065391
0.0052675605 0.062792197 0.14056474
0.0052007437 0.064675167 0.14047343
0.0051363707 0.066558279 0.14038551
0.010170698 -0.081260368 0.14404213
0.010106206 -0.079401672 0.14395368
0.010041595 -0.077542625 0.14386511
0.0099774003 -0.075683147 0.14377713
0.0099142194 -0.073823191 0.14369047
0.0098508596 -0.071962886 0.14360374
0.0083609819 -0.07025893 0.14150429
0.0052165389 -0.068723157 0.1370706
0.0020419359 -0.067172103 0.13259441
-0.0011653304 -0.065605737 0.12807214
-0.0044053197 -0.064023785 0.12350374
-0.007676661 -0.062425844 0.11889106
-0.010982037 -0.060811859 0.11423045
-0.014787257 -0.059223164 0.10886472
-0.0095442533 -0.056830332 0.11626422
-0.0084483027 -0.054814428 0.11781299
-0.0073560476 -0.052805256 0.11935663
-0.0062673688 -0.050802775 0.12089509
-0.0051823854 -0.048806947 0.12242842
-0.0041009784 -0.04681775 0.12395668
-0.0030232072 -0.04483515 0.12547982
-0.0019488931 -0.042859096 0.12699813
-0.00099045038 -0.04089665 0.12835282
-0.00012469292 -0.038945395 0.1295768
0.00073879957 -0.036999349 0.13079751
0.0015998483 -0.035058498 0.13201499
0.0024586916 -0.033122826 0.13322914
0.0033152103 -0.031192305 0.13444006
0.0041694641 -0.029266912 0.13564771
0.0050214529 -0.027346632 0.13685232
0.0058711171 -0.025431441 0.1380536
0.0064891577 -0.023529716 0.13892794
0.0070956945 -0.021632003 0.1397863
0.0089533925 -0.019699425 0.14240956
0.010273814 -0.017792674 0.14427483
0.011177063 -0.015904035 0.14555168
0.011789918 -0.014027064 0.14641881
0.012343228 -0.012154824 0.14720196
0.012576342 -0.010290978 0.1475333
0.012732625 -0.0084295115 0.14775634
0.012860835 -0.0065692551 0.14793974
0.012679756 -0.0047120042 0.14768696
0.01244694 -0.002853923 0.14736098
0.012138844 -0.00099458953 0.14692891
0.011551797 0.00086696912 0.14610338
0.010820687 0.0027326043 0.14507461
0.0098063946 0.0046046111 0.1436463
0.0083280802 0.0064873453 0.14156342
0.0068470836 0.0083787749 0.13947678
0.0062009692 0.010265366 0.13856798
0.0055536628 0.012155763 0.13765746
0.0048168302 0.014051921 0.13662058
0.0039330721 0.015956059 0.13537657
0.0030469298 0.017865438 0.13412905
0.0021582246 0.019780081 0.13287807
0.0012671351 0.02170001 0.13162369
0.00037366152 0.023625245 0.13036585
-0.00052243471 0.02555581 0.1291045
-0.0014209151 0.027491722 0.12783962
-0.0023218989 0.029433008 0.12657136
-0.0032254457 0.031379696 0.12529939
-0.004144907 0.033332486 0.12400502
-0.0052413344 0.035300266 0.12246108
-0.0063415766 0.037274688 0.12091166
-0.0074453354 0.039255757 0.11935729
-0.0085530281 0.041243538 0.11779743
-0.0096644163 0.043238051 0.11623245
-0.012836814 0.045381151 0.11176014
-0.009741962 0.047092427 0.11612827
-0.0066760778 0.048787724 0.12045556
-0.0036386847 0.050467256 0.12474269
-0.00062948465 0.052131251 0.12898999
0.0023525357 0.05377987 0.13319892
0.005307138 0.055413377 0.13736916
0.0053936243 0.057286121 0.13749373
0.0053282976 0.059172373 0.13740426
0.0052630305 0.061058998 0.13731474
0.0051956773 0.062946193 0.13722235
0.0051311255 0.064833507 0.1371339
0.010048807 -0.07959117 0.14064002
0.009984076 -0.077727653 0.14055091
0.0099193454 -0.075863764 0.14046192
0.009855032 -0.07399945 0.14037335
0.009791553 -0.072134674 0.14028609
0.0097281337 -0.070269518 0.14019889
0.0074717402 -0.068639033 0.13700664
0.0043101311 -0.06708964 0.13253266
0.0011181235 -0.065524757 0.12801576
-0.0021050572 -0.063944191 0.12345469
-0.0053613782 -0.062347859 0.11884671
-0.0086506009 -0.060735434 0.11419219
-0.010506868 -0.058975376 0.11156672
-0.0069655776 -0.056736965 0.11658335
-0.0058756471 -0.054724477 0.11812913
-0.004789412 -0.052718692 0.11966974
-0.0037068129 -0.050719582 0.12120515
-0.0026278496 -0.048727103 0.1227355
-0.0015523434 -0.046741229 0.1242609
-0.00065118074 -0.044773698 0.12553948
0.00021559 -0.042813748 0.12676936
0.0010800958 -0.04085904 0.12799597
0.0019423366 -0.038909562 0.12921935
0.0028021932 -0.036965284 0.1304394
0.0036597848 -0.035026193 0.13165617
0.0045151114 -0.033092264 0.13286978
0.0053682327 -0.031163475 0.13408017
0.0062189698 -0.029239811 0.13528728
0.0070255995 -0.027323034 0.13643193
0.0076325536 -0.025418906 0.13729388
0.0082384944 -0.023518389 0.13815433
0.0088430643 -0.021621484 0.13901293
0.0094465613 -0.019728173 0.13986999
0.010923386 -0.017814102 0.14196336
0.011884868 -0.015921542 0.14332724
0.012715816 -0.01403751 0.14450622
0.013120472 -0.012166482 0.14508164
0.013477027 -0.010298612 0.14558911
0.013633311 -0.0084354775 0.14581293
0.013629377 -0.0065749064 0.14580983
0.01358819 -0.0047145896 0.1457541
0.013356268 -0.002854865 0.14542836
0.012931526 -0.00099405646 0.14482963
0.012487829 0.00086927006 0.14420396
0.011510134 0.0027375841 0.14282238
0.010404825 0.0046125813 0.14126009
0.0092746019 0.0064943233 0.13966262
0.0086320043 0.0083762212 0.13875544
0.0079880953 0.010261909 0.13784641
0.0073429346 0.012151399 0.13693559
0.006696403 0.0140447 0.13602287
0.0060409904 0.015942015 0.13509768
0.0051586032 0.017849525 0.13385099
0.0042738318 0.019762287 0.13260096
0.0033864975 0.021680323 0.13134742
0.002496779 0.023603657 0.13009042
0.0016044974 0.025532313 0.12882984
0.00070989132 0.027466301 0.12756598
-0.0001873374 0.029405657 0.12629849
-0.0010869503 0.031350397 0.12502742
-0.0019890666 0.033300545 0.12375295
-0.0028937459 0.035256125 0.12247485
-0.0038010478 0.037217155 0.12119311
-0.0047935843 0.039188653 0.11979049
-0.005894959 0.041172855 0.11823404
-0.0069997907 0.043163754 0.11667258
-0.010716677 0.045341626 0.11141342
-0.0076346397 0.047051553 0.11577916
-0.0045812726 0.04874552 0.12010431
-0.0015563369 0.050423753 0.12438917
0.0014408231 0.052086454 0.12863469
0.0044106245 0.053733829 0.13284159
0.0053892136 0.055536438 0.13422948
0.0053237677 0.0574269 0.13413948
0.0052582622 0.059317745 0.1340493
0.005192697 0.061208978 0.13395905
0.0051270127 0.063100599 0.13386869
-0.0077896714 -0.13600074 0.11196876
-0.0069617629 -0.13390286 0.11314791
-0.0061346292 -0.13181002 0.11432606
0.0099262595 -0.07791359 0.13722068
0.0098614097 -0.076045208 0.13713115
0.009796381 -0.074176468 0.13704139
0.0097320676 -0.072307289 0.13695246
0.0096684098 -0.070437647 0.13686472
0.0096048117 -0.068567649 0.13677686
0.0065746307 -0.067007199 0.13247365
0.003397584 -0.065443821 0.1279617
0.00018829107 -0.063864917 0.12340385
-0.003051877 -0.062270068 0.11880231
-0.0063253641 -0.060659241 0.11415339
-0.0062619448 -0.058729649 0.11424619
-0.0043951869 -0.056643896 0.11690152
-0.003311336 -0.054634817 0.11844414
-0.0022311211 -0.052632406 0.11998183
-0.001181066 -0.05063872 0.12147659
-0.00031071901 -0.048664719 0.12271577
0.00055718422 -0.046696011 0.12395179
0.0014227629 -0.044732589 0.12518436
0.0022860765 -0.04277442 0.1264137
0.0031470656 -0.040821496 0.12763971
0.0040056705 -0.038873788 0.12886244
0.0048620105 -0.03693128 0.13008177
0.005716145 -0.034993939 0.13129807
0.006567955 -0.03306175 0.13251114
0.0074176192 -0.031134699 0.13372093
0.0081710219 -0.029217038 0.13479406
0.0087772608 -0.027310099 0.13565809
0.0093823075 -0.025406782 0.13652039
0.0099862218 -0.023507079 0.13738108
0.010589063 -0.021610975 0.13824022
0.011190653 -0.019718466 0.13909769
0.011545837 -0.017836386 0.13960499
0.012338817 -0.015945474 0.14073426
0.013178647 -0.014058206 0.14193022
0.013735533 -0.01218129 0.14272398
0.014178216 -0.010309503 0.14335549
0.014410555 -0.0084431032 0.1436882
0.014360368 -0.0065809707 0.14361954
0.014310122 -0.0047185505 0.14355069
0.014068544 -0.0028566734 0.14320999
0.013516247 -0.000993817 0.14242786
0.012849987 0.00087246043 0.14148384
0.011980832 0.0027435645 0.1402514
0.011357665 0.0046179527 0.13936865
0.010962665 0.0064936378 0.13880992
0.010415316 0.0083736712 0.13803482
0.0097735524 0.010258456 0.13712555
0.0091304183 0.012147039 0.13621438
0.0084859729 0.014039431 0.13530135
0.0078402758 0.015935645 0.13438654
0.007193327 0.017835688 0.13346994
0.0063852072 0.019744527 0.1323244
0.0055016875 0.021660676 0.13107169
0.0046157837 0.023582112 0.12981552
0.0037273765 0.025508855 0.12855595
0.0028365254 0.027440928 0.12729281
0.001943171 0.029378356 0.12602609
0.0010473728 0.031321157 0.12475604
0.00014901161 0.033269357 0.12348235
-0.00075179338 0.03522297 0.12220514
-0.0016551018 0.037182029 0.12092441
-0.0025609136 0.03914655 0.11964005
-0.0034692883 0.041116558 0.11835217
-0.0043801665 0.043092079 0.1170606
-0.0060174465 0.045123272 0.11473709
-0.005531013 0.047010746 0.11543083
-0.0024902821 0.048703387 0.11975366
0.00052237511 0.050380319 0.12403649
0.0035074353 0.052041739 0.1282801
0.0053848028 0.0537786 0.13094997
0.0053191781 0.055673294 0.13085932
0.0052535534 0.057568371 0.13076872
0.0051878691 0.059463833 0.130678
0.0051220655 0.061359692 0.1305871
0.0050560832 0.063255936 0.13049603
-0.0070862174 -0.1400312 0.10961211
-0.00625664 -0.13792527 0.11079794
-0.0054305792 -0.13582495 0.11197871
-0.0046064258 -0.1337299 0.11315691
-0.00378263 -0.13163982 0.11433446
-0.0029614568 -0.12955512 0.11550838
0.0098031163 -0.076227538 0.13378423
0.0097380877 -0.074354284 0.13369405
0.0096729398 -0.072480656 0.13360375
0.0096084476 -0.070606589 0.13351434
0.0095444918 -0.068732083 0.13342583
0.008831799 -0.066925146 0.13241202
0.0056699514 -0.065363236 0.12790549
0.0024772882 -0.063785709 0.12335503
-0.00074803829 -0.062192485 0.11875796
-0.004006207 -0.060583267 0.11411411
-0.0029144287 -0.058563523 0.11567372
-0.0018330216 -0.056551132 0.11721855
-0.0008405447 -0.054552607 0.11863667
3.0875206e-05 -0.052569769 0.11988205
0.00089997053 -0.050592266 0.12112397
0.0017666221 -0.048620075 0.12236267
0.002630949 -0.046653181 0.12359786
0.0034930706 -0.044691548 0.12482989
0.004352808 -0.042735171 0.12605858
0.0052102208 -0.040784027 0.12728393
0.0060654283 -0.038838085 0.12850612
0.0069183111 -0.036897328 0.12972504
0.007768929 -0.034961738 0.13094068
0.0086172819 -0.033031292 0.13215309
0.0093176365 -0.031113058 0.13315445
0.0099231601 -0.029203301 0.13402051
0.010527492 -0.027297175 0.13488495
0.011130571 -0.025394669 0.13574761
0.011732578 -0.023495777 0.1366086
0.012333453 -0.021600476 0.13746816
0.01276803 -0.019713877 0.13809037
0.01311934 -0.017832177 0.13859397
0.013470352 -0.015952565 0.13909715
0.013820887 -0.014075043 0.13959956
0.01409328 -0.012201091 0.13999063
0.01454711 -0.010325821 0.14064026
0.014723301 -0.0084569054 0.14089411
0.014795899 -0.0065901 0.14100027
0.014662743 -0.0047252337 0.14081293
0.014372051 -0.0028602744 0.14040112
0.013944566 -0.00099379907 0.13979405
0.013738692 0.00087485055 0.13950306
0.013345718 0.0027455497 0.13894534
0.012952268 0.0046185656 0.13838685
0.012558281 0.0064939018 0.13782763
0.012163818 0.0083715636 0.13726765
0.011557221 0.010255004 0.13640535
0.010916173 0.012142683 0.13549381
0.010273933 0.014034165 0.13458061
0.0096302629 0.015929466 0.13366538
0.0089854598 0.017828595 0.13274848
0.0083392859 0.019731561 0.13182974
0.0076128244 0.021641066 0.13079649
0.0067306757 0.02356061 0.12954122
0.0058460236 0.025485449 0.12828237
0.0049589276 0.027415605 0.12702012
0.0040693879 0.02935111 0.1257543
0.0031773448 0.031291977 0.12448502
0.0022829175 0.033238228 0.12321222
0.0013859272 0.035189889 0.12193584
0.00048655272 0.037146978 0.12065601
-0.00041544437 0.039109521 0.11937261
-0.0013200045 0.041077543 0.11808544
-0.0022268891 0.04305106 0.11679494
-0.0037030578 0.045069441 0.11469281
-0.003431201 0.046970014 0.11508304
-0.0004029274 0.048661336 0.11940366
0.0025975704 0.050336953 0.12368459
0.0053803325 0.052012544 0.12765503
0.0053145289 0.053911492 0.12756389
0.0052488446 0.055810817 0.12747282
0.0051829815 0.057710528 0.12738156
0.0051171184 0.059610631 0.12729025
0.0050510168 0.06151114 0.12719864
-0.0055522919 -0.1419583 0.10843837
-0.0047246814 -0.13984993 0.10962576
-0.0038993955 -0.13774696 0.11080974
-0.003077507 -0.13564959 0.11198884
-0.0022563338 -0.13355723 0.11316693
-0.0014365315 -0.13147004 0.11434305
-0.00062119961 -0.12938857 0.11551291
-0.002040267 -0.12775142 0.11348426
0.0097445846 -0.076410741 0.1304211
0.0096793771 -0.074532971 0.13033032
0.0096140504 -0.072654806 0.13023955
0.0095488429 -0.070776269 0.13014883
0.0094840527 -0.068897307 0.13005871
0.0094200969 -0.067017876 0.12996984
0.0079385042 -0.065282673 0.12785184
0.0047594905 -0.063706823 0.12330449
0.001549542 -0.06211514 0.11871284
-0.0016921163 -0.06050742 0.11407584
-0.00049871206 -0.058480643 0.11578661
0.00037378073 -0.056488927 0.11703795
0.0012439489 -0.054502577 0.11828601
0.002111733 -0.052521572 0.1195308
0.0029771924 -0.05054589 0.12077206
0.0038403869 -0.048575513 0.12201011
0.0047011375 -0.046610419 0.12324476
0.0055596828 -0.044650581 0.12447608
0.006415844 -0.042695995 0.12570411
0.0072697997 -0.040746614 0.12692893
0.0081214905 -0.038802445 0.12815046
0.0089708567 -0.036863443 0.12936866
0.0098180175 -0.034929596 0.13058376
0.010465562 -0.03301109 0.13151318
0.011070251 -0.031098513 0.13238126
0.011673748 -0.029189577 0.13324755
0.012276113 -0.027284266 0.1341123
0.012877345 -0.025382569 0.13497537
0.013477504 -0.023484478 0.13583684
0.013991177 -0.021592882 0.13657457
0.014341891 -0.01970938 0.13707924
0.014692426 -0.017827969 0.13758337
0.015042424 -0.015948649 0.13808692
0.015392005 -0.014071417 0.1385898
0.015545785 -0.012200013 0.13881242
0.015647411 -0.010330368 0.13896054
0.015749037 -0.0084613329 0.13910848
0.015850544 -0.006592907 0.13925648
0.015738189 -0.0047266558 0.13909823
0.015592933 -0.0028598891 0.13889295
0.015447736 -0.0009922703 0.13868779
0.01530242 0.00087620073 0.13848233
0.014938653 0.0027465094 0.13796437
0.014546275 0.0046191774 0.13740546
0.014153242 0.0064941668 0.13684559
0.013759911 0.0083714789 0.13628519
0.013339162 0.010251557 0.13568574
0.01270026 0.012138333 0.13477397
0.012060106 0.014028906 0.13386047
0.011418641 0.015923293 0.13294506
0.010775805 0.017821508 0.1320278
0.010131836 0.019723553 0.13110876
0.0094863772 0.021629453 0.13018775
0.0088397264 0.02353921 0.12926495
0.0079604983 0.025462087 0.12800938
0.0070772767 0.027390333 0.12674797
0.0061915517 0.029323917 0.1254831
0.0053033233 0.031262852 0.12421465
0.0044127703 0.033207159 0.12294275
0.0035195351 0.035156868 0.12166721
0.0026239157 0.037111994 0.12038821
0.0017259121 0.039072562 0.1191057
0.00082528591 0.041038595 0.11781961
-7.7903271e-05 0.043010123 0.11652982
-0.0014510751 0.045019694 0.1145674
-0.001335144 0.046929352 0.1147359
0.0016807914 0.048619352 0.11905438
0.0046690106 0.050293665 0.12333333
0.0053099394 0.052141424 0.12425309
0.0052440166 0.054045029 0.12416142
0.0051780939 0.05594901 0.12406963
0.005112052 0.057853386 0.12397778
0.0050459504 0.059758157 0.12388593
-0.0040184855 -0.14388533 0.1072647
-0.0031927228 -0.14177454 0.10845357
-0.002369225 -0.13966911 0.10963941
-0.0015483499 -0.13756914 0.11082125
-0.0007302165 -0.13547462 0.11199933
8.7618828e-05 -0.13338503 0.11317688
0.00090163946 -0.13130106 0.11434895
0.0017130971 -0.12922245 0.11551738
0.0011603236 -0.12741762 0.11472589
-0.0015394688 -0.12602638 0.11085016
0.0096203089 -0.074712522 0.12695026
0.0095549226 -0.072829805 0.12685901
0.0094895363 -0.070946716 0.12676764
0.0094240308 -0.069063254 0.12667626
0.0093591809 -0.067179345 0.12658566
0.0092951059 -0.065294981 0.12649626
0.0070368052 -0.063628063 0.12325501
0.0038427114 -0.06203787 0.11866957
0.00061547756 -0.060431834 0.1140365
0.00097340345 -0.058482669 0.11455333
0.0024580359 -0.056437153 0.11668861
0.0033245683 -0.054452643 0.1179359
0.0041888952 -0.052473459 0.11918008
0.0050507188 -0.050499599 0.12042069
0.005910337 -0.048531033 0.12165803
0.0067676306 -0.046567734 0.1228922
0.0076226592 -0.044609692 0.12412292
0.0084753036 -0.04265688 0.12535024
0.0093257427 -0.040709276 0.12657452
0.010173917 -0.038766865 0.1277954
0.011009574 -0.036830209 0.1289984
0.011614621 -0.034911148 0.12987012
0.012218595 -0.032995746 0.13074011
0.012821317 -0.031083988 0.13160855
0.013422966 -0.029175861 0.13247538
0.014023364 -0.027271364 0.13334042
0.014622748 -0.025370477 0.13420385
0.015215337 -0.023473401 0.13505769
0.015565574 -0.021588093 0.13556331
0.015915394 -0.019704882 0.1360684
0.016264915 -0.017823763 0.13657302
0.01661402 -0.015944734 0.13707697
0.016940653 -0.014068279 0.1375488
0.017042041 -0.012198094 0.13769704
0.017143488 -0.010328516 0.13784534
0.017244816 -0.0084595494 0.13799351
0.017346203 -0.0065911887 0.13814163
0.017240524 -0.0047249557 0.13799256
0.017095625 -0.0028582748 0.13778704
0.016950727 -0.00099074177 0.13758159
0.016805887 0.00087764359 0.13737607
0.016530871 0.0027474693 0.13698363
0.016139627 0.0046197902 0.1364243
0.015747726 0.0064944308 0.13586402
0.015355349 0.0083713951 0.13530308
0.014962614 0.010250685 0.13474154
0.014482617 0.012133986 0.13405478
0.013844609 0.014023651 0.13314104
0.013205171 0.015917128 0.13222533
0.01256454 0.017814426 0.13130778
0.011922538 0.019715557 0.13038838
0.011279285 0.021620534 0.12946707
0.01063472 0.023529362 0.12854403
0.009988904 0.025442064 0.12761903
0.0091914535 0.027365113 0.12647635
0.0083094835 0.029296776 0.12521225
0.0074251294 0.031233782 0.12394476
0.0065382719 0.033176154 0.12267375
0.0056489706 0.035123914 0.1213991
0.0047572255 0.037077077 0.120121
0.003862977 0.039035674 0.11883932
0.0029662251 0.040999733 0.11755401
0.0020669699 0.04296926 0.11626524
0.00029581785 0.045004938 0.11372417
0.0007570982 0.046888769 0.11438936
0.0037613511 0.048577394 0.11870664
0.0053052902 0.050363049 0.12092668
0.0052391887 0.052270949 0.12083435
0.0051731467 0.054179221 0.1207422
0.0051070452 0.056087881 0.12064987
0.0050408244 0.05799694 0.12055743
0.0049744248 0.059906401 0.1204648
-0.0016608834 -0.14369909 0.10728145
-0.000839293 -0.14159125 0.10846877
-1.9669533e-05 -0.13948874 0.10965312
0.00079667568 -0.13739179 0.11083281
0.0016118288 -0.13529995 0.11201078
0.0024245381 -0.13321349 0.11318511
0.0032339692 -0.13113251 0.11435491
0.0040417314 -0.12905671 0.11552215
0.0028537512 -0.12738007 0.11381197
0.0013747811 -0.12575302 0.1116823
-0.0010368824 -0.1242959 0.10820806
-0.0037721992 -0.12288556 0.10426706
0.0094954967 -0.073005661 0.1234619
0.009429872 -0.071117997 0.12336999
0.0093643069 -0.06922996 0.12327802
0.0092986226 -0.067341529 0.12318605
0.0092336535 -0.065452658 0.12309498
0.0091693997 -0.063563339 0.12300491
0.0061290264 -0.06196091 0.11862463
0.002918303 -0.060356349 0.11399859
0.0032337904 -0.058413304 0.11445612
0.0045386553 -0.056385461 0.11633986
0.0054016113 -0.054402791 0.11758655
0.0062622428 -0.052425437 0.11882991
0.0071206093 -0.050453395 0.12006992
0.0079766512 -0.048486628 0.12130672
0.0088304281 -0.046525128 0.12254012
0.0096819401 -0.04456887 0.12377024
0.010531127 -0.042617835 0.12499714
0.011378109 -0.040671993 0.12622076
0.012160659 -0.038735121 0.12735146
0.01276499 -0.036813226 0.12822533
0.013368189 -0.034894984 0.1290974
0.013970077 -0.032980409 0.12996781
0.014570892 -0.031069471 0.13083655
0.015170693 -0.029162157 0.13170373
0.015769243 -0.027258471 0.13256913
0.016366601 -0.025358396 0.13343298
0.016790092 -0.023468323 0.13404608
0.017139494 -0.021583308 0.13455236
0.01748848 -0.019700386 0.13505793
0.017836988 -0.017819559 0.13556302
0.018185139 -0.015940819 0.13606757
0.018437088 -0.014066294 0.13643324
0.018538237 -0.012196176 0.13658178
0.018639445 -0.010326665 0.13673019
0.018740535 -0.0084577641 0.13687855
0.018841684 -0.0065894709 0.13702691
0.018742859 -0.004723256 0.13688701
0.018598258 -0.0028566609 0.13668126
0.018453717 -0.00098921335 0.13647544
0.018309176 0.00087908644 0.13626969
0.018122673 0.0027484284 0.13600349
0.017732382 0.0046204026 0.13544351
0.017341554 0.0064946944 0.13488281
