# .PCD v0.7 - Point Cloud Data file format
VERSION 0.7
FIELDS x y z rgb
SIZE 4 4 4 4
TYPE F F F U
COUNT 1 1 1 1
WIDTH 1041
HEIGHT 1
VIEWPOINT 0 0 0 1 0 0 0
POINTS 1041
DATA ascii
-0.018189713 0.044153824 0.013167509 12354949
-0.017962437 0.04569035 0.013051092 11505551
-0.017792821 0.047245383 0.012669115 10523796
-0.017848777 0.048874401 0.011247433 9473678
-0.018051922 0.050557114 0.0091434 10064016
-0.017797984 0.052092668 0.0091442177 10982291
-0.017544368 0.053628329 0.0091435695 9275785
-0.017288622 0.055163242 0.0091527253 6973801
-0.017039044 0.056700356 0.0091334004 8618883
-0.01678912 0.058237419 0.0091155367 8618883
-0.016696809 0.059834458 0.0083652213 8421504
-0.018538691 0.062185731 -0.0013870005 7829367
0.012218996 0.18181106 0.046663228 7500145
0.012794345 0.18288676 0.048401613 5262669
0.012834023 0.18460007 0.047337171 3815737
-0.036493011 -0.069479235 0.0082405834 5855063
-0.036713447 -0.06806206 0.0062372894 8353655
-0.036458306 -0.066522278 0.0062403409 11897482
-0.036203153 -0.064982504 0.0062434529 9735051
-0.034646902 -0.063143134 0.011761619 9538443
-0.034147449 -0.061557829 0.012808075 9670029
-0.033829506 -0.060015231 0.013085837 9932687
-0.033560384 -0.058483768 0.013156537 10260624
-0.033307906 -0.056955911 0.013156532 12222849
-0.033055406 -0.055428047 0.013156584 9997966
-0.032802928 -0.053900186 0.013156581 8223868
-0.032550439 -0.052372318 0.013156638 8355711
-0.032297961 -0.050844457 0.013156633 10785940
-0.032045446 -0.049316596 0.013156807 10588818
-0.031792887 -0.047788728 0.013157092 9735822
-0.031540409 -0.046260867 0.013157088 9866894
-0.031287927 -0.044733007 0.013157084 11700874
-0.031035531 -0.043205157 0.013156791 12222335
-0.030823346 -0.041682601 0.012983049 11505551
-0.030647809 -0.040164039 0.012650801 10720404
-0.030395063 -0.038635306 0.012651325 9013127
-0.030142309 -0.037106574 0.01265191 10392210
-0.029889688 -0.035577856 0.012651905 10982034
-0.029707164 -0.034055848 0.012347927 9538700
-0.029523475 -0.032532714 0.012048237 7565938
-0.033795401 -0.031370286 -0.0076222722 5131854
-0.01698002 -0.027158834 0.063407324 4605510
-0.016738981 -0.025716128 0.063418902 5592405
-0.016497962 -0.024273459 0.063430481 6184542
-0.016256936 -0.022830833 0.063442051 6118749
-0.016015938 -0.021388244 0.06345357 6653258
-0.015774919 -0.019945696 0.0634652 7193136
-0.015533919 -0.018503185 0.063476712 10741619
-0.015292933 -0.017060716 0.06348829 16053973
-0.015051953 -0.015618286 0.063499808 16758711
-0.014810959 -0.014175893 0.063511439 16757683
-0.014569993 -0.01273354 0.063522957 16758197
-0.014329026 -0.011291227 0.063534528 16771304
-0.014088065 -0.0098489523 0.063546106 16776958
-0.013847104 -0.0084067183 0.063557677 16777215
-0.013606179 -0.0069645229 0.063569136 16777215
-0.013435555 -0.0055191838 0.063268565 16777215
-0.013504087 -0.0040601841 0.061904136 16777215
-0.013572845 -0.0025964917 0.06053536 16777215
-0.013641816 -0.0011280837 0.059162173 16776958
-0.013711033 0.00034506392 0.057784528 14548170
-0.013780444 0.0018229699 0.056402463 8771164
-0.013850101 0.0033056617 0.055015881 6143532
-0.013919978 0.0047931597 0.053624827 6012978
-0.013990073 0.0062854881 0.052229311 8443731
-0.014060416 0.0077826725 0.05082915 10217323
-0.014130955 0.0092847301 0.049424518 11531132
-0.014201749 0.010791693 0.048015248 10348394
-0.014272774 0.012303581 0.046601392 8377675
-0.014344031 0.01382042 0.045182895 8312394
-0.014415526 0.015342234 0.043759689 7983689
-0.014487239 0.016869044 0.042331904 9823845
-0.014559194 0.018400878 0.040899418 9101659
-0.014631395 0.019937761 0.039462171 7590724
-0.014703839 0.02147972 0.038020164 9494111
-0.014776499 0.023026772 0.036573451 10345066
-0.014849422 0.024578953 0.035121862 8832343
-0.014922567 0.026136279 0.033665575 8106574
-0.019672288 0.028713463 0.010859502 8105294
-0.019285297 0.030215099 0.011471331 10850642
-0.019043155 0.03174834 0.011421838 8290140
-0.018800955 0.033281744 0.011372461 4933704
-0.01855875 0.034815319 0.011323028 8091511
-0.018379053 0.036365151 0.010986376 9143942
-0.018670505 0.038041282 0.0084815649 9407371
-0.01827798 0.03953911 0.0091205463 9341578
-0.017347066 0.040882915 0.012244052 8816005
-0.016934969 0.042366099 0.012979951 9013384
-0.016688596 0.043896098 0.012951438 10916755
-0.016473012 0.04543563 0.012780407 10916241
-0.016434146 0.04703141 0.01178966 10326931
-0.016751435 0.048745807 0.0091431476 9342092
-0.016497912 0.050280508 0.0091427937 10326674
-0.016244074 0.0518151 0.0091438452 11178385
-0.015989982 0.053349607 0.0091461353 8289404
-0.015736297 0.054884244 0.0091464808 7171437
-0.015486009 0.056420121 0.0091310227 8553090
-0.015296404 0.057978708 0.0088315662 8618883
-0.015414484 0.05965583 0.0070900503 8289918
0.013474537 0.17996618 0.046781972 8750469
0.014617565 0.18036531 0.051528037 5985364
0.015087808 0.18155344 0.052735005 4473410
0.015208594 0.18316029 0.052097194 4538946
0.014580755 0.18568534 0.047492001 4933961
0.015020239 0.18868198 0.047246497 4013116
0.01568847 0.18961795 0.04950944 3158064
-0.035172664 -0.071215488 0.0082750982 10461087
-0.034753192 -0.069637068 0.0089795692 7302766
-0.035145838 -0.068267033 0.0062304069 7170666
-0.034890857 -0.066728182 0.0062333974 11702159
-0.034635879 -0.065189339 0.0062364535 8355454
-0.034380905 -0.063650504 0.0062395101 7566195
-0.032737039 -0.061797835 0.01218031 7566195
-0.032327358 -0.060234856 0.012852673 7566195
-0.032014985 -0.058694698 0.013109669 7960953
-0.031751733 -0.057165463 0.013156475 12353150
-0.031499404 -0.055638537 0.013156533 11895426
-0.031247079 -0.054111607 0.013156529 9670286
-0.03099462 -0.052584659 0.013157113 7895160
-0.030742237 -0.051057726 0.013157343 7565938
-0.030489912 -0.0495308 0.013157339 8355711
-0.030237589 -0.048003882 0.013157335 10849934
-0.029985273 -0.04647696 0.01315727 12287100
-0.029733008 -0.044950046 0.013157032 12287357
-0.029480685 -0.04342312 0.013157029 11111821
-0.029261721 -0.041900665 0.013012116 8750212
-0.029092446 -0.040384006 0.012650847 7697781
-0.028839825 -0.038856208 0.012651488 7631988
-0.028587323 -0.037328422 0.012651661 10456975
-0.028334856 -0.035800643 0.012651658 12287614
-0.028174246 -0.03428182 0.012250278 12286586
-0.027987024 -0.032759249 0.011964406 9275014
-0.028037734 -0.031255454 0.010635542 5000011
-0.0155062 -0.027372977 0.063439436 6184542
-0.015265323 -0.025931206 0.063451074 6052956
-0.015024481 -0.024489479 0.0634626 6055762
-0.014783638 -0.023047784 0.063474186 8038740
-0.014542809 -0.021606131 0.063485704 10870903
-0.014301986 -0.020164518 0.06349723 14221239
-0.014061161 -0.018722942 0.063508809 16777209
-0.013820352 -0.017281409 0.063520335 16775673
-0.013579527 -0.015839912 0.063531913 16502735
-0.01333873 -0.014398457 0.063543431 16040893
-0.013097933 -0.012957039 0.063555017 16760253
-0.013016989 -0.011513431 0.062855065 16375004
-0.01308484 -0.010064238 0.061490152 16512501
-0.013152921 -0.0086103836 0.060120892 16776701
-0.013221207 -0.0071518477 0.058747217 16777215
-0.01328971 -0.0056886049 0.057369132 16777215
-0.013358461 -0.0042206356 0.05598646 16777215
-0.013427405 -0.0027479145 0.054599497 16777215
-0.013496598 -0.0012704174 0.053207885 16776701
-0.013565999 0.00021187353 0.051811803 16706796
-0.01363564 0.0016989899 0.050411198 12249245
-0.013705489 0.0031909472 0.04900606 8965471
-0.013775565 0.0046877721 0.047596335 8111699
-0.013845882 0.0061894907 0.046181966 8768605
-0.013916438 0.0076961266 0.04476295 9951085
-0.013987216 0.0092077013 0.043339286 9031008
-0.014058226 0.010724241 0.04191098 10214002
-0.014129476 0.012245771 0.040477909 10739833
-0.01420095 0.013772312 0.039040189 10542710
-0.014272657 0.015303891 0.037597708 10148722
-0.014344608 0.016840536 0.036150463 11330947
-0.014416806 0.01838227 0.034698401 10940025
-0.014489233 0.019929117 0.033241507 10481769
-0.014561898 0.021481102 0.031779792 7787330
-0.014634811 0.023038253 0.030313265 5420321
-0.01470797 0.024600597 0.02884179 4762136
-0.014781369 0.026168156 0.027365373 4301331
-0.0181781 0.028463265 0.010595985 5285412
-0.017747074 0.029954407 0.01141584 10463332
-0.017491177 0.031483561 0.011430068 7381327
-0.017249066 0.033016004 0.011380665 8672331
-0.017006928 0.03454861 0.011331261 10443868
-0.016797518 0.036089834 0.01113019 12088179
-0.016877364 0.037708793 0.009587436 11959163
-0.016725244 0.039269548 0.0091176042 11960705
-0.016084794 0.040693913 0.010916582 10128781
-0.015555636 0.042144265 0.012202212 7829367
-0.015287282 0.043668088 0.012275659 7829367
-0.015119886 0.045222707 0.011878163 7829367
-0.015452592 0.046936736 0.0091426969 7895160
-0.01519926 0.048470505 0.0091421651 7895160
-0.014945783 0.050004229 0.0091422778 9013384
-0.014692456 0.051538009 0.0091416854 10326160
-0.014437465 0.053071205 0.0091489134 8024947
-0.014186174 0.054605704 0.0091387331 10918811
-0.013948897 0.056145366 0.0090625724 10918554
-0.01386809 0.057743959 0.0082482966 10786711
-0.016067248 0.060219549 -0.0033351069 10656153
0.014702113 0.17815478 0.046762198 12038063
0.015782595 0.17862915 0.051212538 8420219
0.01644204 0.1795904 0.053435709 7692127
0.016895469 0.18079193 0.054567609 4998983
0.01717018 0.18220709 0.054749031 6905181
0.016953925 0.18422635 0.052306794 6183000
0.016204033 0.18691888 0.047000472 6380122
0.017354127 0.18725079 0.051864475 6379865
0.018028352 0.18816465 0.054188091 5262155
0.018309351 0.18957068 0.054404154 5985878
-0.033582989 -0.071410544 0.0083844149 10395294
-0.033160891 -0.06983202 0.0091062123 8750469
-0.033579931 -0.068471707 0.00622431 4999497
-0.033325311 -0.066933826 0.0062264837 11505294
-0.03307049 -0.065395921 0.0062295403 8158332
-0.032815646 -0.063858017 0.0062326523 7434609
-0.031685974 -0.062120091 0.010003761 7500402
-0.030877061 -0.060465571 0.012400704 7434609
-0.030509671 -0.058913622 0.012897238 7960696
-0.030200213 -0.057375323 0.013144562 12287614
-0.029945062 -0.055848721 0.013157445 12219508
-0.029692877 -0.054322723 0.013157563 11893884
-0.029440716 -0.052796744 0.013157498 10914699
-0.02918854 -0.051270753 0.013157555 8618626
-0.028936371 -0.049744766 0.013157551 7368816
-0.028684208 -0.048218779 0.013157486 7960696
-0.028432077 -0.046692796 0.013157304 8420990
-0.028179906 -0.045166809 0.0131573 8487040
-0.027927738 -0.043640822 0.013157296 8158332
-0.027702972 -0.042118557 0.013037427 7697781
-0.027538976 -0.040603705 0.012650985 7434609
-0.027286567 -0.039076846 0.012651392 7434609
-0.027034264 -0.037550002 0.012651327 10391439
-0.026781974 -0.036023159 0.012651267 9866894
-0.026743522 -0.03451756 0.011709673 10784141
-0.026563156 -0.03299576 0.011391376 9077892
-0.026563784 -0.031488214 0.010273487 5066061
-0.013793601 -0.02614601 0.063483104 9410916
-0.013552926 -0.024705214 0.063494638 11719552
-0.013312252 -0.023264455 0.063506223 14215339
-0.013071605 -0.021823734 0.063517757 16772831
-0.012830943 -0.020383056 0.063529342 16710908
-0.012590316 -0.018942414 0.063540816 16777215
-0.012598505 -0.017506162 0.062441755 15334895
-0.012665695 -0.016066771 0.061076302 15332839
-0.012733084 -0.014622752 0.059706554 16381428
-0.012800684 -0.013174081 0.058332387 16770019
-0.012868513 -0.011720738 0.056953754 16438484
-0.012936567 -0.0102627 0.055570647 16375004
-0.013004835 -0.0087999413 0.054183129 16709623
-0.013073314 -0.0073324456 0.052791074 16777215
-0.013142028 -0.0058601834 0.051394492 16777215
-0.013210974 -0.0043831314 0.049993381 16777215
-0.013280119 -0.0029012719 0.048587736 16777215
-0.013349494 -0.0014145769 0.047177497 16776444
-0.013419125 7.6980017e-05 0.045762558 16767963
-0.013488959 0.0015734166 0.044343084 15982795
-0.013559027 0.003074758 0.042918902 11978624
-0.013629324 0.0045810314 0.041490134 10402147
-0.013699854 0.0060922587 0.040056597 9810783
-0.013770606 0.0076084635 0.038618349 10139235
-0.013841611 0.009129676 0.037175339 11124850
-0.013912817 0.010655912 0.035727616 12176000
-0.013984297 0.012187205 0.034275014 12043385
-0.014056011 0.013723578 0.032817584 11716216
-0.014127928 0.015265049 0.031355444 12767621
-0.014200119 0.016811656 0.029888308 13490575
-0.014272547 0.018363418 0.028416347 11332733
-0.014345208 0.019920358 0.026939439 6473521
-0.014418104 0.021482503 0.025457647 5159195
-0.014491265 0.023049887 0.023970796 4960538
-0.014564654 0.024622526 0.022479061 6403639
-0.014638286 0.026200451 0.020982262 4367636
-0.016684867 0.028213229 0.010332644 5285923
-0.016213872 0.029694751 0.011345079 8565592
-0.015941137 0.031219117 0.011438283 10202728
-0.015699094 0.032750588 0.011388909 5864755
-0.015457025 0.03428223 0.011339535 6903896
-0.015234934 0.035819214 0.011196709 10060161
-0.015217793 0.037411425 0.010095707 8026746
-0.015174418 0.039000317 0.0091146361 8289661
-0.014915434 0.04053155 0.0091412282 8026746
-0.014574411 0.042038735 0.0095528476 7566195
-0.014131238 0.043513786 0.010445469 7763574
-0.014155675 0.045129977 0.0091406275 7829367
-0.013902159 0.046662707 0.0091416836 7895160
-0.013648989 0.048195541 0.0091410913 7895160
-0.013395543 0.049728289 0.0091417925 9079177
-0.013142131 0.051261049 0.0091423169 10979721
-0.012886849 0.052793145 0.0091517279 10187635
-0.01263792 0.054327492 0.0091310712 12161939
-0.012466914 0.055890579 0.0087403348 11833231
-0.012963859 0.057706513 0.0051727062 11767952
0.015926022 0.17634813 0.046730574 13343129
0.016923277 0.17692205 0.050769899 13476000
0.017544623 0.17792962 0.05280583 9336181
0.018059071 0.17905807 0.054273903 8018779
0.018505983 0.18026289 0.055383138 7167325
0.018805828 0.18164408 0.055703666 7888992
0.018944815 0.18322359 0.05515746 6182486
0.018518552 0.18551312 0.051555876 6314072
0.019512616 0.18602324 0.055628154 6576730
0.019930668 0.18725064 0.056591511 6839902
0.020220967 0.18863833 0.056864493 5393227
-0.032124519 -0.071640544 0.0079384744 11315625
-0.031628717 -0.070042074 0.0089836139 10327959
-0.031345256 -0.068502091 0.0091143241 5657684
-0.031760678 -0.067138985 0.0062237717 11110536
-0.031506147 -0.065602049 0.0062262393 7960953
-0.031251647 -0.064065121 0.0062285904 7434609
-0.030997247 -0.062528223 0.0062305303 7368816
-0.029795187 -0.060778797 0.01034964 7368816
-0.029123025 -0.059157908 0.012173784 7500402
-0.028720967 -0.057599727 0.012826008 8815491
-0.028404634 -0.056061078 0.013106107 8946820
-0.028140767 -0.054533619 0.013157738 8946820
-0.027888751 -0.053008568 0.013157734 8683905
-0.027636737 -0.051483516 0.01315773 8289661
-0.027384751 -0.049958467 0.01315761 9209221
-0.027132737 -0.048433416 0.013157605 9406343
-0.02688073 -0.04690836 0.01315754 8552576
-0.026628714 -0.045383308 0.013157536 9341064
-0.0263767 -0.043858256 0.013157533 9275271
-0.026140997 -0.042335451 0.013085636 7829367
-0.025987398 -0.040823136 0.012651086 7171437
-0.02574184 -0.039298035 0.012621937 7171437
-0.025501095 -0.037773397 0.012571415 8421247
-0.025268622 -0.036249492 0.012484088 8026489
-0.025617938 -0.034784175 0.0098155765 10259596
-0.025473442 -0.033263635 0.0093338015 8748927
-0.025673918 -0.03177128 0.0073166359 6380893
-0.012323775 -0.02636053 0.063515164 12958325
-0.012113869 -0.024922395 0.063389979 15193771
-0.012180151 -0.023497377 0.062028456 16767190
-0.01224665 -0.022067782 0.060662583 16768477
-0.012313347 -0.020633591 0.059292346 16644087
-0.012380282 -0.019194784 0.057917636 15400944
-0.01244743 -0.017751336 0.056538511 15990521
-0.012514786 -0.016303223 0.055154972 16777215
-0.012582363 -0.014850427 0.053766895 16777215
-0.012650141 -0.013392921 0.0523744 16775673
-0.012718174 -0.011930683 0.050977256 16770790
-0.012786409 -0.010463691 0.049575638 16763337
-0.012854856 -0.0089919232 0.048169546 16773617
-0.012923553 -0.0075153518 0.046758745 16777215
-0.012992447 -0.0060339565 0.045343406 16777215
-0.013061577 -0.0045477138 0.043923415 16777215
-0.013130927 -0.0030566 0.042498775 16777215
-0.013200512 -0.0015605895 0.041069418 16776701
-0.013270342 -5.96547e-05 0.03963536 16772589
-0.013340387 0.0014462203 0.038196586 16770019
-0.013410654 0.0029570644 0.036753103 14531988
-0.01348117 0.0044729044 0.035304792 10733424
-0.013551902 0.0059937602 0.033851769 9485920
-0.013622881 0.0075196619 0.032393862 9289315
-0.013694096 0.0090506319 0.030931124 10604149
-0.013765552 0.010586696 0.0294635 10406514
-0.013837221 0.012127875 0.027991043 12890738
-0.013909163 0.013674205 0.026513588 12705677
-0.013981312 0.015225701 0.025031298 12445580
-0.014053731 0.016782397 0.02354395 10343792
-0.014126377 0.018344315 0.022051653 6997569
-0.01419928 0.019911483 0.020554356 5027867
-0.014272415 0.021483924 0.019051988 4830489
-0.014345804 0.02306167 0.01754456 6667064
-0.014419432 0.024644744 0.016032066 8894807
-0.014493333 0.026233176 0.014514395 7386953
-0.01520706 0.027966507 0.010001888 6598457
-0.014683249 0.029435588 0.011269897 9810013
-0.014395727 0.030955633 0.011433818 10855258
-0.014151049 0.032485507 0.011397133 7841606
-0.013909025 0.034016177 0.011347843 5001783
-0.013674607 0.035548992 0.0112627 7497061
-0.013597599 0.037124258 0.010435645 6513507
-0.013625476 0.038731415 0.0091116317 7105644
-0.013366396 0.040261634 0.0091396561 6842472
-0.01311239 0.041793246 0.009143712 6908265
-0.012859846 0.043325279 0.0091408808 7763574
-0.012606921 0.044857204 0.0091398768 7829367
-0.012353594 0.046389006 0.009140756 7895160
-0.012100551 0.047920901 0.0091402801 7960953
-0.011847501 0.049452789 0.0091398647 8421504
-0.011593269 0.050984275 0.0091451043 8289147
-0.011339336 0.052515849 0.0091488669 6315614
-0.011128179 0.05406284 0.0089481333 9802643
-0.011070002 0.055667073 0.0080145644 9539728
-0.013591334 0.058249805 -0.0052866475 9342349
0.015848221 0.1743048 0.041010313 10855845
0.016746668 0.17501505 0.04453437 11775405
0.018044626 0.17523792 0.050224263 12102828
0.018649653 0.17626587 0.052187603 12300464
0.019147327 0.1774153 0.053575963 10853018
0.019592876 0.1786225 0.054686174 7099990
0.020014647 0.17985442 0.055670612 7757920
0.020357497 0.1811801 0.056229036 5788499
0.020576494 0.18265836 0.056114983 4210495
0.020583784 0.18440418 0.054846257 4407874
0.021041472 0.18558197 0.056033067 4539203
0.021394666 0.18688902 0.056652147 4736839
0.021688465 0.18827049 0.056947667 4276288
-0.030185342 -0.070275456 0.0084815836 12168364
-0.029790808 -0.068706319 0.0090966197 7301995
-0.029534809 -0.067174554 0.0091096964 7302509
-0.029279266 -0.065642945 0.0091208285 8289918
-0.029025374 -0.064111769 0.0091247736 9931402
-0.028771773 -0.062580667 0.0091274194 9735308
-0.028518159 -0.061049584 0.0091301864 7303023
-0.028264698 -0.059518542 0.0091322437 7303023
-0.027383821 -0.057854071 0.011887458 7303023
-0.026960192 -0.056292579 0.012640536 7237230
-0.026622685 -0.054750629 0.013016663 7237230
-0.026338696 -0.053220138 0.01315794 7171437
-0.026086835 -0.051696017 0.013157935 7565938
-0.025834996 -0.050171904 0.013157875 9143685
-0.025583144 -0.048647784 0.013157811 9537415
-0.025331283 -0.047123667 0.013157806 8552576
-0.025079424 -0.045599546 0.013157803 9865609
-0.02482756 -0.044075422 0.013157799 10716292
-0.024584996 -0.042552605 0.013116492 9405829
-0.02451257 -0.041052226 0.012318337 8749698
-0.024520971 -0.039559335 0.011158127 7763574
-0.024825532 -0.038097516 0.0086743962 6974058
-0.024793824 -0.036590274 0.0076858774 6974058
-0.025278423 -0.035132967 0.0043867272 9996938
-0.025300598 -0.033620436 0.0031491613 9665403
-0.02557344 -0.032125875 0.00078509323 9858156
-0.011893791 -0.026642911 0.058877982 12973179
-0.011960002 -0.025213955 0.057502963 14942151
-0.012026446 -0.023780396 0.056123406 16777215
-0.012093118 -0.022342205 0.054739308 15597558
-0.012159987 -0.020899363 0.053350791 16052716
-0.012227093 -0.019451845 0.051957745 16776701
-0.012294408 -0.017999627 0.050560217 16773617
-0.012361967 -0.01654269 0.049158037 16776701
-0.012429714 -0.015081008 0.047751375 16777215
-0.012497683 -0.01361456 0.046340179 16777215
-0.012565889 -0.012143318 0.04492427 16777215
-0.012634317 -0.010667263 0.043503765 16770019
-0.012702968 -0.0091863684 0.042078607 16773874
-0.012771839 -0.0077006142 0.040648792 16777215
-0.012840941 -0.0062099737 0.039214205 16777215
-0.012910261 -0.0047144224 0.037775025 16777215
-0.012979832 -0.003213936 0.036330953 16777215
-0.013049595 -0.0017084947 0.034882221 16777215
-0.013119635 -0.0001980649 0.03342855 16777215
-0.013189878 0.0013173713 0.031970158 16776958
-0.013260365 0.00283784 0.030506941 16766674
-0.013331082 0.0043633669 0.02903883 10150781
-0.013402025 0.0058939769 0.027565826 6538041
-0.01347322 0.0074296971 0.02608794 5355308
-0.013544648 0.0089705512 0.024605038 6341691
-0.013616326 0.010516567 0.023117192 9429607
-0.013688222 0.012067767 0.021624392 13556630
-0.013760374 0.01362418 0.020126527 8377944
-0.013832769 0.015185834 0.018623658 5816877
-0.013905413 0.016752753 0.017115721 5881899
-0.013978292 0.018324962 0.015602654 5815338
-0.014051404 0.019902488 0.014084581 5749290
-0.014124792 0.021485364 0.012561205 6274355
-0.01419841 0.023073612 0.011032762 8698967
-0.01427229 0.024667259 0.0094990768 10070877
-0.014346426 0.026266338 0.0079601472 9157982
-0.01375626 0.02772565 0.0095474413 7257150
-0.013165457 0.02917924 0.011141922 10400859
-0.012855421 0.030693229 0.011414055 10594649
-0.012604907 0.032220747 0.011405392 9937492
-0.012362972 0.03375046 0.011356075 5931315
-0.012120996 0.035280332 0.011306754 6772561
-0.012001893 0.036843378 0.010673742 6579300
-0.012078403 0.038462836 0.0091087129 5262669
-0.011819241 0.039992053 0.0091380477 5656913
-0.011564871 0.041522574 0.0091446415 7499888
-0.011312502 0.043053675 0.0091417553 8420990
-0.011060064 0.044584766 0.0091390964 9013384
-0.01080694 0.046115648 0.0091398032 9078920
-0.010553962 0.047646575 0.009139738 9210506
-0.010301231 0.049177583 0.0091384957 8684419
-0.010046302 0.050707843 0.009147861 6250335
-0.0098365359 0.052254032 0.0089398185 8684676
-0.0097159725 0.053833298 0.0083012683 10394266
-0.010594584 0.055785526 0.0028382542 9933715
0.016942516 0.17264786 0.04024715 10461087
0.018229589 0.17290503 0.045907356 10461087
0.019006908 0.17374179 0.048813634 10789795
0.019651346 0.17472528 0.051005367 10921381
0.020232199 0.17577642 0.052857019 10921638
0.020669149 0.17699492 0.053928494 10921638
0.021080762 0.17824009 0.054864626 7234917
0.021471228 0.17950763 0.055687819 4670789
0.021830548 0.18081069 0.056342687 5196876
0.022104902 0.1822181 0.056532692 5065547
0.022273332 0.18375938 0.056140356 4671046
0.022441132 0.18530308 0.055743303 4737096
0.022731949 0.18668926 0.05602416 4671046
0.023023225 0.18807369 0.056308374 4276545
-0.029169144 -0.070625164 0.0061101443 11381675
-0.028358024 -0.0689421 0.008553707 7039080
-0.027988642 -0.067381062 0.0090644732 5328976
-0.027725287 -0.065848306 0.0091106305 8223868
-0.027469914 -0.064317651 0.0091217682 10782856
-0.027216367 -0.062787458 0.0091249514 10456204
-0.026962914 -0.061257299 0.0091276579 7368816
-0.026709417 -0.059727143 0.0091306036 8486783
-0.026456179 -0.058197055 0.0091323657 8355454
-0.025674539 -0.056557018 0.011473347 8223868
-0.025200844 -0.054986488 0.012455216 8092282
-0.024849983 -0.053442955 0.012894356 7829367
-0.024553493 -0.051910996 0.013093025 7237230
-0.024287136 -0.050385073 0.013158105 6842472
-0.02403543 -0.048861887 0.013158102 6842472
-0.023783723 -0.047338698 0.013158097 6974058
-0.023532039 -0.045815516 0.013158037 8223868
-0.023280332 -0.044292323 0.013158034 10257283
-0.02302997 -0.042769331 0.013151954 11303546
-0.022911666 -0.041264117 0.012553983 11306116
-0.024309322 -0.039950054 0.0051507694 8815234
-0.024830479 -0.038506281 0.0016677342 6710886
-0.024800269 -0.036988925 0.00065667613 6710886
-0.025272939 -0.035521004 -0.0026223806 9340036
-0.025294811 -0.033998214 -0.0038763906 9859184
-0.02200461 -0.03217322 0.0098251784 6710372
-0.021633325 -0.03063461 0.010361711 6389598
-0.021430409 -0.0291104 0.010137273 8752984
-0.011737893 -0.02694677 0.052934062 14023022
-0.011804287 -0.025509229 0.051540636 13762465
-0.01187087 -0.024067026 0.050142724 16777206
-0.011937665 -0.022620134 0.048740331 16777215
-0.012004704 -0.02116853 0.047333285 16711165
-0.012071949 -0.019712197 0.045921639 16777215
-0.012139454 -0.018251102 0.044505276 16776701
-0.012207155 -0.01678523 0.043084312 16773874
-0.012275093 -0.015314555 0.041658632 16772332
-0.012343257 -0.013839049 0.0402283 16776958
-0.012411649 -0.012358692 0.038793251 16777215
-0.012480274 -0.010873462 0.037353426 16771818
-0.012549099 -0.009383332 0.035908937 16766678
-0.012618162 -0.0078882761 0.03445968 16770019
-0.012687453 -0.006388274 0.033005588 16776187
-0.012756981 -0.0048832963 0.03154666 16777215
-0.012826744 -0.0033733221 0.0300829 16777215
-0.012896729 -0.0018583268 0.028614242 16777215
-0.012966961 -0.00033828046 0.027140696 16777215
-0.013037401 0.0011868353 0.025662312 16777215
-0.013108094 0.0027170514 0.02417892 16776958
-0.013179028 0.0042523928 0.022690577 14221255
-0.013250194 0.0057928828 0.02119722 7917392
-0.013321579 0.0073385458 0.019698909 5486886
-0.013393243 0.0088894162 0.018195475 5816373
-0.013465125 0.010445512 0.016687026 7262537
-0.01353725 0.012006862 0.015173445 7195464
-0.013609619 0.013573494 0.0136548 5553963
-0.01368225 0.015145436 0.012130905 5422120
-0.013755104 0.016722711 0.01060194 8175693
-0.013828225 0.01830535 0.00906773 10398292
-0.013901574 0.019893376 0.0075283283 10396755
-0.013975188 0.021486823 0.0059836218 10200153
-0.014049049 0.023085713 0.0044337334 8369239
-0.014123169 0.024690079 0.0028784128 6076201
-0.014197532 0.026299942 0.0013178491 6669350
-0.012490524 0.027525291 0.008215474 5945633
-0.011649095 0.028923135 0.01101399 6272805
-0.011316931 0.030431135 0.011394355 8305226
-0.011060691 0.031956322 0.01141363 11112528
-0.010818823 0.033485066 0.011364344 9279827
-0.010576935 0.035013981 0.011314996 5069876
-0.010416938 0.036565129 0.010873371 7429212
-0.010533234 0.038194589 0.0091057019 5853264
-0.010274004 0.039722804 0.0091363518 6377809
-0.010019269 0.041252241 0.0091454843 9137774
-0.0097670276 0.042782396 0.0091427146 11566975
-0.0095147779 0.044312559 0.0091398777 12487049
-0.0092621753 0.045842621 0.0091387518 12552071
-0.0090094954 0.047372662 0.0091380421 12682886
-0.0088019287 0.048917942 0.008918969 10850705
-0.0086072087 0.05046846 0.0086369896 7894389
-0.0085176509 0.05205733 0.0078438222 9210763
-0.0089222537 0.053828835 0.0046468284 10853532
0.018037383 0.17099008 0.039483529 11315625
0.019314548 0.17126173 0.045132987 10395294
0.020218555 0.17195074 0.048755445 10329501
0.02076905 0.17304602 0.050449476 10461087
0.021118553 0.17437603 0.051044133 10526880
0.021720933 0.17539686 0.053032394 10395294
0.022149315 0.17662258 0.054067735 10197915
0.022531448 0.17790127 0.054850928 8813435
0.022892931 0.17920248 0.055522345 5262412
0.023229849 0.18053183 0.056059886 5854292
0.023542566 0.18188974 0.056464773 7365218
0.023781423 0.18334058 0.056460701 7102560
0.023897884 0.18494958 0.055775657 7300196
0.024053335 0.18651059 0.055305675 7300453
0.024343608 0.18789621 0.055586703 6972002
-0.027575145 -0.069352306 0.0051403674 8881798
-0.026539279 -0.067612179 0.0085989246 5854035
-0.026187915 -0.066057168 0.0090352073 7171437
-0.025918007 -0.064523689 0.0091114771 8289661
-0.025662836 -0.062993996 0.0091225039 7303023
-0.025409566 -0.061464768 0.009125093 7566195
-0.025156274 -0.059935547 0.0091278665 11961476
-0.024902949 -0.058406338 0.0091306893 12091006
-0.024649993 -0.056877214 0.0091319242 12090749
-0.024063988 -0.055280339 0.010620699 11894141
-0.023458069 -0.053684428 0.012202266 11045257
-0.023078956 -0.052136526 0.012772218 8552576
-0.022781489 -0.050605301 0.01297762 6776679
-0.022489766 -0.049075752 0.013157711 6710886
-0.022238117 -0.04755348 0.013158118 7697524
-0.021986527 -0.046031218 0.013158292 9734537
-0.021734973 -0.04450896 0.013158288 9340036
-0.021483421 -0.042986706 0.013158284 7500145
-0.021333242 -0.041478332 0.012700344 6842472
-0.021602647 -0.040022776 0.010343528 6645093
-0.02161737 -0.038528338 0.0091340588 6447714
-0.021449327 -0.03700896 0.0087503307 6447714
-0.020747101 -0.035431184 0.010790834 6513507
-0.020432979 -0.033898771 0.011072271 4473924
-0.020141069 -0.032369331 0.011253306 6184542
-0.019856986 -0.030841155 0.011399124 6719838
-0.019657165 -0.029319923 0.011160801 5473859
-0.01158003 -0.027254503 0.046914209 9472602
-0.011646566 -0.025808277 0.045502111 13957259
-0.011713321 -0.024357324 0.044085413 16121054
-0.011780302 -0.022901626 0.042664055 16777215
-0.011847504 -0.021441156 0.04123804 16777215
-0.01191491 -0.019975899 0.039807357 16777215
-0.011982549 -0.018505819 0.038371958 16777215
-0.012050398 -0.017030904 0.036931902 16774902
-0.012118502 -0.015551119 0.035487011 16772846
-0.012186837 -0.014066448 0.034037217 16776958
-0.012255399 -0.012576865 0.032582648 16777215
-0.012324211 -0.011082342 0.031123182 16775930
-0.01239325 -0.0095828576 0.029658882 16773360
-0.012462487 -0.0080783861 0.028189799 16773360
-0.012531986 -0.0065689012 0.026715767 16776701
-0.012601712 -0.0050543793 0.025236774 16777215
-0.012671655 -0.003534798 0.023752885 16777215
-0.012741845 -0.0020101257 0.022264045 16777215
-0.012812259 -0.00048034362 0.020770185 16777215
-0.012882912 0.0010545809 0.019271377 16777215
-0.012953828 0.002594671 0.017767375 16777215
-0.013024949 0.0041399486 0.016258413 16777215
-0.013096331 0.0056904471 0.014744326 10742150
-0.013167935 0.0072461874 0.013225161 6341168
-0.013239809 0.0088072009 0.011700748 5684526
-0.01331191 0.01037351 0.010171265 6144570
-0.013384258 0.011945145 0.0086365277 8569946
-0.013456854 0.01352213 0.0070966021 8437587
-0.013529694 0.015104495 0.0055513615 8174672
-0.013602787 0.016692268 0.004000939 7453511
-0.013676142 0.018285476 0.0024450845 7977041
-0.013749715 0.019884139 0.00088403712 9416030
-0.013823563 0.0214883 -0.00068249763 8434768
-0.013897683 0.023097981 -0.0022543923 6273326
-0.013972025 0.024713203 -0.0038316632 5552152
-0.014046623 0.026334001 -0.0054143602 5946394
-0.012179651 0.0275345 0.0022975225 6076956
-0.01014598 0.028669961 0.010829538 5944350
-0.009780257 0.030169347 0.011374719 6862128
-0.0095239347 0.031693578 0.011395244 9022033
-0.0092765866 0.033220004 0.011372585 10325071
-0.0090347575 0.034747954 0.011323327 9012046
-0.0088426284 0.036289506 0.011033919 8158068
-0.0090028653 0.037930269 0.0090401825 7499888
-0.0087309061 0.039453961 0.0091333818 6314329
-0.0084756883 0.040982272 0.0091457078 7761261
-0.0082234563 0.042511452 0.0091435816 9602180
-0.0079713613 0.04404068 0.0091407448 10259853
-0.0077192648 0.045569919 0.0091379089 10654611
-0.0075278929 0.04711923 0.0088391239 10523025
-0.0074650468 0.048713196 0.0079121552 9865866
-0.007593005 0.050376844 0.0060501448 7367274
-0.0081472211 0.052199155 0.0020968954 9671057
-0.0092274863 0.054227851 -0.0044452907 10984090
0.020398742 0.16961913 0.044350531 11184296
0.02126815 0.17035089 0.047809917 10395294
0.021848802 0.17141189 0.049683183 10724259
0.022350116 0.17256045 0.051122941 11512747
0.022738719 0.17383966 0.051942009 11709612
0.023103261 0.17514497 0.052629881 10987174
0.023589013 0.17629795 0.053994369 10197915
0.023948947 0.17760198 0.054661952 8944250
0.024285585 0.17893256 0.055201586 8681335
0.024601279 0.18028751 0.055625774 6773852
0.024903871 0.18165745 0.055977996 8938339
0.025177803 0.18306294 0.056170657 9724514
0.025387336 0.18455151 0.056002114 9855843
0.025501493 0.18616606 0.055296656 9856357
0.025665233 0.18771783 0.054868206 9660263
-0.025979707 -0.068078294 0.0041696746 7170666
-0.024766477 -0.066295192 0.0084498553 6579043
-0.024389276 -0.064734809 0.0090059293 7368816
-0.024112916 -0.063200682 0.0091124102 7171437
-0.023858082 -0.061671976 0.0091227358 7237230
-0.023604967 -0.060143691 0.0091253258 9144199
-0.023351515 -0.058615342 0.0091295149 10063759
-0.023098681 -0.057087138 0.0091308663 9997709
-0.022846797 -0.055559136 0.0091279689 9734537
-0.02259329 -0.054030806 0.0091323908 9209478
-0.021754818 -0.052390568 0.011776384 7171437
-0.021314891 -0.050832301 0.012626409 6645093
-0.021011179 -0.049300872 0.01286239 6645093
-0.020694517 -0.047768023 0.01315757 7237230
-0.020443117 -0.046246696 0.013157566 8354940
-0.020191614 -0.044725351 0.013158034 7763317
-0.019940132 -0.04320401 0.013158446 6579300
-0.019757256 -0.041692216 0.012846491 6316128
-0.019827107 -0.040212657 0.011381703 6184542
-0.020065112 -0.038749099 0.0091458131 8288633
-0.019571109 -0.037192859 0.010249351 10388355
-0.019102152 -0.035643004 0.011241095 8288890
-0.018827582 -0.034116145 0.011344799 3750201
-0.018562134 -0.032590486 0.011406887 7105387
-0.018296743 -0.031065034 0.01146892 7966563
-0.018068377 -0.029542692 0.011360843 6393177
-0.018068954 -0.028036168 0.010198154 9275740
-0.011486799 -0.026111171 0.03938596 14527074
-0.011553735 -0.024651363 0.037950043 15516568
-0.011620879 -0.023186754 0.036509398 16710908
-0.011688255 -0.021717312 0.035064038 16777215
-0.011755839 -0.020243015 0.03361389 16777215
-0.011823663 -0.018763844 0.032158904 16777215
-0.0118917 -0.017279766 0.030699138 16777215
-0.011959977 -0.015790766 0.029234473 16777215
-0.012028459 -0.014296813 0.027765026 16777215
-0.012097172 -0.012797883 0.026290679 16777215
-0.012166141 -0.011293953 0.024811318 16777215
-0.012235339 -0.0097849974 0.023326997 16646142
-0.012304777 -0.008270991 0.021837596 16777215
-0.012374444 -0.0067519066 0.0203433 16776958
-0.012444364 -0.0052277208 0.018843867 16776958
-0.012514519 -0.0036984044 0.017339418 16776958
-0.012584911 -0.0021639345 0.015829895 16776958
-0.012655528 -0.00062428281 0.014315355 16776958
-0.012726397 0.00092057389 0.012795555 16776958
-0.012797505 0.0024706635 0.011270686 16776958
-0.012868839 0.004026012 0.0097406786 16776958
-0.012940426 0.0055866484 0.0082054175 15400668
-0.013012261 0.0071525984 0.0066649024 9558637
-0.013084332 0.0087238876 0.0051191943 6931258
-0.013156662 0.010300548 0.0035681764 6340411
-0.013229213 0.011882599 0.0020118994 9485664
-0.013302042 0.013470078 0.00045019604 9484634
-0.013375098 0.015063005 -0.0011167614 8763739
-0.013448409 0.016661411 -0.0026891504 6862153
-0.013521994 0.018265329 -0.0042670267 5877809
-0.013595819 0.019874781 -0.0058502737 7453510
-0.013669914 0.021489801 -0.007439069 7715908
-0.013744233 0.023110408 -0.0090333009 7322428
-0.013818828 0.024736643 -0.010633077 7453757
-0.013893681 0.02636853 -0.0122384 7847743
-0.011822614 0.027534485 -0.0034858461 8241221
-0.0086602541 0.028420685 0.010567028 8437322
-0.0082453983 0.029907871 0.011355022 7189299
-0.0079892445 0.031431206 0.011375617 7186486
-0.0077362815 0.032955278 0.011380745 7968583
-0.007494499 0.034482263 0.011331572 7902023
-0.0072808592 0.036017045 0.011145285 6451010
-0.0073148534 0.037621707 0.0097512705 4867911
-0.0071896855 0.039185442 0.009130436 5985107
-0.0069343713 0.040712751 0.0091440659 7828082
-0.0066817747 0.042240839 0.0091444785 7039337
-0.0064298138 0.043769129 0.0091416975 7631474
-0.0061783539 0.045297589 0.0091365008 8749955
-0.0061025415 0.046884324 0.0082679959 8487040
-0.0071704509 0.048863545 0.0017679696 7631731
-0.00765693 0.05066295 -0.0018843641 9473678
-0.008283942 0.052525751 -0.0062403427 9408399
0.022313122 0.16875611 0.046832066 10592416
0.022886481 0.16982742 0.048678797 10263708
0.023386011 0.17097968 0.050119136 10790052
0.023842052 0.17217866 0.051320896 11906220
0.024249153 0.17343245 0.052252375 12168364
0.024561547 0.17479913 0.052655693 11118760
0.024938367 0.17608406 0.053422138 10197915
0.025341451 0.17733292 0.054338682 8483956
0.02565171 0.17869554 0.054735154 10849163
0.025950503 0.1800712 0.055068113 8352113
0.026231643 0.18146823 0.055302445 3749944
0.026512643 0.18286452 0.055536654 3815737
0.026785478 0.18427053 0.055725295 4276288
0.026992967 0.18576229 0.055543493 4736582
0.027104922 0.18738243 0.054817654 5065547
-0.024382774 -0.06680312 0.0031981727 5000268
-0.022968838 -0.064972706 0.0084198136 6974058
-0.022592712 -0.06341397 0.0089766998 6974058
-0.022310032 -0.0618793 0.0091133062 7039851
-0.02205552 -0.06035158 0.0091229267 7565938
-0.021802574 -0.058824234 0.0091255223 8026489
-0.021549314 -0.057296827 0.0091295335 7960953
-0.02129662 -0.055769555 0.0091310069 7894903
-0.021045338 -0.05424257 0.0091261044 7566195
-0.020791654 -0.052715104 0.0091320649 6645093
-0.020114075 -0.051108636 0.011068099 6579300
-0.019561015 -0.0495308 0.012441395 6776679
-0.019242568 -0.047997694 0.012747275 7894903
-0.018924687 -0.046465699 0.013051321 9208707
-0.018650237 -0.044941489 0.013157393 8814206
-0.018398991 -0.043421086 0.013157389 8420219
-0.018184366 -0.041905865 0.01298929 8157304
-0.018146364 -0.040413711 0.012009457 7039594
-0.018516386 -0.038969789 0.0091501614 7697267
-0.018075451 -0.037420265 0.010018657 9798531
-0.017570823 -0.035866559 0.011183172 8747899
-0.017286476 -0.034339461 0.011333479 6446429
-0.017021304 -0.032814696 0.011395488 9272187
-0.016756158 -0.03129014 0.011457559 7966049
-0.016513191 -0.029767569 0.011416979 7836773
-0.016484786 -0.028260401 0.010380386 6590035
-0.011325003 -0.026417989 0.033190466 8749404
-0.011392095 -0.024949221 0.031735007 14664829
-0.011459414 -0.023475584 0.030274704 16635337
-0.011526936 -0.021997059 0.028809613 16702427
-0.011594698 -0.02051362 0.027339624 16767706
-0.011662703 -0.019025235 0.025864676 16768220
-0.011730926 -0.017531887 0.024384823 16777215
-0.011799365 -0.016033554 0.022900065 16777215
-0.011868034 -0.014530201 0.02141035 16777215
-0.011936932 -0.013021809 0.019915674 16777215
-0.012006074 -0.011508352 0.018415855 16777215
-0.012075436 -0.0099898055 0.016911078 16777215
-0.012145034 -0.0084661394 0.015401284 16775159
-0.012214873 -0.006937332 0.013886288 16764108
-0.012284953 -0.0054033552 0.012366154 16763851
-0.012355302 -0.0038641822 0.010840766 16763337
-0.01242589 -0.0023197872 0.0093101794 16762823
-0.012496715 -0.00077014259 0.0077743949 16762566
-0.012567773 0.00078477571 0.0062334123 16762052
-0.012639089 0.0023449981 0.0046871146 16761795
-0.012710626 0.0039105471 0.0031356183 16761281
-0.012782434 0.0054814569 0.0015787516 15711908
-0.012854463 0.0070577473 1.6625627e-05 11772506
-0.012926768 0.0086394539 -0.0015509931 9943895
-0.012999285 0.010226595 -0.0031238711 5683750
-0.013072081 0.01181921 -0.004702236 5355306
-0.013145118 0.013417318 -0.0062860386 5813296
-0.01321841 0.015020953 -0.0078753335 7389515
-0.013291955 0.016630141 -0.009470121 6537015
-0.013365767 0.018244913 -0.011070457 5355551
-0.013439815 0.019865295 -0.012676352 6469683
-0.013514143 0.021491319 -0.014287851 9350993
-0.013588691 0.023123009 -0.015904848 11376463
-0.013663544 0.024760406 -0.017527627 11179853
-0.013738635 0.02640353 -0.01915602 11114829
-0.00717906 0.028172385 0.010287274 11249503
-0.0067142141 0.029647147 0.011326163 7646531
-0.0064563705 0.031169146 0.011355927 5017618
-0.0062004323 0.032691523 0.011376416 4555793
-0.0059561441 0.034216896 0.011339853 5276953
-0.0057299924 0.035747319 0.011214228 8033342
-0.0056722253 0.037325412 0.010260497 6974039
-0.0056503476 0.038917251 0.009127453 8154991
-0.0053949305 0.040443555 0.0091424501 8157304
-0.0051419758 0.041970558 0.009145339 5197647
-0.004890169 0.043497916 0.0091425581 5066061
-0.0046573537 0.045031436 0.0090458142 5526612
-0.0046706563 0.046647254 0.0077289129 4210752
-0.0072685401 0.049151253 -0.0064197886 6184542
0.023925316 0.1682412 0.047673292 10526880
0.024423067 0.16939715 0.049114272 10526880
0.024876479 0.17060071 0.050310034 10921381
0.02528657 0.17185222 0.051264998 11315625
0.025678067 0.17312269 0.052117903 11446954
0.026028978 0.17444006 0.052743778 10789795
0.026288779 0.17586902 0.052854925 10197915
0.026652513 0.17716612 0.053556755 6315614
0.026998086 0.17848353 0.054157466 7171180
0.027279077 0.17988162 0.054392174 7171180
0.02755991 0.18127896 0.054626703 4934475
0.027840585 0.18267553 0.054861117 1842204
0.028121125 0.18407132 0.055095471 2434341
0.028392851 0.18547791 0.055280033 2763306
0.02859851 0.18697271 0.055085715 6380122
-0.022784408 -0.065526761 0.0022256942 7631731
-0.021173283 -0.063651755 0.0083897589 7829110
-0.020798223 -0.06209467 0.0089475177 6842472
-0.020509344 -0.060559534 0.0091142273 6908265
-0.020255174 -0.05903279 0.0091230869 7697524
-0.020002376 -0.057506379 0.0091257431 7631731
-0.019749332 -0.055979926 0.0091295205 7631731
-0.019496851 -0.054453593 0.0091307601 7500402
-0.019245137 -0.05292742 0.0091284513 7434609
-0.0189922 -0.051401008 0.0091317575 7368816
-0.018491456 -0.049829636 0.010273698 7500145
-0.017847292 -0.048237078 0.012078418 8683134
-0.017475668 -0.046695776 0.012632279 9864067
-0.017158521 -0.045164958 0.012936273 9666688
-0.016871944 -0.043639753 0.013099849 9666688
-0.016668692 -0.042127054 0.012878524 9339008
-0.016639797 -0.040637325 0.011849275 7763060
-0.016971027 -0.039190397 0.0091476813 6447714
-0.016618298 -0.037652027 0.0096143112 7302766
-0.016041853 -0.036089942 0.011122127 8222840
-0.015747214 -0.03456251 0.011322168 8216929
-0.01548231 -0.033038642 0.011384158 6184542
-0.01521742 -0.03151498 0.011446205 7312219
-0.014964074 -0.029992471 0.011454537 7311709
-0.014903197 -0.028484268 0.010562273 7377252
-0.011161078 -0.026728809 0.02691425 7902811
-0.011228332 -0.025250971 0.02543881 12243311
-0.011295803 -0.023768198 0.023958527 15266486
-0.011363523 -0.022280473 0.022473222 16643059
-0.011431453 -0.020787774 0.020982947 16643059
-0.011499616 -0.019290067 0.019487714 16775159
-0.011568001 -0.017787332 0.017987454 16777215
-0.011636641 -0.016279541 0.016482119 16777215
-0.011705481 -0.014766673 0.014971753 16777215
-0.011774567 -0.013248698 0.013456309 16777215
-0.011843894 -0.011725591 0.011935662 16777215
-0.01191343 -0.010197328 0.010409929 16777215
-0.011983235 -0.0086638806 0.0088789407 16776958
-0.012053262 -0.0071252235 0.0073428107 16775673
-0.012123528 -0.0055813296 0.0058014821 16644087
-0.012194028 -0.0040321727 0.0042548277 16771304
-0.012264781 -0.0024777243 0.0027029198 16703712
-0.012335765 -0.00091795868 0.0011457525 16710394
-0.012407022 0.00064715307 -0.00041691281 16776187
-0.012478538 0.0022176411 -0.0019850151 16710645
-0.012550288 0.0037935264 -0.0035584986 13958327
-0.012622303 0.0053748437 -0.0051374137 9689706
-0.012694543 0.0069616148 -0.0067217103 7456324
-0.012767046 0.0085538728 -0.0083114998 6537013
-0.012839807 0.010151644 -0.0099069085 5681705
-0.012912815 0.011754958 -0.01150775 5878837
-0.012986058 0.01336384 -0.013114088 8179025
-0.013059588 0.014978327 -0.014726158 11657087
-0.013133351 0.016598441 -0.016343787 11852417
-0.013207383 0.018224215 -0.017967086 7585604
-0.013281683 0.019855678 -0.019596057 9288281
-0.013356228 0.021492857 -0.021230703 11773794
-0.013431023 0.023135785 -0.022871085 11125618
-0.013506098 0.024784494 -0.024517255 10401378
-0.01358144 0.026439013 -0.026169276 8565833
-0.0057065994 0.027926035 0.0099690789 8306504
-0.0051932698 0.029388739 0.011255691 7449906
-0.0049252906 0.030907391 0.011336357 6002978
-0.0046695485 0.032428883 0.011356802 7970871
-0.0044197217 0.033951864 0.011348051 10004306
-0.00418184 0.03547813 0.011280144 7173974
-0.0040869606 0.037044864 0.010503182 6971745
-0.0041128583 0.038649384 0.0091244848 6972002
-0.0038573451 0.040174682 0.0091409134 5591377
-0.0036040391 0.041700602 0.0091463467 7895160
-0.0033523934 0.043227028 0.0091435043 6447714
-0.0031398712 0.044766195 0.0089453431 5131597
-0.0043513821 0.046782125 0.0016285112 7368816
0.025375329 0.16791537 0.047620978 11709869
0.025908001 0.1690259 0.04927488 11709869
0.026320182 0.17027622 0.05024863 11184553
0.026709463 0.17155072 0.051094968 10526880
0.027074795 0.17285146 0.051807325 10395294
0.027417008 0.1741782 0.052389789 10263708
0.027700247 0.17557704 0.052636519 10197915
0.027934432 0.17703737 0.052602712 6184028
0.028281888 0.17835215 0.053219456 6908265
0.028608242 0.17969182 0.053716637 10389126
0.028888643 0.18108959 0.053950783 10191747
0.029169008 0.18248647 0.054185394 8219756
0.029449221 0.18388259 0.05441989 3289393
0.029729297 0.18527792 0.054654326 2829099
0.029999953 0.18668506 0.054834925 9071467
-0.021184558 -0.06424924 0.0012524115 9471879
-0.019379789 -0.062332314 0.0083597479 6776679
-0.019005796 -0.060776882 0.0089183794 6908265
-0.018710852 -0.059241373 0.0091151726 9340036
-0.018457027 -0.057715617 0.0091232704 9339522
-0.018203825 -0.056190014 0.0091285314 9273729
-0.017951552 -0.054664627 0.0091294711 9273472
-0.017700067 -0.053139396 0.0091268076 9470080
-0.017447492 -0.051613946 0.0091291694 9273215
-0.017194949 -0.05008851 0.0091314139 8945278
-0.016942386 -0.048563082 0.0091337152 8683134
-0.01620842 -0.046956409 0.011371269 8420219
-0.015716285 -0.045396052 0.012490375 8157304
-0.015427739 -0.043870639 0.012664516 8091254
-0.015273581 -0.042365395 0.012212729 8288633
-0.015384824 -0.040895324 0.010521091 8091768
-0.015427318 -0.039410707 0.0091462862 6579043
-0.015239982 -0.037893333 0.0088433977 6513507
-0.01452571 -0.036314368 0.011008814 7499631
-0.014209456 -0.034785256 0.011312399 7889506
-0.013945124 -0.03326232 0.011372888 8026232
-0.013680522 -0.031739552 0.011434861 7574879
-0.013416952 -0.030217079 0.011492034 6917975
-0.01332418 -0.028707767 0.010743873 7508581
-0.010994996 -0.027043706 0.020555696 6524499
-0.011062411 -0.025556684 0.019059898 8094801
-0.011130059 -0.024064662 0.017559143 13303666
-0.01119794 -0.022567624 0.016053298 16777207
-0.011266049 -0.021065546 0.014542368 16711165
-0.011334381 -0.0195584 0.013026351 16777215
-0.011402954 -0.018046159 0.011505192 16777215
-0.011471743 -0.016528798 0.0099789454 16448761
-0.011540771 -0.01500629 0.0084474953 16251640
-0.011610033 -0.013478611 0.0069108419 16777215
-0.011679548 -0.01194573 0.0053689289 16777215
-0.011749283 -0.010407628 0.003821746 16777215
-0.011819256 -0.0088642715 0.0022693649 16777215
-0.01188948 -0.0073156366 0.00071160257 16776958
-0.011959934 -0.005761696 -0.00085148541 16776958
-0.012030625 -0.0042024227 -0.0024198936 16776444
-0.012101578 -0.0026377859 -0.0039937389 16710394
-0.01217276 -0.0010677627 -0.0055730315 16777215
-0.012244187 0.00050767761 -0.0071577006 13631155
-0.01231587 0.0020885624 -0.0087478673 10150257
-0.012387798 0.0036749199 -0.010343598 7722309
-0.012459971 0.0052667782 -0.011944828 6013993
-0.012532443 0.0068641729 -0.013551787 5813549
-0.012605167 0.0084671266 -0.015164368 5943093
-0.012678137 0.010075667 -0.016782569 6996286
-0.012751342 0.011689823 -0.018406328 9034839
-0.012824833 0.013309631 -0.02003588 11727745
-0.012898579 0.014935115 -0.021671107 11133048
-0.012972559 0.016566303 -0.023312015 12052613
-0.013046819 0.018203231 -0.024958776 8243019
-0.013121346 0.019845927 -0.02661133 9292126
-0.013196122 0.021494418 -0.028269682 12640403
-0.013271184 0.023148742 -0.029933942 12904857
-0.013346485 0.024808919 -0.031604003 11519095
-0.013422054 0.026474988 -0.033280034 8698957
-0.0042812629 0.027690459 0.0094211986 10733888
-0.0036834774 0.029132877 0.011137964 11191114
-0.0033960259 0.030645948 0.011316725 9873995
-0.0031404595 0.032166548 0.01133718 9216596
-0.0028851759 0.033687152 0.011356275 6654295
-0.0026435857 0.035211433 0.011307133 6582878
-0.0025052023 0.036765017 0.010741808 5328976
-0.0025772459 0.038381845 0.0091215409 6051928
-0.0023216358 0.03990614 0.0091392742 7104359
-0.0020679992 0.04143098 0.0091471951 9142914
-0.0018165073 0.042956475 0.0091443537 10458774
-0.001629388 0.044503011 0.0088173971 10655896
0.026569759 0.16789529 0.046114493 13019561
0.027291121 0.16877596 0.04886492 13019561
0.027735816 0.16998459 0.050034996 12758702
0.02810058 0.17128736 0.050749034 11381675
0.02843163 0.17262931 0.051271066 11118760
0.028734161 0.17400511 0.051630117 11118760
0.029029382 0.17538874 0.051948138 11118503
0.029315971 0.17678216 0.05221713 10130066
0.029544061 0.1782503 0.052147824 5789784
0.029895015 0.17955801 0.052791901 8880256
0.030218186 0.18089972 0.053276502 9339779
0.03049789 0.18229736 0.053509369 10060932
0.030777795 0.18369377 0.053744126 8088427
0.03105755 0.18508941 0.053978767 3158064
0.031337161 0.18648428 0.054213282 7758948
-0.019584604 -0.062970877 0.00027193298 6710886
-0.01761573 -0.061020955 0.0082032206 6776679
-0.017215475 -0.059460618 0.0088891732 9274757
-0.016914329 -0.05792477 0.0091172084 9208707
