# .PCD v0.7 - Point Cloud Data file format
VERSION 0.7
FIELDS x y z rgb
SIZE 4 4 4 4
TYPE F F F U
COUNT 1 1 1 1
WIDTH 1061
HEIGHT 1
VIEWPOINT 0 0 0 1 0 0 0
POINTS 1061
DATA ascii
-0.0007963939 -0.020130163 -0.031002413 7963477
-0.00065758609 -0.018549033 -0.031679314 9142370
-0.00051857531 -0.016965648 -0.032357231 10517353
-0.00037937888 -0.015379993 -0.033036098 11040106
-0.00023996909 -0.01379207 -0.033715922 9464928
-0.00010035871 -0.012201869 -0.034396701 9663332
3.9445029e-05 -0.010609387 -0.035078496 9272929
0.00017945092 -0.0090146195 -0.035761245 8685404
0.00031965174 -0.0074175624 -0.036445003 9344619
0.00046005656 -0.0058182082 -0.037129719 9478774
0.00060065783 -0.0042165546 -0.037815448 8691562
0.0007414784 -0.0026125975 -0.038502138 6919759
0.00088248379 -0.0010063265 -0.039189834 6722897
0.00102371 0.00060225697 -0.039878491 7314017
0.001165136 0.0022131603 -0.040568162 7708526
0.0013067416 0.0038263935 -0.041258901 8496256
0.0014485784 0.0054419539 -0.041950539 9678748
0.0015906258 0.0070598484 -0.04264313 10860727
0.0017328607 0.0086800857 -0.043336861 10728884
0.0018752943 0.01030267 -0.044031534 10071471
0.0020179546 0.011927602 -0.044727169 8756628
0.002160813 0.013554892 -0.04542388 8755846
0.0023038704 0.015184543 -0.046121668 10065022
0.0024471297 0.016816562 -0.046820402 10259056
0.0025906037 0.018450951 -0.047520217 8425062
0.0027343028 0.020087713 -0.048220921 8097632
0.0028781828 0.021726863 -0.048922759 7507290
0.003022288 0.023368398 -0.049625617 6587981
0.0031665915 0.025012327 -0.050329484 5800516
0.0033111079 0.02665865 -0.051034365 5932102
0.01315818 0.029098701 -0.0016672253 8683134
0.013392728 0.03063987 -0.0018076748 8617341
0.013334003 0.032265466 -0.0035577687 10393238
0.042861708 0.17000405 0.028718906 7499631
0.044700451 0.16933072 0.03893929 5262412
0.045252278 0.17038083 0.040895123 9536130
0.045569807 0.17174743 0.041343935 9929860
0.045861304 0.17314857 0.041625831 9995396
0.046152622 0.17454882 0.041907549 10060418
0.046443731 0.17594816 0.042189091 10125697
0.046734575 0.17734674 0.042469792 10190976
0.047023609 0.17874676 0.042739823 9470851
0.047310364 0.18014902 0.042995896 8420990
0.047717638 0.18137182 0.044042017 5986392
0.048193924 0.18248716 0.045544632 3552565
0.048518881 0.18382433 0.04605839 3947323
0.0043728128 -0.042935479 0.0081282305 6183514
0.0048074205 -0.041392766 0.009041681 7565681
0.005091473 -0.039873756 0.0091812341 7960696
0.0053336765 -0.038360599 0.009105091 5197647
0.0058711693 -0.036811564 0.010556149 2302755
0.0062598446 -0.035283979 0.011240534 2763306
0.0065257456 -0.033771381 0.01128999 3158064
0.0067880224 -0.032259293 0.01132077 5460048
0.0070466436 -0.03074762 0.011332637 9199712
0.0072494317 -0.029240346 0.011053623 9068897
0.0072615067 -0.027745401 0.0097785061 4144445
-0.00050245359 -0.026719192 -0.032140516 10782558
-0.00036336109 -0.025141856 -0.032818671 10327911
-0.00022405715 -0.023562262 -0.033497784 7899216
-8.4576925e-05 -0.021980405 -0.034177907 5987881
5.5123848e-05 -0.020396285 -0.034858927 6443053
0.00019501706 -0.018809889 -0.035540964 6898994
0.00033512482 -0.017221216 -0.036223955 8346442
0.00047541168 -0.015630264 -0.03690796 10383202
0.00061591528 -0.014037023 -0.037592921 10450536
0.00075662165 -0.012441493 -0.038278837 10189929
0.00089752971 -0.010843668 -0.038965832 9339745
0.0010386371 -0.0092435386 -0.039653715 6716739
0.0011799479 -0.0076411045 -0.040342681 5603129
0.0013214733 -0.0060363594 -0.041032538 5342266
0.001463168 -0.0044292961 -0.041723523 4751660
0.0016051147 -0.0028199146 -0.042415354 4489508
0.0017472326 -0.0012082047 -0.043108314 5672248
0.0018895604 0.00040583676 -0.043802228 7314261
0.0020321046 0.0020222131 -0.044497162 7774306
0.0021748606 0.0036409302 -0.04519305 7643238
0.0023177993 0.0052619972 -0.045890007 9022341
0.002460965 0.0068854135 -0.046587922 10269856
0.002604329 0.0085111875 -0.047286913 10466472
0.002747908 0.010139323 -0.047986858 10202539
0.0028917007 0.011769824 -0.048687883 9544608
0.0030356965 0.013402698 -0.049389858 8558475
0.0031798941 0.015037951 -0.050092906 8296061
0.0033243157 0.016675584 -0.050796974 9148535
0.0034689275 0.01831561 -0.051502116 7113818
0.0036137514 0.019958027 -0.052208267 5931847
0.0037588021 0.021602841 -0.052915443 6785619
0.0039040456 0.023250062 -0.053623684 6981970
0.0040495037 0.024899691 -0.054332942 6193992
0.0041951914 0.026551731 -0.055043221 5866566
0.04502596 0.1687057 0.033261567 7564653
0.046139579 0.16899672 0.038881723 6644836
0.046596292 0.17017376 0.040239371 6776679
0.046903126 0.17155471 0.040622879 6645093
0.047194012 0.17295656 0.040903524 6776679
0.047484796 0.17435735 0.041184518 6776422
0.047775541 0.17575705 0.041466292 6250335
0.048066117 0.17715585 0.041747946 6118749
0.048356358 0.17855392 0.042028587 7696239
0.048644375 0.17995414 0.042295441 11304831
0.04893063 0.18135586 0.042551674 11568517
0.049348846 0.1825576 0.043683954 8546151
0.049812932 0.1836848 0.045125145 3684151
0.0039535547 -0.043462336 -0.0019313864 7301995
0.0061380435 -0.04164378 0.0080663208 8087142
0.0064569935 -0.040119138 0.0083881272 7628133
0.0066789589 -0.038608309 0.0082054781 3487029
0.0072742584 -0.03705094 0.0099703521 1973790
0.0076917615 -0.035519715 0.01081135 2368548
0.0079571968 -0.034007363 0.01085905 2894892
0.0082100593 -0.032496389 0.010840951 3223857
0.0084610283 -0.030985527 0.010812819 7036253
0.0086785331 -0.029477252 0.010608803 8413537
0.0087129045 -0.027981384 0.0094400048 4999240
0.00035057709 -0.027008221 -0.036003284 8821871
0.00049075123 -0.025425639 -0.036686573 8166491
0.00063114718 -0.023840787 -0.037370764 7571790
0.00077174924 -0.02225366 -0.038055971 6779708
0.00091253198 -0.020664247 -0.038742188 6972475
0.0010535305 -0.019072548 -0.039429367 6902579
0.0011947382 -0.017478559 -0.040117562 5985065
0.0013361363 -0.01588227 -0.040806707 6054707
0.0014777451 -0.014283681 -0.041496869 5926969
0.0016195736 -0.012682786 -0.042187992 6127426
0.0017615869 -0.011079577 -0.042880125 6916941
0.0019038054 -0.0094740521 -0.043573339 6064194
0.0020462326 -0.0078662038 -0.044267505 5014066
0.0021888688 -0.006256029 -0.044962622 6853454
0.0023316992 -0.0046435208 -0.045658819 6657099
0.0024747541 -0.0030286775 -0.046355974 7904857
0.0026180048 -0.0014114914 -0.047054201 7117643
0.0027614683 0.00020804278 -0.047753386 7380300
0.0029051511 0.0018299276 -0.048453588 8692833
0.0030490265 0.003454173 -0.049154799 9086825
0.0031931149 0.0050807795 -0.049857091 9743482
0.0033374191 0.0067097535 -0.050560337 10334092
0.0034819248 0.0083411019 -0.051264659 10924957
0.0036266537 0.0099748271 -0.051970001 10728360
0.0037715798 0.011610937 -0.05267635 9938336
0.0039167097 0.013249438 -0.053383775 8754570
0.0040620733 0.014890329 -0.054092158 7506031
0.0042076427 0.016533621 -0.054801621 6980960
0.0043534185 0.018179318 -0.055512153 6455638
0.0044994089 0.019827424 -0.056223702 5536070
0.0046456079 0.021477947 -0.056936327 4944954
0.0047920165 0.023130892 -0.05765003 4288303
0.0049386634 0.024786258 -0.058364689 4223020
0.0050854925 0.026444061 -0.059080537 4749106
0.047073241 0.16754857 0.037146285 8679279
0.047587823 0.16864829 0.038894612 7105387
0.047945946 0.16995931 0.039618224 6710886
0.048236988 0.17136191 0.039901547 6447714
0.048527591 0.17276399 0.040183015 8946563
0.048817892 0.17416532 0.04046347 9930117
0.049108025 0.1755657 0.040743988 5065804
0.049516056 0.17679219 0.041809905 6250335
0.04992982 0.17800574 0.042918105 8683391
0.05016695 0.17947838 0.042850818 9077378
0.050264779 0.18116124 0.041851182 8420733
0.05055052 0.18256244 0.042107515 8420990
0.050979368 0.18374287 0.043326057 5197647
0.0062690224 -0.042076509 0.000797229 7235945
0.0070562186 -0.04047402 0.0035692479 7630446
0.0071315374 -0.038975991 0.0026079277 7695725
0.0086171255 -0.037297901 0.0090671778 2631720
0.0090660686 -0.035762064 0.010080814 1710618
0.0093360422 -0.034248922 0.010152617 1907997
0.0095776673 -0.032738838 0.010074704 2039583
0.0098180715 -0.031228609 0.0099901641 3881530
0.010040547 -0.029719578 0.0098102102 7299682
0.010090527 -0.028222611 0.0087136365 8282208
0.0013507971 -0.025711386 -0.040581185 6328643
0.0014922939 -0.024121247 -0.04127064 7508563
0.0016340031 -0.022528809 -0.041960992 8294231
0.0017759007 -0.020934071 -0.042652417 7573074
0.0019180166 -0.019337036 -0.043344799 5275703
0.0020603226 -0.017737692 -0.044038258 3567132
0.0022028578 -0.016136033 -0.044732619 3370265
0.0023455839 -0.014532059 -0.045428049 3436058
0.0024885191 -0.01292576 -0.046124436 4093477
0.0026316692 -0.011317133 -0.046821844 6983502
0.0027750216 -0.009706174 -0.047520265 7246673
0.0029185691 -0.0080928756 -0.048219759 7116110
0.0030623502 -0.0064772363 -0.048920155 9933406
0.0032063283 -0.0048592486 -0.049621623 9477732
0.003350504 -0.0032389045 -0.050324168 10590564
0.0034948944 -0.0016162026 -0.051027667 9020768
0.0036394978 8.8613078e-06 -0.051732246 7577676
0.0037843094 0.0016362946 -0.052437838 7905873
0.0039293519 0.0032661003 -0.053144388 8431192
0.0040745749 0.0048982892 -0.053852074 8693856
0.0042200307 0.0065328595 -0.054560713 9283953
0.0043656901 0.0081698205 -0.055270433 10005122
0.0045115757 0.0098091746 -0.05598117 10201229
0.0046576671 0.01145093 -0.05669298 9740684
0.0048039807 0.01309509 -0.057405747 9608843
0.004950494 0.014741663 -0.058119651 9214340
0.0050972239 0.016390651 -0.058834568 7768687
0.0052441624 0.018042063 -0.059550557 7111525
0.0053913407 0.019695897 -0.060267512 6192214
0.0055387141 0.021352166 -0.060985658 5404487
0.0056863073 0.023010872 -0.061704822 4747833
0.0058341138 0.024672024 -0.062425058 4814389
0.0059821471 0.026335619 -0.063146375 5406268
0.048562888 0.16714527 0.037426148 10123384
0.04897828 0.16837838 0.038535446 9143428
0.049281079 0.16976559 0.038898643 6776679
0.049571455 0.17116897 0.039180286 6118749
0.049861629 0.17257145 0.039461695 7500402
0.050151635 0.17397301 0.03974298 7697267
0.050559863 0.17520025 0.04081912 5197390
0.05112591 0.17618959 0.042961005 6710886
0.051495619 0.1774631 0.04378777 8092539
0.051791478 0.17884438 0.044119131 7368816
0.051964249 0.18041156 0.043618824 7566195
0.051884815 0.18236805 0.041407045 5789784
0.0068421229 -0.040951129 -0.005631031 8683648
0.007095411 -0.039415188 -0.0056700767 10130837
0.0099245263 -0.037549708 0.0079695322 5590349
0.010380448 -0.036011714 0.0090285139 5196105
0.010645151 -0.034498319 0.0090721454 5656656
0.010876543 -0.032988455 0.0089382352 4670532
0.011108104 -0.031478137 0.0088048009 2894892
0.011334865 -0.029967789 0.0086452402 4539203
0.011392103 -0.028469702 0.0075767986 6839388
0.0022168281 -0.025999125 -0.04450297 6591049
0.002359441 -0.024403656 -0.045197636 7312978
0.002502261 -0.022805873 -0.045893252 8360537
0.0026452849 -0.021205781 -0.046589952 9145947
0.0027885307 -0.01960337 -0.047287609 4620592
0.0029319634 -0.017998632 -0.047986276 3963427
0.0030756253 -0.016391568 -0.048685972 4160549
0.0032194892 -0.014782173 -0.049386676 4357671
0.0033635569 -0.013170434 -0.050088398 4555048
0.0035078425 -0.011556352 -0.050791141 5146417
0.0036523326 -0.0099399239 -0.051494896 5343538
0.003797021 -0.0083211372 -0.052199729 6919753
0.0039419457 -0.0066999933 -0.052905455 8363607
0.0040870537 -0.0050764852 -0.053612381 8692054
0.0042323922 -0.0034506079 -0.054320268 8823636
0.0043779402 -0.0018223546 -0.055029169 8496463
0.0045237038 -0.00019172282 -0.055739149 7774271
0.0046696654 0.0014412972 -0.056450136 7314482
0.0048158737 0.0030767038 -0.057162091 7248690
0.0049622576 0.0047145109 -0.057875238 7182393
0.005108885 0.0063547147 -0.05858928 7773518
0.0052557029 0.0079973284 -0.05930452 9283697
0.0054027578 0.0096423514 -0.060020722 11054217
0.0055500218 0.011289791 -0.060737997 10857101
0.0056974948 0.012939655 -0.061456345 11578262
0.0058451938 0.014591946 -0.06217565 12101269
0.0059931017 0.016246671 -0.062896155 10660246
0.0061412379 0.017903833 -0.063617617 8820609
0.0062895869 0.019563438 -0.064340152 8624256
0.0064381636 0.021225492 -0.065063767 8821631
0.006586947 0.022890002 -0.065788522 8493685
0.0067359465 0.024556974 -0.06651435 8427887
0.006885163 0.026226413 -0.067241251 8493931
0.04998064 0.16683909 0.037241563 8025975
0.050327968 0.16816519 0.037906107 7960439
0.050616749 0.1695718 0.03817872 6710886
0.050906435 0.17097598 0.038458508 6052956
0.05119615 0.17237894 0.03873961 6842472
0.0514859 0.17378069 0.039021969 5921113
0.052149881 0.17462799 0.041846164 6118749
0.052605197 0.17577492 0.043261822 6579300
0.052908987 0.17714426 0.043650299 7434609
0.053222615 0.17849702 0.04410734 6513507
0.053417712 0.18002982 0.043755293 7434609
0.05343461 0.18184035 0.042180199 6250335
0.01107244 -0.037822802 0.0060079042 7892076
0.011617183 -0.036271248 0.0075507914 8412766
0.011874108 -0.034757212 0.0075516216 9264477
0.012090449 -0.0332474 0.0073340656 8478302
0.012306911 -0.031736869 0.0071163825 5524813
0.012523473 -0.030225614 0.0068986434 3355186
0.012556953 -0.028727828 0.0056902859 3749944
0.011153688 -0.027324572 -0.0033022081 6054229
0.0030888873 -0.026288873 -0.048452143 6262341
0.0032326507 -0.024688039 -0.049152024 5606715
0.0033765929 -0.023084877 -0.049852978 7182163
0.0035207642 -0.021479389 -0.050554957 8886881
0.0036651378 -0.019871566 -0.051257953 7511127
0.0038097289 -0.018261405 -0.051961966 6723660
0.0039545242 -0.016648896 -0.052666992 6657611
0.0040995246 -0.015034038 -0.053373035 6722891
0.0042447504 -0.013416828 -0.054080162 6919756
0.0043901694 -0.011797253 -0.054788299 7379535
0.0045358101 -0.010175316 -0.055497456 8167509
0.0046816734 -0.0085510062 -0.056207635 8627287
0.0048277378 -0.0069243214 -0.056918886 8824152
0.0049740267 -0.0052952566 -0.057631161 8758612
0.0051205186 -0.0036638046 -0.058344506 8562252
0.0052672224 -0.002029961 -0.059058871 10071903
0.0054141534 -0.00039372183 -0.05977425 9810261
0.0055613038 0.0012449188 -0.060490713 8496442
0.0057086614 0.002885968 -0.061208252 7642417
0.0058562346 0.0045294305 -0.061926804 7707702
0.0060040304 0.006175309 -0.062646441 8364104
0.0061520352 0.0078236125 -0.063367151 9152351
0.006300251 0.0094743455 -0.064088933 10005878
0.0064486992 0.011127511 -0.064811736 10005630
0.0065973736 0.012783114 -0.06553562 10136198
0.0067462479 0.014441165 -0.066260576 11447702
0.0068953712 0.016101662 -0.066986553 12428180
0.0070446879 0.017764619 -0.067713663 11380631
0.0071942345 0.019430036 -0.06844186 10855830
0.0073440056 0.021097917 -0.069171064 11377033
0.0074940003 0.022768272 -0.069901414 10326134
0.0076442137 0.024441104 -0.070632838 10651753
0.0077946465 0.026116421 -0.071365334 9540715
0.0079452926 0.027794227 -0.07209897 10197895
0.051335346 0.16662027 0.036637131 6974058
0.05166347 0.16797249 0.037178442 8289147
0.051952939 0.16937794 0.037458524 8420476
0.052241854 0.17078304 0.037735853 8025975
0.052531324 0.1721862 0.038017962 7828596
0.052820653 0.17358835 0.038300317 6841958
0.053565569 0.17430942 0.041711781 6645093
0.053955141 0.17555164 0.042691931 6776679
0.054279231 0.17688935 0.043224569 6842472
0.054566205 0.17828183 0.043502979 6842472
0.054812405 0.17973632 0.043500416 6381921
0.054951929 0.18135774 0.042758241 6974058
0.012661622 -0.036555465 0.0050154086 5984850
0.01294148 -0.035035569 0.005137559 6706774
0.013100109 -0.033528961 0.004601683 7625306
0.013259066 -0.032020565 0.0040659895 6969689
0.013363932 -0.030515201 0.0032339608 4670532
0.01312934 -0.029034112 0.00054725865 6184028
0.0039670742 -0.026580648 -0.052428931 7312726
0.0041119554 -0.024974411 -0.05313421 6329416
0.0042570676 -0.023365838 -0.053840514 7511130
0.0044023842 -0.02175492 -0.054547835 9412715
0.0045478982 -0.020141648 -0.055256229 10198895
0.004693646 -0.018526023 -0.055965651 9937520
0.004839587 -0.016908033 -0.056676079 9935465
0.0049857558 -0.015287681 -0.057387594 10128991
0.0051321327 -0.013664955 -0.058100127 10260062
0.0052787196 -0.012039852 -0.058813669 10524772
0.005425537 -0.01041237 -0.059528302 10787686
0.0055725514 -0.0087824976 -0.060243942 11115365
0.0057198061 -0.0071502365 -0.060960606 11377766
0.0058672577 -0.0055155759 -0.061678406 10528609
0.006014924 -0.003878511 -0.062397223 9087822
0.0061628027 -0.0022390378 -0.063117176 11513964
0.0063109268 -0.00059715519 -0.063838035 12365679
0.006459252 0.0010471492 -0.064560026 11385698
0.0066077868 0.0026938785 -0.065283097 10335302
0.006756546 0.0043430366 -0.066007242 10006590
0.0069055306 0.0059946286 -0.066732474 9809480
0.0070547354 0.0076486613 -0.067458712 9546582
0.0072041457 0.0093051419 -0.068186089 9414758
0.0073538134 0.010964069 -0.068914436 9019502
0.0075036669 0.012625457 -0.069643974 8426601
0.00765375 0.014289306 -0.070374586 7965031
0.007804072 0.01595562 -0.071106225 7765864
0.007954604 0.01762441 -0.071838997 6910557
0.0081053628 0.019295678 -0.072572783 10652023
0.0082563395 0.02096943 -0.073307775 6388045
0.0084075443 0.022645671 -0.074043781 7506270
0.0085589848 0.024324406 -0.074780867 9411190
0.0087106396 0.026005642 -0.075519085 9214078
0.0088625113 0.027689388 -0.076258443 9344393
0.052677028 0.16642018 0.035942003 7105387
0.052998964 0.16778052 0.036446601 10454919
0.0532897 0.16918398 0.036738105 11174787
0.053577844 0.17059003 0.037012909 11174530
0.053867016 0.17199337 0.037295982 11107966
0.054442421 0.17296851 0.039563712 7628904
0.054959856 0.17402145 0.04143789 7565938
0.055306181 0.17532682 0.042128943 9274500
0.055607159 0.17669895 0.042506527 9602951
0.055893745 0.17809179 0.042785108 9537415
0.056163397 0.17950997 0.042946249 9537929
0.056353223 0.18105358 0.042548206 9274243
0.013165316 -0.0354148 -0.0019260971 7828339
0.013213492 -0.033909805 -0.0030822933 9867665
0.0048514199 -0.026874475 -0.056433737 9804924
0.0049974751 -0.025262807 -0.057144366 9083750
0.0051437207 -0.023648778 -0.057856135 8952164
0.0052902089 -0.022032391 -0.058568869 8231777
0.0054368889 -0.020413635 -0.059282735 6984530
0.0055838004 -0.018792506 -0.059997562 6721358
0.005730913 -0.017169001 -0.060713466 7771224
0.0058782422 -0.015543113 -0.061430451 10718563
0.0060258191 -0.013914839 -0.0621484 11243108
0.0061735781 -0.01228417 -0.062867478 7837262
0.0063215643 -0.010651102 -0.063587576 6721079
0.0064697629 -0.0090156309 -0.064308815 7707203
0.0066181766 -0.0073777502 -0.065031074 8101696
0.0067668119 -0.0057374542 -0.065754406 8430136
0.0069156783 -0.0040947413 -0.066478759 9021243
0.0070647681 -0.0024496028 -0.0672042 10465875
0.0072140684 -0.00080203416 -0.067930706 12040297
0.0073635806 0.00084797322 -0.0686583 11909734
0.0075133331 0.0025004183 -0.069386967 10597454
0.0076632989 0.0041553113 -0.070116721 9743165
0.0078134798 0.0058126575 -0.070847541 9808460
0.0079638809 0.0074724616 -0.071579508 9479763
0.0081145205 0.0091347266 -0.072312497 8952924
0.008265377 0.010799461 -0.073046558 8295005
0.0084164441 0.012466672 -0.073781751 7177042
0.0085677579 0.014136358 -0.074518032 8226915
0.0087192906 0.01580853 -0.075255394 9145708
0.0088710375 0.017483197 -0.075993888 11641754
0.054006834 0.16623768 0.035161041 5526612
0.054335028 0.16758846 0.035714403 8157561
0.054626975 0.16898996 0.036017347 9077892
0.054914497 0.17039673 0.036290649 9077635
0.055203285 0.17180048 0.036573768 6841187
0.055858988 0.17265028 0.039430164 9208193
0.056311529 0.17379716 0.040870976 9406086
0.056649197 0.17511442 0.041508973 11241094
0.056935627 0.17650846 0.041788202 11045771
0.057221849 0.17790167 0.042067014 11829633
0.057506803 0.17929567 0.042338043 11177100
0.057746194 0.18076122 0.042286899 10912900
0.057842672 0.18245715 0.041219659 11308429
0.0057420176 -0.027170379 -0.060466725 10134661
0.0058892295 -0.025553236 -0.06118289 9477736
0.0060366644 -0.023933716 -0.061900076 9215078
0.0061843144 -0.022311822 -0.062618345 6591310
0.0063321674 -0.020687545 -0.063337684 4686129
0.0064802677 -0.019060882 -0.064057991 4422698
0.006628565 -0.017431818 -0.064779431 4881968
0.0067770812 -0.015800361 -0.065501958 5734972
0.006925826 -0.014166497 -0.066225499 6194751
0.0070747696 -0.012530223 -0.06695018 6129461
0.0072239521 -0.010891531 -0.067675814 6458416
0.0073733488 -0.009250422 -0.068402596 8757840
0.007522969 -0.0076068873 -0.069130458 11185260
0.0076728007 -0.0059609194 -0.069859393 10071385
0.0078228666 -0.0043125153 -0.070589349 10399325
0.007973142 -0.0026616678 -0.071320511 10530910
0.0081236474 -0.0010083736 -0.07205262 9545801
0.0082743876 0.0006473707 -0.072785884 9348681
0.0084253429 0.0023055759 -0.073520213 9282896
0.0085765067 0.0039662477 -0.07425569 10461287
0.0087279091 0.0056293858 -0.07499218 11709316
0.0088795358 0.0072949994 -0.07572981 12823963
0.0090313964 0.0089630932 -0.076468527 13086118
0.055336639 0.16605614 0.034374572 6776422
0.055672504 0.16739509 0.034987848 8683391
0.055963945 0.16879711 0.035290319 8091768
0.056251962 0.17020297 0.035569839 9405572
0.056624614 0.17148016 0.036449511 6447457
0.057301491 0.17229089 0.039490104 8157561
0.057663776 0.17357209 0.040307444 10456204
0.057978582 0.17492351 0.040790074 11502467
0.058264624 0.17631792 0.041069478 9341064
0.058550477 0.17771146 0.041348521 11502724
0.058836151 0.1791041 0.041627508 9209992
0.0590965 0.18053637 0.041725863 9538957
0.059263173 0.18212059 0.041150894 9538957
0.0067873169 -0.02584572 -0.065250009 7248726
0.0069359308 -0.024220677 -0.065972738 6592075
0.0070847711 -0.022593239 -0.06669648 5409338
0.0072338148 -0.020963404 -0.067421429 4357674
0.0073830956 -0.019331161 -0.068147331 4290857
0.0075325896 -0.017696505 -0.068874381 4222250
0.0076822997 -0.016059434 -0.069602445 4087595
0.0078322468 -0.014419946 -0.070331596 4415020
0.0079823956 -0.012778026 -0.071061879 5204782
0.0081327781 -0.011133675 -0.071793184 5863472
0.0082833776 -0.0094868885 -0.072525635 6521910
0.0084342128 -0.0078376578 -0.0732591 7443009
0.0085852584 -0.00618598 -0.073993772 11642753
0.0087365359 -0.0045318445 -0.074729398 11905413
0.0088880267 -0.0028752519 -0.075466223 11578519
0.0090397559 -0.0012161946 -0.076204069 11316386
0.056658983 0.16588648 0.033529516 5329233
0.057011183 0.1672007 0.034265503 8157561
0.05730075 0.16860527 0.034557849 7499888
0.057589952 0.17000915 0.034848757 8354426
0.058158692 0.17098658 0.037142348 6052699
0.058675818 0.17203368 0.039074935 6645093
0.059016094 0.17334704 0.039743882 8552576
0.059308507 0.17473251 0.040070895 9472393
0.05959418 0.1761273 0.040350471 7500145
0.059879661 0.17752118 0.040629871 9538443
0.060164966 0.17891417 0.040909085 7368816
0.060443655 0.18031672 0.041141532 7368816
0.060680874 0.18178646 0.041072935 7829367
0.0076917848 -0.026140288 -0.069346003 6722380
0.0078415908 -0.024509678 -0.070074335 7445079
0.0079916315 -0.022876661 -0.070803747 8690020
0.0081418743 -0.021241222 -0.071534306 8687203
0.0082923686 -0.019603366 -0.072265826 8750178
0.0084430575 -0.017963082 -0.072998539 9077091
0.0085939933 -0.016320365 -0.073732279 9798760
0.0087451423 -0.014675207 -0.074467093 11244412
0.0088965092 -0.013027605 -0.075203054 9868919
0.0090481117 -0.011377554 -0.075940035 12754065
0.0091999359 -0.0097250501 -0.076678149 13216674
0.057981398 0.16571791 0.032677907 5000268
0.058350272 0.16700642 0.033542041 7303023
0.058638401 0.16841291 0.033827066 6710629
0.058928493 0.16981523 0.034127455 5592148
0.059626427 0.17058972 0.037383735 6052956
0.060026038 0.17181337 0.03848771 6579300
0.060353465 0.17314547 0.039071146 7105644
0.06063896 0.17454149 0.039351255 7434609
0.060924262 0.17593659 0.039631188 7105644
0.061209373 0.17733084 0.039910816 10128781
0.061494306 0.17872418 0.040190332 9603208
0.061779086 0.18011659 0.040469777 10391439
0.06203923 0.1815487 0.040569033 10325903
0.0086026955 -0.026436951 -0.073471278 6588491
0.0087537281 -0.02480074 -0.07420522 8165480
0.0089049675 -0.023162106 -0.074940376 8887664
0.0090564415 -0.021521032 -0.075676546 9674626
0.0092081418 -0.019877521 -0.076413795 10395796
0.059304729 0.16554926 0.031825621 5920856
0.059689671 0.1668124 0.032816496 6842472
0.059977781 0.1682187 0.033104461 5592405
0.060464725 0.16931832 0.034848195 4407874
0.061028913 0.17029072 0.037165575 6381921
0.061378893 0.17158911 0.037918806 6579300
0.061684851 0.17295398 0.038351115 6645093
0.061969955 0.17435035 0.038631398 6710886
0.062254887 0.17574582 0.038911562 6908265
0.062539645 0.17714038 0.03919154 9734794
0.062824227 0.17853405 0.039471466 10259339
0.06310863 0.17992681 0.039751209 12092548
0.063392848 0.1813187 0.040030774 11570830
0.060628992 0.16538048 0.030972831 6970974
0.061028209 0.16662046 0.03208027 8288890
0.061317727 0.16802441 0.032381628 5263440
0.061956793 0.16888453 0.035272568 4736839
0.062398076 0.17004257 0.036707975 6579300
0.06273181 0.17136486 0.037349682 6710886
0.06301675 0.17276245 0.037630558 6710886
0.063301496 0.17415915 0.037911195 6776679
0.063586064 0.17555496 0.038191713 6908265
0.063870475 0.17694984 0.038472109 8420990
0.064154692 0.17834383 0.038752325 8881027
0.064438723 0.17973696 0.039032362 11306630
0.064722575 0.18112917 0.039312221 9931916
0.061944332 0.16522652 0.030046206 8483956
0.062367272 0.16642852 0.03134333 9601152
0.062658176 0.16783008 0.031658281 6972773
0.06336005 0.16858584 0.035054829 7171180
0.063749626 0.16982196 0.036120087 7368559
0.064064652 0.17117286 0.036628798 7303023
0.064349204 0.17257081 0.036909845 7303023
0.0646336 0.17396785 0.037190832 7237230
0.064917803 0.17536397 0.037471708 7237230
0.065201841 0.17675923 0.037752397 7171437
0.065485686 0.17815357 0.038032841 7039851
0.065769352 0.17954704 0.038313109 9275271
0.066052832 0.1809396 0.038593262 7039851
0.063250475 0.16508831 0.029040912 6447200
0.063700803 0.16624601 0.030559771 9010814
0.06426625 0.16721673 0.032956809 6774880
0.064762287 0.16828735 0.034837373 8880256
0.065101311 0.16960135 0.035532143 9143171
0.065398015 0.17098081 0.035907447 9209221
0.065682217 0.17237908 0.036188908 9209221
0.065966241 0.17377645 0.036470257 9143685
0.066250078 0.17517295 0.036751296 9143685
0.066533744 0.17656852 0.037032276 9078149
0.066817231 0.17796323 0.037313081 7105644
0.067100517 0.17935702 0.037593644 7303023
0.067383647 0.18074994 0.037874084 6908265
0.064557083 0.16495137 0.028027644 5657941
0.065035045 0.16606338 0.029775802 6250078
0.065694951 0.16687967 0.032926142 9140601
0.066126645 0.16804807 0.034337062 10650242
0.066447936 0.16938911 0.034903996 9208450
0.066731937 0.17078866 0.035185877 9142914
0.067015775 0.17218727 0.035467695 9208707
0.067299426 0.173585 0.035749272 9865095
0.067582898 0.17498183 0.036030669 10847878
0.067866206 0.17637776 0.036311939 10455690
0.068149306 0.17777281 0.036592979 7368816
0.068432227 0.17916696 0.036873836 6974058
0.068714984 0.1805602 0.03715457 6908265
0.066369988 0.16588069 0.02899136 4473924
0.067091122 0.16659245 0.032655928 7959668
0.067483537 0.16782071 0.033779647 9273986
0.067782752 0.16919658 0.034181792 7697524
0.068066403 0.17059644 0.034464024 7697524
0.068349868 0.1719954 0.034746073 7829110
0.068633154 0.17339346 0.035028007 8289147
0.068916261 0.17479064 0.035309695 9995910
0.069199175 0.17618692 0.035591207 10127496
0.069481932 0.17758232 0.03587253 8355197
0.069764487 0.1789768 0.036153745 8026489
0.070046872 0.18037042 0.03643471 7895160
0.067705721 0.1656978 0.028206924 4210752
0.068455167 0.16635601 0.032140233 6776679
0.068823591 0.16762093 0.033089336 7631474
0.069118127 0.16900393 0.033459306 6776679
0.069401413 0.17040414 0.033741828 6776679
0.069684513 0.17180343 0.034024231 6842472
0.069967434 0.17320186 0.034306396 7368816
0.070250161 0.17459938 0.034588382 8880770
0.070532717 0.17599601 0.034870185 9799559
0.070815079 0.17739175 0.035151809 9734280
0.071097285 0.17878659 0.035433248 9866380
0.07138487 0.18017057 0.035759348 9866380
0.069269843 0.16514592 0.029230677 3486772
0.069807477 0.16613871 0.031531639 6842472
0.070164099 0.1674211 0.032398716 7236973
0.070454061 0.16881119 0.032736592 7303023
0.070736967 0.17021175 0.033019349 7236973
0.071019694 0.17161141 0.033302054 7302766
0.071302235 0.17301019 0.033584513 8552576
0.071584605 0.17440803 0.033866789 9800844
0.071866795 0.17580502 0.034148883 11371909
0.07214883 0.17720103 0.034431104 11699332
0.072433822 0.17859055 0.034738526 11634567
0.070640415 0.16490404 0.028737588 4144959
0.071159966 0.16592138 0.030922851 8551805
0.071505055 0.16722119 0.03170792 9275014
0.071790531 0.16861837 0.032013539 9209478
0.072073065 0.17001928 0.032296658 9078149
0.072355427 0.17141929 0.03257959 9209992
0.07263761 0.17281841 0.032862339 10391182
0.0729196 0.17421664 0.03314485 11699846
0.0732015 0.17561381 0.033427965 11893627
0.073485859 0.17700532 0.033732627 8814977
0.07378035 0.1783772 0.034121994 8026489
0.071940683 0.16477838 0.027672753 5328719
0.072513312 0.16570291 0.03031948 10452863
0.072845757 0.16702242 0.03101108 11370624
0.073127553 0.16842552 0.031290144 11370367
0.073409729 0.16982676 0.031573549 11174273
0.073691718 0.1712271 0.031856839 11175558
0.073973507 0.17262657 0.03213983 9669001
0.074255273 0.17402489 0.032423839 8420733
0.074539654 0.1754173 0.032730855 10717063
0.074833766 0.17679067 0.033120468 8289404
0.075130336 0.17815788 0.033532236 7105644
0.073227473 0.16467772 0.026482712 5723220
0.073853113 0.16550769 0.029602088 7828082
0.074180804 0.16683403 0.030263251 10455690
0.074465133 0.16823255 0.030566523 11502724
0.074746914 0.16963416 0.03085017 10455433
0.075028539 0.17103484 0.03113375 10848392
0.075310148 0.17243433 0.031418607 8026489
0.075595282 0.17382626 0.031734265 6908265
0.075887866 0.17520326 0.032114267 10062474
0.076184399 0.17657138 0.032529309 8289404
0.076481633 0.17793639 0.032952268 8552319
0.074331313 0.16489014 0.02374354 6642780
0.075172484 0.16534826 0.02870864 6447457
0.075516477 0.16664557 0.02951498 8354940
0.075803228 0.16803949 0.029842567 9471879
0.076084651 0.16944145 0.030126566 8355197
0.076366127 0.1708421 0.030412255 9077635
0.07665199 0.1722336 0.030736696 6842472
0.076943047 0.17361423 0.031106835 6973801
0.077239245 0.17498378 0.031522676 9340550
0.07753703 0.17634863 0.031953927 8026489
0.077850319 0.17768247 0.032520223 10391182
0.076488473 0.16519637 0.027776903 6446429
0.076851614 0.16645902 0.028756665 7763060
0.077141896 0.16784638 0.029118322 7368816
0.077423222 0.16924818 0.029404975 7763060
0.077709794 0.17063929 0.029738022 7631731
0.077999368 0.17202349 0.030098464 7434609
0.078295231 0.17339453 0.030514982 7303023
0.078594185 0.17475799 0.030960292 7105644
0.078905776 0.17609575 0.031517316 7105644
0.079218365 0.17742917 0.032085843 7500402
0.079535015 0.17875236 0.032692283 11635081
0.077777512 0.16509363 0.026601991 6906209
0.078185551 0.16627567 0.027981926 10454662
0.078481704 0.16765215 0.028398816 9406857
0.078768693 0.16904333 0.028738299 11434361
0.079056777 0.17043108 0.029088985 11238781
0.07935302 0.17180228 0.029512409 11042944
0.079652607 0.17316535 0.029967315 10782085
0.07996235 0.17450736 0.030513423 8289404
0.080274425 0.17584248 0.0310829 7039851
0.080590844 0.1771668 0.031693347 7105644
0.080914818 0.17847376 0.032373704 9209735
0.079500481 0.16612756 0.027034001 5723991
0.079828687 0.16744572 0.02773766 7171437
0.080115318 0.168837 0.028078444 7894646
0.080412917 0.1702065 0.028517695 8157561
0.08071211 0.17157111 0.0289733 8420990
0.08102002 0.17291729 0.029508479 8814977
0.081331626 0.17425407 0.030079208 7697524
0.081649043 0.17557716 0.030704686 7039851
0.081971101 0.17688845 0.031374861 7105644
0.082297891 0.17818752 0.032090634 7368816
0.080798477 0.16601224 0.025924033 5855320
0.081169568 0.16725115 0.027018549 6052956
0.081473894 0.16860911 0.027521877 6579300
0.081772693 0.16997524 0.027978245 6645093
0.082078807 0.17132558 0.02850242 6842472
0.082391918 0.17266019 0.029092468 6842472
0.082708754 0.17398505 0.029718993 6908265
0.083028495 0.17530149 0.030374968 6974058
0.083355255 0.17660123 0.031097969 7105644
0.083693132 0.17787561 0.031925801 7303023
0.082508527 0.16706105 0.026277028 7433581
0.082834378 0.16837773 0.026982276 8157818
0.083138689 0.16973218 0.027495312 8092282
0.08345329 0.17106467 0.028104817 7894903
0.08376953 0.17239134 0.028732333 7237230
0.084086977 0.17371291 0.029374035 6974058
0.084413692 0.1750133 0.030104205 7105644
0.084750764 0.17628983 0.030933453 7303023
0.085087158 0.17756402 0.031760696 7368816
0.083787791 0.16698432 0.024981884 9271673
0.08419127 0.16815314 0.026409669 10845565
0.084515736 0.16946758 0.027116075 11633282
0.084831379 0.17079602 0.027744642 11504009
0.085146584 0.17212261 0.028372234 8552576
0.085473217 0.17342375 0.029109465 7039851
0.085809462 0.17470242 0.029940005 7303023
0.086145096 0.17597868 0.030769091 9932173
0.086481676 0.1772493 0.031611465 9735308
0.085546233 0.16793244 0.025818208 8352370
0.085894294 0.16919909 0.026756044 9931402
0.086208902 0.17052749 0.027384628 10325903
0.08653383 0.17183258 0.028113747 8223868
0.086869255 0.17311338 0.028945643 7105644
0.087204047 0.17439179 0.029776027 7566195
0.087540187 0.1756638 0.030623404 10587790
0.08788833 0.17690714 0.031589594 11111307
0.086828485 0.16785388 0.024536321 7894903
0.087259002 0.16895697 0.026269697 8420219
0.08759553 0.17023978 0.027116926 8618369
0.087930135 0.17152272 0.027950242 8289661
0.088264108 0.17280327 0.02878198 7895160
0.088599764 0.17407669 0.029634312 7960696
0.08894638 0.17532355 0.030596714 9209992
0.089290641 0.17657107 0.031541497 9669772
0.088626191 0.16870958 0.025809072 6578272
0.088989072 0.16993654 0.026924564 6908265
0.089322649 0.17121843 0.027761733 8880770
0.08966279 0.1724831 0.028667158 9274243
0.09000659 0.17373608 0.029613309 8814977
0.090349652 0.17498642 0.030557396 7631988
0.090689987 0.17623836 0.031479783 8684162
0.089891054 0.16866902 0.024348496 9012613
0.090367228 0.16966283 0.026591826 5855577
0.09071783 0.17090662 0.027610321 9012356
0.091057308 0.1721691 0.028524632 9143171
0.091396101 0.17342898 0.029437182 8683648
0.091734201 0.17468627 0.030347846 7171437
0.092071593 0.17594099 0.031256564 7960696
0.091722928 0.16943453 0.026041664 6775137
0.092104614 0.17061007 0.027387518 7697267
0.092442572 0.17187239 0.0283019 8092282
0.092779823 0.17313214 0.02921427 7894903
0.093116432 0.17438914 0.030125428 7039851
0.093452372 0.17564356 0.031034822 7697524
0.093481727 0.17033225 0.027076377 6710629
0.093825169 0.17157947 0.028062258 7631731
0.094157703 0.17284602 0.028941996 7368816
0.094489567 0.17411005 0.029820036 7105644
0.094820768 0.17537157 0.03069631 7763317
0.094797961 0.17018449 0.026143659 7696239
0.095187724 0.1713285 0.027624588 8683134
0.09552066 0.17259115 0.028523389 8880770
0.095852084 0.17385313 0.029411711 7894646
0.096182637 0.17511307 0.030296015 9471879
0.096534431 0.17111197 0.027023347 8418163
0.096881837 0.17233954 0.028089991 9799302
0.097211853 0.17360161 0.02897861 9405829
0.097541235 0.17486116 0.029865518 10128267
0.097857475 0.17094897 0.026166733 6710115
0.098240346 0.1720933 0.027631462 8879742
0.098571308 0.17335014 0.028545633 9602694
0.098899283 0.17460981 0.029432839 9799816
0.09957727 0.17189632 0.026939858 6709601
0.099928252 0.17310385 0.028088734 8157561
0.10025128 0.174372 0.028937228 8288890
0.10083036 0.17189682 0.025310202 8157561
0.10126499 0.17290485 0.027409367 6118749
0.10158541 0.17417672 0.028243106 6447714
0.10256822 0.17278743 0.026344435 5658198
0.10292001 0.17398134 0.027548857 5987163
0.10425035 0.17379761 0.026799379 5000268
0.10551761 0.17377397 0.025296642 8880513
-0.01912277 0.027126638 0.050248861 11969932
-0.030091003 0.026623843 0.04782993 5865277
-0.028486554 0.025843315 0.048180513 6129980
-0.026885094 0.025064336 0.048530415 4556053
-0.025286613 0.024286682 0.048879698 4622100
-0.023691107 0.023510579 0.049228311 4819476
-0.022098562 0.022735858 0.049576283 5870620
-0.020508977 0.021962864 0.049923535 7907117
-0.0189326 0.021942509 0.050060693 10400094
-0.042682193 0.026902547 0.045056336 6718288
-0.041064136 0.026120851 0.045409914 6655051
-0.039449099 0.025340704 0.045762807 6985547
-0.037837069 0.024561878 0.046115078 5610286
-0.036228042 0.023784604 0.046466663 5677358
-0.034622006 0.023008768 0.046817601 5546793
-0.03301895 0.022234308 0.047167901 5612841
-0.031418875 0.021461345 0.047517538 5679143
-0.029821767 0.020689877 0.047866508 5548323
-0.028227612 0.019919673 0.048214871 5614624
-0.026636412 0.019151025 0.048562564 5943073
-0.025048155 0.018383812 0.048909605 6336802
-0.023462838 0.017618215 0.049255952 6795815
-0.021880442 0.01685394 0.049601682 7845679
-0.020300966 0.016091218 0.049946729 9289019
-0.018766787 0.0184625 0.04941212 10729313
-0.053670846 0.026398968 0.042632915 7770456
-0.052042175 0.025617655 0.042988807 7049291
-0.050416537 0.024837721 0.043344062 6920262
-0.048793931 0.024059279 0.043698639 6591556
-0.047174346 0.023282329 0.044052545 7184205
-0.045557771 0.022506757 0.044405811 7317323
-0.043944202 0.021732619 0.044758424 8501849
-0.042333625 0.020959919 0.045110386 8241742
-0.04072604 0.020188713 0.045461673 7980616
-0.039121434 0.019418886 0.045812327 7981896
-0.037519794 0.018650495 0.046162322 7917128
-0.035921119 0.017883481 0.046511684 7326016
-0.034325399 0.017117968 0.046860382 6734647
-0.032732625 0.016353831 0.04720844 7258690
-0.031142788 0.015591076 0.047555871 6864187
-0.029555881 0.014829759 0.047902647 5944621
-0.027971897 0.014069882 0.048248775 5878568
-0.02639083 0.013311559 0.048594221 6666032
-0.024812669 0.012554677 0.048939027 7650879
-0.023237403 0.011799118 0.049283206 8307015
-0.021665027 0.011045 0.049626745 9028168
-0.020095531 0.010292207 0.049969673 10077258
-0.018602159 0.015007339 0.048768178 10991448
-0.056498408 0.022004491 0.041992959 12235896
-0.054874312 0.021230675 0.042347882 11322488
-0.05325323 0.020458296 0.042702153 9028190
-0.051635157 0.019687293 0.043055773 9289324
-0.050020084 0.018917784 0.043408729 9878653
-0.048408002 0.018149711 0.043761026 8893297
-0.0467989 0.017383017 0.044112682 8699491
-0.045192774 0.016617756 0.044463675 8570970
-0.043589614 0.015853876 0.044814043 8770134
-0.041989408 0.015091434 0.045163747 8902996
-0.040392157 0.014330428 0.045512803 8574545
-0.038797844 0.013570803 0.045861222 8509010
-0.037206467 0.012812559 0.046209004 8509267
-0.035618015 0.012055751 0.04655613 7852619
-0.034032475 0.011300268 0.046902642 7785292
-0.032449849 0.010546223 0.047248501 8767579
-0.030870125 0.009793561 0.047593728 8176980
-0.029293297 0.0090425108 0.04793825 7980367
-0.027719354 0.0082927868 0.048282165 8571733
-0.026148289 0.0075445017 0.048625428 9096794
-0.024580089 0.0067974837 0.048968084 9293659
-0.023014752 0.0060519078 0.049310103 9555548
-0.021452269 0.0053076572 0.049651504 10013786
-0.019892627 0.0045647332 0.049992293 10799702
-0.018438704 0.011576835 0.048128802 11647328
-0.057681505 0.016882354 0.041712604 12504220
-0.056064956 0.016117295 0.04206593 13354116
-0.054451402 0.015353787 0.042418554 11132280
-0.052840825 0.014591657 0.042770546 8835923
-0.051233217 0.013830906 0.0431219 8244302
-0.049628567 0.013071532 0.043472603 6865463
-0.048026875 0.012313655 0.043822642 6274861
-0.046428122 0.01155704 0.044172063 6406957
-0.044832308 0.010801863 0.044520836 7982919
-0.043239422 0.010048123 0.04486895 8443214
-0.041649457 0.0092957076 0.045216449 8771159
-0.040062409 0.0085447291 0.045563288 8310865
-0.038478263 0.0077951332 0.045909498 7851597
-0.036897011 0.0070468024 0.046255101 7588938
-0.03531865 0.006299912 0.046600051 7128900
-0.033743169 0.0055544595 0.046944346 9947243
-0.032170568 0.0048105065 0.047287982 10406770
-0.030600829 0.0040678782 0.047630996 10407282
-0.029033948 0.0033266328 0.047973376 10538353
-0.027469916 0.0025867701 0.048315119 10932083
-0.025908723 0.0018481765 0.04865627 10669424
-0.024350364 0.0011109097 0.048996806 10407788
-0.02279483 0.00037508359 0.049336687 10211433
-0.021242114 -0.00035947267 0.049675975 10341728
-0.019692209 -0.001092701 0.050014652 10996313
-0.018276406 0.0081705656 0.047493991 11645541
-0.05724299 0.011058195 0.041786928 13095310
-0.055636894 0.010303326 0.042137966 12768136
-0.054033741 0.0095498348 0.042488355 9626206
-0.052433532 0.0087977238 0.042838108 8772435
-0.05083625 0.0080469912 0.043187216 7983688
-0.049241897 0.0072976965 0.043535665 6866743
-0.047650456 0.0065496676 0.043883517 6406961
-0.046061926 0.0058030761 0.044230703 6669365
-0.044476293 0.0050578071 0.044577267 7326274
-0.042893555 0.0043139206 0.044923201 9164133
-0.0413137 0.0035714149 0.045268487 10673281
-0.039736718 0.0028302339 0.045613162 11461777
-0.038162611 0.0020904352 0.045957197 12381857
-0.036591358 0.0013519601 0.046300605 13105071
-0.03502297 0.00061504182 0.046643335 14086842
-0.033457424 -0.00012055103 0.046985447 14537639
-0.031894714 -0.00085476041 0.047326922 13684635
-0.030334832 -0.0015877015 0.047667798 12436870
-0.028777771 -0.0023193161 0.048008054 12041593
-0.027223524 -0.0030496044 0.048347697 12174206
-0.025672082 -0.0037785654 0.048686724 11652734
-0.02412344 -0.0045062569 0.049025148 11524482
-0.022577588 -0.0052325618 0.04936295 11722630
-0.021034518 -0.0059575979 0.049700148 11655804
-0.019494224 -0.0066813631 0.050036747 11850352
-0.018115256 0.0047883978 0.046863664 11251043
-0.056809902 0.0053060534 0.041860312 13294489
-0.055214111 0.0045610843 0.042209115 12317076
-0.053621229 0.0038174377 0.042557295 11597192
-0.052031256 0.0030752295 0.04290482 11924627
-0.050444175 0.0023343435 0.043251712 12186778
-0.04885998 0.0015947811 0.043597985 12908713
-0.047278665 0.00085660029 0.043943617 14221250
-0.045700226 0.00011974259 0.044288624 15531997
-0.044124644 -0.00061579049 0.044633009 16776948
-0.042551924 -0.001349941 0.04497676 16775673
-0.040982049 -0.002082824 0.045319907 16709109
-0.039415017 -0.0028142673 0.045662396 16709623
-0.037850823 -0.0035442694 0.046004228 16775673
-0.036289457 -0.0042728875 0.046345431 16775927
-0.0347309 -0.0050002956 0.046686042 16373703
-0.033175159 -0.005726377 0.047026038 14997938
-0.031622216 -0.0064510736 0.047365401 13421462
-0.030072069 -0.0071745003 0.047704164 11976829
-0.028524708 -0.007896658 0.04804232 11190644
-0.026980124 -0.0086174877 0.048379865 11521405
-0.025438314 -0.0093370471 0.048716813 12048263
-0.023899266 -0.010055335 0.049053162 12312203
-0.022362975 -0.010772295 0.049388893 12313227
-0.020829435 -0.011487926 0.049724013 11918468
-0.019298635 -0.012202344 0.050058544 11455611
-0.017955242 0.0014300803 0.046237763 10594654
-0.016668495 0.024416437 0.03971326 6918491
-0.10959951 0.031959973 0.028076285 10918040
-0.10804246 0.032433059 0.028069641 10327445
-0.10648406 0.032906666 0.028062964 10064530
-0.10492424 0.03338062 0.028056303 10064530
-0.10336304 0.033855032 0.028049625 10064530
-0.10180046 0.03432991 0.028042931 10392724
-0.10023648 0.034805134 0.028036248 9407628
-0.098684162 0.03541078 0.027990727 8881798
-0.097129174 0.036008686 0.027947664 9078920
-0.095571712 0.036600292 0.027906653 10195859
-0.094012469 0.037192602 0.027865576 10851733
-0.092451453 0.037785683 0.02782443 10984090
-0.090888627 0.038379356 0.027783256 10655639
-0.089324027 0.038973738 0.027742028 10327445
-0.087757617 0.039568774 0.027700773 9999251
-0.086200856 0.040296912 0.027620047 9736593
-0.084668152 0.04133689 0.027446762 9999765
-0.08313141 0.042369306 0.027276019 11050911
-0.081572756 0.043173481 0.027173379 11050654
-0.056382131 -0.00037550885 0.041932818 15267016
-0.054796517 -0.0011106934 0.042279392 16252896
-0.053213779 -0.0018446104 0.042625371 16777207
-0.051633909 -0.0025771477 0.042970702 16776701
-0.050056893 -0.0033084753 0.043315444 16776701
-0.048482735 -0.0040383064 0.043659508 16776958
-0.046911418 -0.004766928 0.04400298 16776958
-0.045342933 -0.0054942821 0.044345852 16777215
-0.043777283 -0.0062202523 0.044688087 16775930
-0.042214453 -0.0069448408 0.045029674 16771818
-0.040654443 -0.0076679876 0.045370612 16641260
-0.039097238 -0.0083898073 0.045710932 16773360
-0.037542831 -0.0091103017 0.046050623 16774131
-0.035991214 -0.0098295826 0.04638974 16769762
-0.034442376 -0.010547538 0.046728227 16440782
-0.032896314 -0.011264281 0.047066137 14803382
-0.031353019 -0.011979695 0.047403429 13029783
-0.029812483 -0.012693783 0.047740098 11715709
-0.028274702 -0.013406599 0.048076168 11321459
-0.026739664 -0.014118201 0.04841166 11714932
-0.025207365 -0.014828475 0.048746534 11716470
-0.023677794 -0.015537535 0.049080823 11586676
-0.022150949 -0.016245322 0.049414515 11391090
-0.020626817 -0.016951839 0.049747612 10801772
-0.019105397 -0.017657081 0.050080113 11256439
-0.017796351 -0.0019046922 0.045616262 9872473
-0.016510125 0.020912627 0.039099172 6787161
-0.10887298 0.026366854 0.028105116 10261652
-0.10732241 0.026813651 0.028104873 10195859
-0.10577047 0.02726016 0.028104829 10195859
-0.10421722 0.027707066 0.028104771 10195859
-0.10266266 0.028154204 0.028104765 10458260
-0.10110674 0.028601164 0.028104914 10851990
-0.099549524 0.029048527 0.028105067 9407628
-0.097991005 0.02949629 0.028105207 9473421
-0.096431166 0.029944394 0.028105358 9867922
-0.094870031 0.030392842 0.028105518 11638165
-0.093307577 0.030841691 0.028105667 11113877
-0.091743827 0.031290941 0.028105818 10458003
-0.09017875 0.031740535 0.028105972 11113363
-0.08861237 0.032190528 0.028106121 10917526
-0.087044671 0.032640923 0.028106259 9999251
-0.085475653 0.033091661 0.028106416 10065044
-0.083905317 0.033542801 0.028106561 10130580
-0.082333654 0.033994284 0.028106717 10196373
-0.080760673 0.034446165 0.02810687 10196630
-0.079186365 0.034898393 0.028107028 8421504
-0.077610739 0.035351079 0.028107172 8355711
-0.076033771 0.035804052 0.028107338 10262166
-0.074456207 0.036267266 0.02810456 10721432
-0.072877839 0.036738586 0.028099485 10524567
-0.071298547 0.037216991 0.028092423 10393238
-0.069717832 0.037695739 0.028085373 10261909
-0.068138123 0.038211089 0.02806755 9473678
-0.066571295 0.038948294 0.027983816 9670543
-0.065102726 0.041271959 0.027428322 11702930
-0.057537995 -0.0052606296 0.041659359 13490871
-0.055959579 -0.0059876982 0.042004421 15597269
-0.054384016 -0.0067133275 0.042348828 16777201
-0.052811291 -0.0074377488 0.042692631 16776444
-0.051241398 -0.0081607867 0.043035802 16775673
-0.049674328 -0.008882557 0.043378361 16776187
-0.048110072 -0.0096030608 0.043720309 16776187
-0.046548627 -0.010322237 0.044061638 16776444
-0.044989988 -0.011040031 0.044402331 16776187
-0.043434143 -0.011756441 0.044742379 16773103
-0.041881084 -0.012471581 0.045081828 16703969
-0.040330809 -0.013185395 0.04542065 16703969
-0.038783301 -0.013897939 0.045758869 16771047
-0.037238557 -0.014609213 0.046096485 16770790
-0.035696566 -0.015319275 0.046433516 16766935
-0.034157325 -0.016028007 0.046769932 16444379
-0.032620825 -0.01673547 0.047105741 14739899
-0.03108706 -0.017441718 0.047440972 12900249
-0.029556017 -0.018146696 0.047775593 11651712
-0.028027698 -0.018850401 0.048109621 11388534
-0.026502088 -0.019552892 0.048443064 11584883
-0.024979182 -0.020254113 0.048775904 11780976
-0.023458974 -0.020954115 0.049108166 11846253
-0.021941457 -0.021652848 0.049439829 11126889
-0.020426624 -0.022350362 0.049770918 10667623
-0.018914465 -0.023046661 0.050101422 10791276
-0.01763857 -0.0052161086 0.044999104 9018197
-0.016352892 0.01743399 0.03848948 5145915
-0.10970626 0.020491662 0.028105209 9539214
-0.10816552 0.020933041 0.028105034 10064530
-0.10662345 0.02137436 0.028104987 10195602
-0.10508009 0.021816021 0.02810495 10261395
-0.10353545 0.022258082 0.028104905 10261395
-0.10198953 0.022700541 0.028104847 11375764
-0.10044231 0.023143286 0.028104816 10458774
-0.098893806 0.023586489 0.02810476 9999251
-0.097343944 0.024029342 0.028104918 10065044
-0.095792793 0.024472598 0.028105069 11573143
-0.094240338 0.024916194 0.028105224 11768466
-0.092686608 0.025360249 0.028105361 10851476
-0.091131568 0.025804646 0.028105495 11047827
-0.089575239 0.026249386 0.028105648 11441043
-0.088017598 0.026694467 0.028105803 10918040
-0.086458661 0.027139893 0.028105976 10524567
-0.08489842 0.027585775 0.028106112 10524824
-0.083336882 0.028031999 0.028106267 10458774
-0.081774034 0.028478624 0.028106408 10459031
-0.080209881 0.028925594 0.028106559 9670800
-0.07864441 0.029372904 0.028106723 8684676
-0.077077635 0.029820617 0.028106874 9802129
-0.075509548 0.030268786 0.028107002 11179927
-0.073940143 0.030717187 0.028107177 11114391
