# .PCD v0.7 - Point Cloud Data file format
VERSION 0.7
FIELDS x y z rgb
SIZE 4 4 4 4
TYPE F F F U
COUNT 1 1 1 1
WIDTH 1067
HEIGHT 1
VIEWPOINT 0 0 0 1 0 0 0
POINTS 1067
DATA ascii
-0.11861382 0.03406645 0.024229445 10722203
-0.11851167 0.035668567 0.023738325 11247776
-0.11842823 0.037275784 0.023190495 10197144
-0.1183447 0.038884975 0.022641985 8421504
-0.11826694 0.040497251 0.022075232 8355711
-0.11820988 0.042115584 0.021445611 8289918
-0.11815272 0.043736201 0.020815141 8158332
-0.11836803 0.04541475 0.019367279 8549235
-0.11272112 -0.091459081 0.098411456 4539717
-0.11269207 -0.090071648 0.097810753 5197133
-0.11265694 -0.088680677 0.097226046 5591891
-0.11105566 -0.086905658 0.10101155 6776679
-0.11075308 -0.085454136 0.10117562 7237230
-0.11069655 -0.084060878 0.10065207 7237230
-0.11065541 -0.082669377 0.1000846 7171437
-0.11060509 -0.081273891 0.099541895 6842472
-0.11060449 -0.079887517 0.0988589 7237230
-0.11061522 -0.078501254 0.098143011 8157818
-0.11062597 -0.077112563 0.097425818 7039594
-0.11063673 -0.075721435 0.096707441 7171437
-0.11064754 -0.074327871 0.095987707 7105387
-0.11065835 -0.072931848 0.09526673 5789784
-0.11070578 -0.071540385 0.094441414 6644836
-0.11097533 -0.070187584 0.092988439 8879485
-0.11124585 -0.068829983 0.09153033 8286063
-0.11157335 -0.067477494 0.089908808 9726827
-0.11199002 -0.066134803 0.088032506 10446438
-0.11247802 -0.06479764 0.085951254 8350571
-0.11397032 -0.063616574 0.081023082 5197390
-0.11548045 -0.062421404 0.076036014 4473924
-0.1178233 -0.061336357 0.068678826 6512222
-0.1204858 -0.060273293 0.06040182 7234403
-0.12843245 -0.059937701 0.037099201 5986649
-0.14969826 -0.061362095 -0.02411329 6380636
-0.15075818 -0.059882652 -0.027929936 7629418
-0.15113834 -0.058302786 -0.029817099 6905438
-0.15135787 -0.056696575 -0.031249555 9139316
-0.15157807 -0.055085499 -0.032686368 9205623
-0.15179744 -0.053469345 -0.03412329 9402745
-0.15154336 -0.051796798 -0.034209609 9994111
-0.15122846 -0.050117642 -0.034122068 10650242
-0.15091355 -0.048438791 -0.034034416 10715778
-0.15059879 -0.046760261 -0.033946987 10125183
-0.15028401 -0.045082036 -0.033859335 9335924
-0.14996934 -0.043404125 -0.033771906 6577501
-0.14965469 -0.041726515 -0.033684365 5658198
-0.14928608 -0.040045243 -0.033441506 6052956
-0.14888233 -0.038362391 -0.033097137 6775137
-0.14847887 -0.036680769 -0.032752994 7957098
-0.1291634 -0.033890009 0.022106165 6776165
-0.12837797 -0.032285586 0.023600528 10982548
-0.12792072 -0.030702353 0.024149923 10983576
-0.12762958 -0.029128283 0.024220137 9736850
-0.12736204 -0.027555369 0.024222244 8947591
-0.12709451 -0.025982467 0.024224294 9342349
-0.12682699 -0.024409574 0.024226343 9473935
-0.12655947 -0.022836689 0.024228392 9539471
-0.12629195 -0.021263808 0.024230443 11376278
-0.12602444 -0.01969094 0.024232494 12618121
-0.12575692 -0.018118078 0.024234543 10458774
-0.1254894 -0.016545227 0.024236592 10065044
-0.12522115 -0.014972384 0.02424079 11638679
-0.12495356 -0.013399553 0.024243066 11834259
-0.12468689 -0.01182672 0.024242684 9736593
-0.12442021 -0.010253889 0.024242304 8355711
-0.12415355 -0.0086810524 0.024241868 9210763
-0.12388688 -0.0071082227 0.024241488 11706014
-0.1236202 -0.0055353893 0.024241107 11901851
-0.12335353 -0.0039625559 0.024240727 10984604
-0.12308687 -0.002389723 0.024240289 9342349
-0.12282018 -0.00081688887 0.024239965 9802643
-0.1225535 0.00075594464 0.024239585 11901851
-0.12228683 0.0023287782 0.024239205 11706014
-0.12202015 0.0039016099 0.024238825 9999508
-0.1217533 0.0054744314 0.024238952 8684676
-0.12148639 0.0070472467 0.02423925 9933972
-0.12121949 0.0086200582 0.024239548 8289918
-0.12095258 0.010192868 0.024239846 8421504
-0.12068567 0.011765677 0.024240144 9079434
-0.12041877 0.013338481 0.02424044 9605521
-0.12015186 0.014911284 0.024240738 9605521
-0.11988497 0.016484084 0.024241036 9539728
-0.11961812 0.01805689 0.024241164 9539728
-0.11935129 0.019629695 0.024241235 9933972
-0.11908445 0.021202495 0.024241364 11115676
-0.11881762 0.022775296 0.024241436 11835801
-0.11855079 0.024348097 0.024241507 11639707
-0.11828396 0.025920894 0.024241578 10656410
-0.11801714 0.027493693 0.02424165 10524824
-0.1177503 0.029066484 0.024241779 9603208
-0.11748345 0.030639274 0.024241906 10260367
-0.11721663 0.032212067 0.024241978 9078149
-0.1169498 0.033784859 0.024242051 9144456
-0.11674997 0.035369139 0.024041414 9407628
-0.11666552 0.036974568 0.023494355 7895160
-0.116581 0.038581975 0.022946563 7171437
-0.11649635 0.040191349 0.022398146 7368816
-0.1164142 0.041803204 0.021841252 7895160
-0.11635584 0.04342182 0.021211727 9143428
-0.11630976 0.045045238 0.020544104 9338751
-0.11689827 0.046804275 0.017961862 9801872
-0.11116636 -0.091631368 0.098471746 6775137
-0.11113017 -0.090243541 0.09788841 8551805
-0.10933784 -0.088413663 0.1022272 9012870
-0.10921659 -0.087009288 0.10188475 7434609
-0.10917735 -0.08562354 0.10131136 7237230
-0.10913377 -0.084234819 0.10074924 7039851
-0.10908668 -0.082843386 0.10019605 6842472
-0.10909609 -0.081462897 0.099482864 6710886
-0.10910548 -0.08007998 0.09876854 6579300
-0.1091149 -0.078694642 0.098052919 6381921
-0.10912431 -0.077306874 0.097336106 6250335
-0.10913376 -0.075916678 0.096617997 6118749
-0.10914323 -0.074524052 0.095898576 5395026
-0.10927667 -0.073153518 0.094827212 5395026
-0.10952486 -0.071801506 0.093429051 6776165
-0.10979441 -0.070448741 0.091968007 10448751
-0.11016063 -0.069108739 0.090230227 10707040
-0.11057368 -0.067771159 0.088356592 10445410
-0.11125894 -0.06647449 0.085706256 7629161
-0.11274437 -0.065303974 0.08077582 5263183
-0.11424755 -0.064119458 0.075786449 6314843
-0.11629046 -0.063003764 0.069251023 8743787
-0.11882407 -0.061941367 0.061305404 7169124
-0.12469339 -0.061350137 0.0438274 6973801
-0.14977519 -0.063475519 -0.028552283 9342606
-0.1283119 -0.035738103 0.020512505 8815748
-0.12717545 -0.034107756 0.023030125 9144713
-0.12661009 -0.03251747 0.023895586 10327959
-0.12623207 -0.030939514 0.024218658 9999508
-0.12596472 -0.029367624 0.024220709 8881798
-0.12569739 -0.027795739 0.024222704 8355711
-0.12543003 -0.026223864 0.024224812 8224125
-0.12516269 -0.024652001 0.024226865 8355711
-0.12489536 -0.023080146 0.02422886 8618883
-0.12462801 -0.021508295 0.024230968 10393752
-0.12436067 -0.019936455 0.024233019 12290184
-0.12409335 -0.018364625 0.024235016 12489619
-0.12382543 -0.016792802 0.024238763 12489876
-0.12355733 -0.015220991 0.024243077 10328473
-0.12329084 -0.013649186 0.024242641 10525338
-0.12302432 -0.012077381 0.024242317 8421504
-0.12275782 -0.010505579 0.024241937 8355711
-0.12249134 -0.0089337751 0.0242415 10459031
-0.12222484 -0.0073619699 0.02424112 11378591
-0.12195834 -0.0057901647 0.02424074 10394009
-0.12169184 -0.0042183632 0.02424036 11312798
-0.12142533 -0.002646558 0.024239978 10196373
-0.12115883 -0.001074753 0.024239598 8684419
-0.12089235 0.00049705151 0.024239162 10328473
-0.12062585 0.002068853 0.02423878 10722460
-0.12035912 0.003640644 0.02423908 12033180
-0.12009237 0.0052124299 0.024239434 9210763
-0.11982565 0.0067842165 0.024239676 11706014
-0.11955892 0.0083559984 0.024239974 8881798
-0.11929219 0.0099277785 0.024240272 8750469
-0.11902547 0.011499555 0.024240572 8684676
-0.11875874 0.01307133 0.02424087 8684676
-0.11849203 0.014643105 0.024241112 8684676
-0.11822537 0.016214883 0.024241183 8750469
-0.11795871 0.017786657 0.024241313 8816262
-0.11769205 0.019358434 0.024241384 9145227
-0.1174254 0.020930206 0.024241457 9999508
-0.11715873 0.022501977 0.024241585 9736079
-0.1168921 0.02407375 0.0242416 9012613
-0.11662545 0.025645519 0.024241675 8092282
-0.11536185 0.02707338 0.027232109 9274243
-0.11498975 0.028623946 0.027551455 8947591
-0.11461791 0.030173397 0.027870577 11050397
-0.11433744 0.031736366 0.027915502 8882055
-0.11407758 0.033302598 0.027898438 9013641
-0.11386207 0.034876496 0.027747726 8882055
-0.11369118 0.036458839 0.027462179 8289918
-0.11352124 0.038042393 0.027173238 8355711
-0.11336188 0.039628986 0.026851831 8289918
-0.11327128 0.041230053 0.026321892 10065044
-0.11327334 0.042851489 0.025510572 11509663
-0.11321703 0.044463947 0.024874585 10788253
-0.11315297 0.046077099 0.024260936 9605521
-0.11316101 0.047708035 0.023427388 7039851
-0.1079281 -0.091361701 0.10327469 10392467
-0.10774301 -0.089944959 0.10311209 10588818
-0.10770282 -0.088564269 0.10254083 10719890
-0.10766259 -0.087181635 0.10196871 8355454
-0.1076166 -0.085795671 0.10141188 7631988
-0.10758387 -0.084410988 0.10081667 7566195
-0.10759193 -0.083033815 0.10010511 7566195
-0.1076 -0.081654228 0.09939231 6645093
-0.10760807 -0.080272235 0.098678313 6316128
-0.10761619 -0.078887828 0.097962953 6184542
-0.10762431 -0.077500984 0.097246408 6052956
-0.10769728 -0.076125301 0.096344464 6644836
-0.1078722 -0.074767403 0.095151231 7433324
-0.10807783 -0.073411584 0.093868628 8089455
-0.10835106 -0.072064571 0.092391402 8022634
-0.10875088 -0.07073658 0.090550952 4473667
-0.109263 -0.069423109 0.088387124 7760490
-0.11003701 -0.068149477 0.085472062 6315100
-0.11151463 -0.066989332 0.08054208 5657684
-0.11299364 -0.065812558 0.0755997 7103588
-0.11476175 -0.064666755 0.069821589 8022377
-0.11727759 -0.063621357 0.061892051 5723220
-0.12121446 -0.06277024 0.049875665 5526355
-0.12599108 -0.035931066 0.022406993 8486783
-0.12538008 -0.034336094 0.023409357 9276299
-0.12491463 -0.032752745 0.023988958 11638936
-0.12456924 -0.031177506 0.024219144 12228760
-0.12430205 -0.029606646 0.024221255 11180184
-0.1240349 -0.02803579 0.024223251 9342092
-0.12376773 -0.026464947 0.024225304 8289918
-0.12350057 -0.024894111 0.024227358 9079177
-0.12323341 -0.023323283 0.024229411 10918040
-0.12296624 -0.021752462 0.024231466 11442842
-0.12269909 -0.02018165 0.02423352 10918554
-0.12243155 -0.018610846 0.024236705 10919068
-0.12216339 -0.01704005 0.024241701 10918811
-0.12189659 -0.015469272 0.024242679 8684676
-0.12163027 -0.013898495 0.024242299 10458774
-0.12136392 -0.012327718 0.024241976 9145227
-0.12109762 -0.010756942 0.024241539 8421504
-0.12083129 -0.0091861645 0.024241159 9671057
-0.12056496 -0.0076153879 0.024240779 9736850
-0.12029865 -0.0060446118 0.024240341 8882055
-0.1200323 -0.0044738343 0.024240019 9802643
-0.11976597 -0.0029030575 0.024239639 9408142
-0.11949967 -0.0013322815 0.024239201 8487297
-0.1192333 0.00023849278 0.024238935 8816262
-0.11896675 0.0018092537 0.024239235 9670800
-0.11870018 0.0033800153 0.02423959 11703958
-0.11843364 0.0049507739 0.024239833 9013641
-0.11816708 0.0065215291 0.024240132 11247262
-0.11790053 0.0080922823 0.02424043 11705243
-0.11763395 0.0096630333 0.024240788 11114648
-0.11736742 0.011233782 0.02424103 11114648
-0.11710092 0.012804534 0.024241159 11114648
-0.11683447 0.014375287 0.024241176 11114648
-0.11656797 0.015946034 0.024241304 11442585
-0.11630148 0.017516783 0.024241434 11112592
-0.11603502 0.019087531 0.024241449 9010557
-0.11489186 0.020550864 0.026876383 9998994
-0.11439856 0.022087846 0.027561149 9868436
-0.11405291 0.02364205 0.027802601 9211020
-0.11374222 0.025200233 0.027939128 8947848
-0.1134581 0.026761753 0.027995743 10919068
-0.11316627 0.028321913 0.028075784 9670800
-0.11289475 0.029884936 0.028094536 10984604
-0.11264296 0.031451054 0.028053692 9671057
-0.1124069 0.033019934 0.027965138 9736593
-0.11217079 0.034589123 0.027876584 8289918
-0.11197122 0.036165103 0.027677044 8355711
-0.11181207 0.037749186 0.027354466 8355711
-0.11165281 0.039334424 0.027031604 8289918
-0.11152638 0.040927187 0.026608342 9999508
-0.11142501 0.04252648 0.026108053 10460059
-0.11133775 0.044130486 0.025563844 9211020
-0.11125022 0.045736421 0.025019465 8684676
-0.1111626 0.04734432 0.024474407 8289918
-0.11109741 0.048959181 0.023859791 8355711
-0.11103299 0.050576463 0.023241723 8421504
-0.11107598 0.052220993 0.022293754 10392981
-0.10627578 -0.09286797 0.10433415 11635081
-0.10623466 -0.09149231 0.10376494 12157570
-0.10619348 -0.090114713 0.10319495 12350837
-0.10615224 -0.088735178 0.10262416 12026241
-0.10610389 -0.087351955 0.10207257 9472393
-0.1060853 -0.085974157 0.10143558 9012356
-0.10609203 -0.084600285 0.1007256 9275014
-0.10609879 -0.083224028 0.10001431 9602951
-0.10610556 -0.081845358 0.099301822 9076607
-0.10611232 -0.080464281 0.098588094 9601409
-0.10616752 -0.079091482 0.097735174 9926776
-0.106298 -0.077732056 0.096666031 10841967
-0.10647069 -0.076377913 0.095474556 11169390
-0.10664392 -0.075019836 0.09427952 9860469
-0.10694008 -0.073682472 0.09273088 7826026
-0.10744109 -0.072380118 0.090593278 5394769
-0.10797679 -0.071077131 0.088352658 4144959
-0.10881599 -0.069823213 0.085238054 5197390
-0.1102858 -0.068673439 0.080308527 5789527
-0.11173847 -0.067503788 0.075419828 6512222
-0.11346623 -0.066364795 0.069731951 5394769
-0.11573526 -0.065296866 0.062477138 4408131
-0.11936763 -0.064425394 0.051284242 5920599
-0.12483716 -0.037756741 0.021694446 5986906
-0.12415031 -0.036154322 0.022923311 9473421
-0.12368907 -0.034570169 0.023493325 10459031
-0.12321543 -0.0329873 0.024100715 11376792
-0.12290858 -0.031415191 0.02421966 12096660
-0.12264159 -0.029845357 0.024221715 11637651
-0.12237459 -0.028275529 0.024223771 10064787
-0.12210761 -0.02670571 0.024225825 9407885
-0.12184063 -0.025135903 0.02422788 10525081
-0.12157363 -0.023566099 0.024229936 11049369
-0.12130667 -0.02199631 0.024231935 11049626
-0.12103948 -0.020426521 0.024234613 9276556
-0.1207715 -0.018856738 0.024239613 9276813
-0.12050416 -0.017286973 0.024242744 9342349
-0.12023801 -0.015717225 0.024242364 9539471
-0.11997188 -0.014147473 0.02424193 10524567
-0.11970572 -0.012577726 0.02424155 10459545
-0.11943957 -0.011007974 0.02424117 9539471
-0.11917342 -0.0094382251 0.02424079 9933715
-0.11890728 -0.0078684734 0.024240354 9211020
-0.11864111 -0.006298725 0.02424003 8553090
-0.11837496 -0.0047289729 0.02423965 9539728
-0.1181088 -0.0031592245 0.024239272 9933715
-0.11784259 -0.0015894787 0.02423906 9473935
-0.11757619 -1.9741894e-05 0.024239417 9210763
-0.11730981 0.0015499943 0.024239715 9276556
-0.11704343 0.0031197274 0.024240017 10983833
-0.11677705 0.0046894583 0.024240317 9407885
-0.11651067 0.0062591871 0.024240615 10130837
-0.11624432 0.0078289136 0.024240859 11443099
-0.11597797 0.0093986401 0.024241045 11114905
-0.11571167 0.010968369 0.02424112 11114905
-0.11544535 0.012538092 0.02424125 11049369
-0.11517905 0.014107818 0.024241323 10588561
-0.11435352 0.015618242 0.025927003 11374736
-0.11357278 0.017127607 0.027480619 12425111
-0.11316122 0.018674538 0.0279222 11770265
-0.11288201 0.020236062 0.027964637 9736850
-0.11260284 0.021797437 0.028007017 8421504
-0.11231156 0.023357049 0.028086092 8289918
-0.11204333 0.024919566 0.028095512 9408142
-0.11177827 0.026482506 0.028095305 11507864
-0.11151321 0.028045446 0.028095096 11573143
-0.11124814 0.029608382 0.028094945 11573143
-0.11098471 0.031171581 0.02808981 11573143
-0.11074765 0.032739177 0.028004369 11573143
-0.11051152 0.034307241 0.027915927 8750469
-0.11028884 0.035878006 0.027786313 8618883
-0.1101269 0.037460331 0.027471056 8684676
-0.10996718 0.03904422 0.027148437 8816262
-0.10982367 0.040632423 0.026775641 9408142
-0.10971867 0.042229656 0.026284313 9211020
-0.10962745 0.043831501 0.025749829 8421504
-0.10953898 0.045435872 0.025205944 8816262
-0.10945038 0.047042198 0.024661493 9342349
-0.10936168 0.048650492 0.024116304 9539471
-0.10927285 0.050260749 0.023570549 10196373
-0.10918378 0.051872946 0.023024509 12094861
-0.10911226 0.053491328 0.022423422 12485507
-0.10473069 -0.093035154 0.10441595 12092548
-0.10468852 -0.091660641 0.10384722 11112849
-0.10464629 -0.090284206 0.10327771 12028040
-0.10459558 -0.08890368 0.10273137 9997452
-0.10459094 -0.087532915 0.10205276 9668487
-0.10459638 -0.086162344 0.10134429 11828862
-0.10460182 -0.08478938 0.10063458 11763069
-0.10460729 -0.083414041 0.099923566 11174273
-0.10465337 -0.082045726 0.099095188 10124926
-0.1047316 -0.080681928 0.098173358 10059133
-0.1049016 -0.079335451 0.096987009 10972782
-0.10507213 -0.077985063 0.095797144 11167848
-0.10524312 -0.076630741 0.094603881 7761004
-0.10563125 -0.075317569 0.092784829 3881787
-0.10615045 -0.074024856 0.090585813 4013373
-0.10675989 -0.072742559 0.088123351 4408131
-0.10759585 -0.071495712 0.08500427 6117978
-0.1090579 -0.070356287 0.080075152 7760233
-0.1104844 -0.069193535 0.075240098 5920599
-0.11219975 -0.068065904 0.069562674 4013373
-0.11419706 -0.066967882 0.063060604 4802889
-0.11752921 -0.06607303 0.052686393 6315100
-0.12393449 -0.065646373 0.033397693 9729654
-0.12373339 -0.039586909 0.020833371 6381407
-0.12294655 -0.037974037 0.022361685 8092539
-0.12246373 -0.036387239 0.022997864 9736336
-0.12199096 -0.034803286 0.023605539 10721689
-0.12151885 -0.033221498 0.024212364 9933458
-0.12125008 -0.031652562 0.0242202 10983062
-0.12098327 -0.030083755 0.024222258 11048341
-0.12071645 -0.02851495 0.024224315 10196373
-0.12044966 -0.026946161 0.024226315 10392724
-0.12018286 -0.025377378 0.024228374 11049626
-0.11991605 -0.0238086 0.02423043 10262166
-0.11964922 -0.022239834 0.024232544 10393495
-0.11938141 -0.020671058 0.024237607 8750469
-0.11911362 -0.019102305 0.024242608 8684676
-0.1188476 -0.01753358 0.024242343 8552833
-0.11858162 -0.015964853 0.024241963 10524567
-0.11831564 -0.014396129 0.024241583 10721946
-0.11804966 -0.012827406 0.024241203 11704986
-0.11778368 -0.011258679 0.024240825 10721175
-0.11751772 -0.009689956 0.024240388 10327702
-0.11725172 -0.0081212316 0.024240065 9145227
-0.11698576 -0.0065525048 0.02423963 8618883
-0.11671977 -0.0049837776 0.02423925 9736593
-0.11645366 -0.0034150614 0.024239266 10524310
-0.11618746 -0.0018463457 0.024239568 10524567
-0.11592126 -0.00027763363 0.024239868 9802386
-0.11565506 0.0012910772 0.024240112 9079177
-0.11538885 0.0028597808 0.02424047 10721432
-0.11512266 0.0044284859 0.024240712 10130580
-0.11485645 0.0059971889 0.024241013 9276556
-0.11459032 0.0075658946 0.024241088 9999508
-0.1143242 0.0091345971 0.024241161 9999508
-0.11405807 0.010703299 0.024241235 9472907
-0.11299623 0.012196501 0.026648853 9998223
-0.11238877 0.013726656 0.027684787 10787225
-0.11202826 0.015279209 0.027974047 11049883
-0.11174403 0.016839201 0.028032435 11049883
-0.111458 0.018398773 0.028096378 10721432
-0.11119303 0.019960683 0.028096454 9408142
-0.11092814 0.021522604 0.028096246 8224125
-0.11066324 0.023084521 0.028096095 8289918
-0.11039834 0.024646437 0.028095942 9473935
-0.11013348 0.026208358 0.028095677 10721689
-0.10986858 0.027770273 0.028095527 10721689
-0.10960367 0.029332189 0.028095376 10787225
-0.10933879 0.030894104 0.028095169 10983576
-0.1090907 0.032458808 0.028043561 12355720
-0.10885458 0.034025751 0.027955174 10984090
-0.10862729 0.035594579 0.02783953 10196373
-0.10844436 0.03717193 0.027587481 10261909
-0.10828414 0.038754467 0.027265219 10196373
-0.10812782 0.040338933 0.026930317 9276556
-0.10801794 0.041933879 0.026451873 8355711
-0.10792009 0.043533031 0.025935516 8553090
-0.10783072 0.045135848 0.025392013 9671057
-0.10774114 0.046740606 0.024848169 10655639
-0.10765145 0.04834732 0.024303643 10721432
-0.10756168 0.049956005 0.023758382 11377049
-0.10747219 0.05156675 0.02321125 12029325
-0.10738193 0.053179312 0.022665478 12030096
-0.10734022 0.054805752 0.021968111 9736336
-0.10318796 -0.093202092 0.10449752 10587790
-0.1031447 -0.091828726 0.10392939 9341578
-0.10309669 -0.090452209 0.10337391 9734794
-0.1031008 -0.089087285 0.10266822 7960696
-0.10310495 -0.087719999 0.10196121 7829110
-0.10310909 -0.086350337 0.10125302 8091768
-0.1031462 -0.084986322 0.100449 7039594
-0.10321657 -0.083627559 0.099548005 5658198
-0.10334036 -0.082278267 0.09849187 5131854
-0.10350815 -0.080935501 0.097307242 6644836
-0.10367645 -0.079588845 0.096119151 8023662
-0.10386594 -0.078242823 0.094867893 7301224
-0.10434601 -0.076954983 0.09277603 4539203
-0.10486145 -0.075667463 0.090578422 5065804
-0.1055439 -0.074406736 0.087894216 7366246
-0.10637665 -0.073166959 0.084770612 8481900
-0.10782126 -0.072035991 0.079869919 5920599
-0.10923143 -0.070881784 0.075060569 4013373
-0.11093441 -0.069765471 0.069393553 3881787
-0.11277617 -0.068654865 0.063313887 4868682
-0.11569911 -0.067713179 0.054082204 5460562
-0.12022692 -0.067013532 0.040167399 8814463
-0.12277819 -0.04143085 0.01953122 7762032
-0.12174565 -0.03979389 0.021791806 9604750
-0.12123862 -0.038203947 0.022502515 8552833
-0.12076675 -0.036618918 0.023110418 9867665
-0.12029552 -0.035036042 0.023717526 9342092
-0.11986037 -0.033457421 0.024218708 8289918
-0.11959375 -0.031889621 0.024220712 9342092
-0.11932712 -0.030321836 0.024222771 9407885
-0.11906049 -0.028754067 0.024224831 9407885
-0.11879387 -0.027186295 0.024226831 10327445
-0.11852724 -0.025618536 0.024228891 9407885
-0.11826064 -0.024050787 0.024230894 9539471
-0.11799315 -0.022483025 0.024235504 10458774
-0.11772554 -0.020915279 0.024240512 10327445
-0.11745899 -0.019347565 0.024242343 9999251
-0.11719318 -0.017779863 0.024241965 8618883
-0.11692738 -0.016212162 0.024241585 10524567
-0.11666157 -0.014644462 0.024241205 10983833
-0.11639576 -0.013076759 0.024240827 12422027
-0.11612996 -0.011509057 0.024240447 11311513
-0.11586416 -0.0099413581 0.024240069 10262166
-0.11559835 -0.0083736554 0.024239689 9079434
-0.11533254 -0.0068059531 0.024239309 8684676
-0.11506657 -0.0052382601 0.02423944 9802386
-0.11480055 -0.0036705662 0.024239685 10458774
-0.11453452 -0.0021028789 0.024239985 10459031
-0.11426847 -0.00053519092 0.024240345 9605264
-0.11400246 0.0010324921 0.024240589 9210763
-0.11373644 0.0026001739 0.024240891 11441300
-0.11347046 0.0041678576 0.024241021 11637651
-0.1132045 0.0057355403 0.024241095 9473678
-0.11293853 0.0073032212 0.024241228 7631988
-0.11196111 0.0088113789 0.026402155 8618369
-0.11129439 0.010339499 0.027622495 9342349
-0.1109421 0.011892974 0.027888354 9473935
-0.11060854 0.01344737 0.02809762 9408142
-0.11034383 0.015008274 0.028097413 9408142
-0.11007912 0.016569177 0.028097205 9408142
-0.10981439 0.018130073 0.028097054 9342092
-0.10954968 0.019690976 0.028096847 8750469
-0.10928495 0.021251872 0.028096696 8224125
-0.10902023 0.022812769 0.028096545 8289918
-0.10875551 0.024373667 0.028096337 8882055
-0.10849081 0.025934566 0.02809613 9342349
-0.10822608 0.027495461 0.028095981 9342092
-0.10796137 0.029056357 0.028095772 9342092
-0.10769666 0.030617254 0.028095564 9802386
-0.1074368 0.032178953 0.028080443 11768723
-0.10719996 0.033744659 0.027994324 11965074
-0.10696813 0.035311561 0.027892612 11049369
-0.10676448 0.03688398 0.027703684 10590103
-0.10660379 0.038465176 0.027381666 10261909
-0.10644665 0.04004823 0.027048077 9144970
-0.10632011 0.041638605 0.026619108 8421504
-0.10621568 0.043235075 0.026120843 9408142
-0.10612535 0.044836335 0.025577893 10459288
-0.10603482 0.046439525 0.025034603 10655896
-0.10594419 0.048044674 0.02449063 10590103
-0.10585354 0.049651809 0.023945635 10655896
-0.10576308 0.051260974 0.023399111 10524567
-0.10567252 0.052872118 0.022851849 10393495
-0.10558186 0.054485235 0.022303905 8684676
-0.10559765 0.056127049 0.02142258 8355711
-0.1016475 -0.093368769 0.10457911 7171437
-0.10161205 -0.091998942 0.10398604 6645093
-0.10161487 -0.090637289 0.10328187 6513507
-0.1016177 -0.089273266 0.10257645 6381921
-0.10164599 -0.087913387 0.10179647 6052956
-0.10171451 -0.086560972 0.10089915 5460819
-0.10178684 -0.085206471 0.099989288 5131854
-0.10195198 -0.083871275 0.098809786 4868682
-0.10211761 -0.08253222 0.097626828 4408131
-0.10230013 -0.081193082 0.096392907 4276545
-0.10251804 -0.079857789 0.09505441 4210752
-0.10305668 -0.078589022 0.092783876 3684408
-0.10358372 -0.077310055 0.090543121 4802632
-0.10432883 -0.07606966 0.087665267 7694440
-0.10515834 -0.074836969 0.084537126 5986392
-0.10657717 -0.073712625 0.079689406 4539717
-0.10797957 -0.072568566 0.074881122 4144959
-0.10967022 -0.071463503 0.069224596 3881787
-0.11150207 -0.070365593 0.063146465 3750201
-0.11387731 -0.069345914 0.055471666 4934475
-0.11822987 -0.068650186 0.042007055 6973544
-0.12055575 -0.041614633 0.021189377 9470594
-0.12001311 -0.04002025 0.022009155 11310999
-0.11954277 -0.038434193 0.022615412 9999251
-0.11907241 -0.03685024 0.023222802 9473678
-0.1186027 -0.035268437 0.023829345 8552833
-0.11820605 -0.033693146 0.024219185 8092539
-0.11793959 -0.032126371 0.024221245 9210506
-0.11767313 -0.030559614 0.024223305 8158075
-0.1174067 -0.028992862 0.024225311 6908008
-0.11714024 -0.027426118 0.024227371 8092539
-0.11687381 -0.025859382 0.024229376 7828853
-0.11660669 -0.024292637 0.024233421 10196116
-0.11633926 -0.022725897 0.024238434 10982548
-0.11528051 -0.021144595 0.02661933 10458517
-0.11580656 -0.019592505 0.024241988 9407628
-0.11554091 -0.018025827 0.024241665 8553090
-0.11527529 -0.016459148 0.02424123 10064273
-0.11500966 -0.014892468 0.024240851 11635852
-0.11474402 -0.01332579 0.024240471 10783627
-0.11447839 -0.011759113 0.024240093 9012870
-0.11421276 -0.010192431 0.024239713 8552833
-0.11394715 -0.0086257532 0.024239279 8553090
-0.11368131 -0.0070590801 0.024239523 8421504
-0.11341543 -0.0054924097 0.024239883 8816262
-0.11314958 -0.003925743 0.024240185 9079177
-0.11288374 -0.0023590734 0.02424043 9079177
-0.11261787 -0.00079241383 0.024240788 8618883
-0.11235204 0.00077425124 0.024240976 9276299
-0.11208627 0.0023409119 0.024241053 10851476
-0.11182047 0.0039075725 0.024241183 10917269
-0.1115547 0.0054742345 0.024241202 8486269
-0.11020327 0.0069564353 0.027554238 8816005
-0.10982418 0.0085077574 0.0279034 8947848
-0.1094956 0.010062313 0.028098788 8684676
-0.10923116 0.011622205 0.028098296 8750469
-0.10896666 0.013182092 0.028097976 8816262
-0.10870211 0.014741974 0.028097827 8553090
-0.10843757 0.016301857 0.02809762 8224125
-0.10817301 0.017861737 0.028097467 8224125
-0.10790847 0.019421618 0.028097261 8224125
-0.10764392 0.020981496 0.028097112 8289918
-0.10737938 0.022541378 0.028096905 8553090
-0.10711483 0.024101254 0.028096754 8684676
-0.10685029 0.025661133 0.028096545 8684676
-0.10658574 0.027221009 0.028096396 8684676
-0.1063212 0.028780887 0.028096188 8553090
-0.10605667 0.030340763 0.028095981 8684676
-0.10579367 0.031900894 0.028091008 10524053
-0.10554764 0.033463955 0.028033433 11768209
-0.10531148 0.035028972 0.027945159 10524567
-0.10510457 0.036599655 0.027765868 9999508
-0.10492603 0.038176332 0.027498057 9605264
-0.10476808 0.039757978 0.027165728 8816262
-0.10462739 0.041344278 0.026778979 8618883
-0.10451745 0.042938299 0.026295712 9736850
-0.10442294 0.044537336 0.025763415 9933715
-0.10433146 0.046138965 0.025220677 9342349
-0.10423985 0.047742546 0.024677316 9210763
-0.10414834 0.049348131 0.024132647 9079177
-0.10405691 0.050955724 0.023586676 8947848
-0.10396538 0.052565288 0.023040019 8750469
-0.10387374 0.054176826 0.022492683 9999508
-0.10381255 0.055798009 0.02184871 10064787
-0.10013155 -0.093541339 0.10459654 6579300
-0.1001331 -0.092182927 0.10389384 6447714
-0.10015265 -0.090826981 0.10313788 6250335
-0.1002194 -0.089480892 0.102244 5789784
-0.1002863 -0.088131838 0.10134815 5723991
-0.10040353 -0.086792491 0.10030483 5657941
-0.1005665 -0.085460983 0.099127002 4539717
-0.10074214 -0.084128581 0.097910337 4342338
-0.10093857 -0.082797028 0.096631102 4210752
-0.10119551 -0.08147528 0.095173635 4210752
-0.10171568 -0.080208711 0.092947148 3881787
-0.10237405 -0.078965493 0.090314068 4144959
-0.10311468 -0.077731341 0.087436445 4276545
-0.10394094 -0.076505743 0.084303819 6512222
-0.10533416 -0.075387791 0.079509094 7563368
-0.10672881 -0.074253872 0.074701875 4934218
-0.10840717 -0.07316 0.069055796 4013373
-0.11022912 -0.072074763 0.062979214 4276288
-0.11208118 -0.070974559 0.056803714 5197390
-0.11637799 -0.070302516 0.043442748 6052185
-0.1194175 -0.043440234 0.020432822 7170666
-0.11878522 -0.04183596 0.021523748 11047570
-0.11831903 -0.040249113 0.022120519 11441043
-0.11784954 -0.03866408 0.022728194 11309971
-0.11738073 -0.037081201 0.02333496 9275271
-0.11691252 -0.035500474 0.023940988 7368816
-0.11575077 -0.033879317 0.02662709 8487297
-0.11522961 -0.032303445 0.027396021 9408142
-0.11485009 -0.030737473 0.027740978 9013641
-0.11455216 -0.029176425 0.02784133 8421504
-0.11425446 -0.027615737 0.027941167 8355711
-0.11396699 -0.026055763 0.028010404 9539728
-0.11370213 -0.024496704 0.028011559 11769494
-0.11343729 -0.02293765 0.028012715 11244949
-0.11317245 -0.021378603 0.02801387 10589846
-0.11290873 -0.01981958 0.02801162 9013641
-0.11264923 -0.018260583 0.027996592 8421504
-0.11238971 -0.016701536 0.027981622 11310485
-0.11213551 -0.015142428 0.027950527 12096403
-0.11188182 -0.013583208 0.027917787 10130837
-0.11162812 -0.012023875 0.027885044 8947591
-0.11144815 -0.01046311 0.027628191 8684676
-0.11131965 -0.0089002457 0.027214397 8553090
-0.11138759 -0.0073303054 0.026201911 8355711
-0.11176647 -0.0057462254 0.024240289 8289918
-0.11150078 -0.0041805804 0.024240591 6249821
-0.11123508 -0.0026149375 0.024240952 9013384
-0.11096949 -0.0010492954 0.024240969 9013384
-0.11070389 0.00051634782 0.024241045 9342092
-0.11043826 0.00208199 0.024241177 9670543
-0.11017265 0.0036476289 0.024241252 8617341
-0.10882974 0.0051358333 0.027544413 10196116
-0.10841868 0.0066843452 0.027993908 10262166
-0.10811982 0.0082405452 0.028099539 10327959
-0.10785554 0.009799418 0.028099105 10327959
-0.10759124 0.011358292 0.028098671 10327702
-0.10732689 0.012917159 0.028098408 10196373
-0.10706251 0.014476023 0.028098257 9144970
-0.10679817 0.01603489 0.028097995 8224125
-0.10653379 0.017593751 0.028097844 8224125
-0.1062694 0.019152613 0.028097695 8224125
-0.10600504 0.020711476 0.028097488 8487297
-0.10574068 0.022270339 0.028097281 9473678
-0.1054763 0.023829198 0.02809713 10262166
-0.10521191 0.025388056 0.028096981 10262166
-0.10494755 0.026946915 0.028096775 10262166
-0.10468318 0.028505776 0.028096568 9605264
-0.10441881 0.030064631 0.028096417 8158332
-0.10415442 0.031623486 0.028096268 9144713
-0.10389808 0.03318372 0.028071078 9736336
-0.10366146 0.034747541 0.02798428 8487297
-0.10344991 0.036316261 0.027819009 8355711
-0.10325091 0.037887942 0.027614223 8355711
-0.10309215 0.03946818 0.027283153 8289918
-0.10293786 0.041050516 0.026937433 8684676
-0.10282446 0.042642511 0.026462935 9342349
-0.10272346 0.04423885 0.025948631 9079177
-0.10263102 0.045838922 0.025406448 8553090
-0.10253846 0.047440942 0.024863642 8882055
-0.10244605 0.049044974 0.024319358 9013384
-0.10235368 0.050650999 0.023773937 9144970
-0.10226119 0.052258991 0.023227833 9342349
-0.10216849 0.053868927 0.022681391 11703701
-0.1020756 0.055480808 0.02213455 10589589
-0.10214772 0.057137161 0.02106498 10979464
-0.098666176 -0.093727231 0.10447303 8354683
-0.09873113 -0.092387401 0.10358272 8813949
-0.098796234 -0.091044635 0.10269043 9206651
-0.098862745 -0.089699246 0.10179251 9927033
-0.099023081 -0.088375218 0.10061977 10253428
-0.099191912 -0.087049417 0.099420212 7301481
-0.09938547 -0.085725762 0.098146446 4408131
-0.09957961 -0.084397964 0.096868761 4210752
-0.09987507 -0.083090194 0.09529274 4144959
-0.10037698 -0.081825659 0.093110085 4079166
-0.10111022 -0.080607027 0.090246379 6183514
-0.10189915 -0.079391271 0.0872145 8547693
-0.10272107 -0.078172535 0.084080569 8809837
-0.10409223 -0.077061497 0.079328969 6972773
-0.10547914 -0.075937688 0.074522763 5394769
-0.10714528 -0.074854963 0.0688871 4671303
-0.10895733 -0.073782377 0.062812127 4934218
-0.110999 -0.072734058 0.056050122 5723220
-0.1146395 -0.071967259 0.044562601 6315100
-0.11835009 -0.045273587 0.01946241 9731710
-0.11758099 -0.043653473 0.020968297 8749955
-0.11709553 -0.042063676 0.021625683 9075579
-0.11662695 -0.040477563 0.022233585 9271930
-0.1152023 -0.038818866 0.025716754 10981006
-0.1144966 -0.037224658 0.027042877 10327445
-0.1140905 -0.035655342 0.02746908 9736593
-0.11368477 -0.034087528 0.027894942 9867922
-0.11337243 -0.032526542 0.028039789 10065044
-0.11309277 -0.030967757 0.02808623 9408142
-0.11282533 -0.029409708 0.028095795 8553090
-0.11256091 -0.027851818 0.028096272 8289918
-0.11229648 -0.026293932 0.028096803 9342349
-0.11203206 -0.024736049 0.028097279 10918297
-0.11176763 -0.02317817 0.028097754 9867922
-0.11150319 -0.021620292 0.028098285 9145227
-0.11123879 -0.020062417 0.028098704 8553090
-0.11097437 -0.018504545 0.028099179 8289918
-0.11070997 -0.016946677 0.028099598 10655382
-0.11044556 -0.015388813 0.028100073 10393238
-0.11018116 -0.013830949 0.028100492 9473678
-0.10991672 -0.012273091 0.028101025 9539471
-0.10965201 -0.010715239 0.028102409 9605521
-0.10939559 -0.0091572041 0.028078396 9605264
-0.10917869 -0.007597988 0.027933419 9802643
-0.10893889 -0.0060390243 0.027858326 9934229
-0.10886074 -0.0044735358 0.027287392 9473935
-0.10958871 -0.0028704624 0.02424104 8551548
-0.10932328 -0.0013058402 0.024241114 10525081
-0.10905783 0.00025878267 0.024241248 9210763
-0.10879239 0.0018234031 0.024241325 8289918
-0.10757852 0.003325508 0.027163234 6776422
-0.10705347 0.0048664031 0.027966538 10261138
-0.10674572 0.0064211455 0.028100649 10589589
-0.10648169 0.0079790084 0.028099932 11768466
-0.10621758 0.0095368652 0.028099498 11310742
-0.10595343 0.011094717 0.028099177 11834259
-0.1056893 0.012652574 0.028098743 10852247
-0.1054251 0.014210422 0.028098594 9144970
-0.10516091 0.015768269 0.028098388 8224125
-0.10489669 0.017326115 0.028098239 8224125
-0.1046325 0.018883962 0.028098032 8224125
-0.10436829 0.020441806 0.028097883 8487297
-0.1041041 0.021999653 0.028097676 9605007
-0.1038399 0.023557495 0.028097525 10458517
-0.10357568 0.025115337 0.028097376 10458260
-0.10331149 0.026673181 0.028097169 10982805
-0.1030473 0.028231025 0.028096965 10851733
-0.10278309 0.029788863 0.028096814 8947591
-0.10251889 0.031346701 0.028096665 8487297
-0.1022594 0.032905351 0.028081685 8684676
-0.10201373 0.034466501 0.028023353 8289918
-0.10179762 0.036033269 0.027872067 8224125
-0.10159043 0.037602268 0.02769243 8224125
-0.10141885 0.039178837 0.027400408 8289918
-0.10126233 0.040759481 0.027060371 8421504
-0.10113627 0.042347621 0.026623689 8553090
-0.10102686 0.043940876 0.026133597 8816262
-0.1009335 0.045539394 0.025591914 9671057
-0.10083999 0.047139853 0.025049662 10459545
-0.10074673 0.048742343 0.024505647 10524824
-0.10065337 0.050346795 0.023960896 10327188
-0.10055987 0.0519532 0.023415573 10720404
-0.10046612 0.053561542 0.022869967 12159626
-0.10037228 0.055171851 0.022323679 10130066
-0.10034827 0.056802161 0.021554265 11699332
-0.097313017 -0.09394408 0.10402651 10912129
-0.097376481 -0.09260463 0.10313579 10255484
-0.097487278 -0.091275051 0.10210516 9664889
-0.097649425 -0.089955717 0.10092251 10122099
-0.097840071 -0.088639878 0.099654339 8089712
-0.098031342 -0.087319948 0.098382138 4539717
-0.098223187 -0.08599589 0.09710601 4737096
-0.098556742 -0.084702536 0.095411614 6315357
-0.099040531 -0.083439864 0.093272798 8153963
-0.099698029 -0.082211167 0.090619348 10185836
-0.10048092 -0.081002638 0.08759214 8941423
-0.10134137 -0.079801522 0.084331147 7891305
-0.10285138 -0.078733742 0.079148978 7038052
-0.10423058 -0.077620037 0.074343793 5592148
-0.10588451 -0.07654839 0.068718612 5065804
-0.10768669 -0.075488441 0.062645197 5394769
-0.10994387 -0.07449992 0.055214696 6315100
-0.11324012 -0.073691137 0.044693582 6840673
-0.1173084 -0.072995022 0.031865302 9340293
-0.1164993 -0.045483135 0.02004396 7826283
-0.11587228 -0.043877885 0.021130962 6907751
-0.11416835 -0.042179693 0.025469603 10325646
-0.11356607 -0.040589668 0.026488671 10523539
-0.11310664 -0.039014515 0.027077753 11702416
-0.11273943 -0.037448227 0.02738882 11507350
-0.11237902 -0.035883494 0.027679875 11180184
-0.11202034 -0.034319889 0.027966212 10918297
-0.11173143 -0.032761339 0.028041394 10327702
-0.11145215 -0.03120357 0.028087469 9605007
-0.11118517 -0.029646546 0.028096246 8684676
-0.11092092 -0.028089669 0.028096721 8289918
-0.11065665 -0.026532799 0.028097253 8881798
-0.11039241 -0.024975928 0.02809773 10131094
-0.11012814 -0.023419062 0.028098263 9342349
-0.10986389 -0.0218622 0.02809874 8947848
-0.10959966 -0.020305341 0.028099159 8421504
-0.10933542 -0.018748486 0.028099636 8289918
-0.1090712 -0.017191632 0.028100055 10130837
-0.10880695 -0.015634781 0.02810053 9802386
-0.10854272 -0.014077934 0.028100949 9605264
-0.10827844 -0.012521089 0.028101539 10064273
-0.10801416 -0.010964247 0.02810213 10261652
-0.10774966 -0.0094074169 0.028103402 10327188
-0.10748525 -0.0078505855 0.028104389 10918554
-0.10722269 -0.0062937033 0.028099691 10590360
-0.10699259 -0.0047355667 0.027994873 10984090
-0.10692284 -0.0031700907 0.027394854 10523025
-0.10767921 -0.0015620491 0.024241278 10979721
-0.10741396 1.555149e-06 0.024241298 10392981
-0.10714871 0.0015651564 0.024241375 7565681
-0.10575736 0.0030551229 0.027730379 7039594
-0.10537329 0.0046041072 0.028102115 9473421
-0.10510961 0.0061609675 0.028100885 10064530
-0.10484572 0.0077178124 0.028100282 11833745
-0.10458175 0.0092746522 0.028099906 11114391
-0.10431778 0.01083149 0.028099528 11768466
-0.10405383 0.012388331 0.028099151 10458774
-0.10378981 0.013945165 0.028098946 8816005
-0.10352575 0.015501994 0.028098853 8224125
-0.10326173 0.017058827 0.028098647 8158332
-0.10299771 0.018615659 0.028098442 8158332
-0.10273369 0.02017249 0.028098235 8421504
-0.10246965 0.021729318 0.028098086 9210763
-0.10220563 0.023286149 0.028097879 9670800
-0.10194162 0.024842978 0.028097672 9670543
-0.10167756 0.026399801 0.028097581 10851476
-0.10141354 0.027956629 0.028097374 11570573
-0.10114951 0.029513454 0.028097225 9933458
-0.10088549 0.031070281 0.02809702 8882055
-0.10062291 0.032627355 0.028092265 8947591
-0.1003685 0.03418589 0.028061755 8947848
-0.10014767 0.035750683 0.027925041 9013641
-0.099940293 0.037318509 0.027745571 9013641
-0.099748157 0.038889948 0.02751749 9079177
-0.099591136 0.040469244 0.027177745 9211020
-0.099451497 0.042053349 0.026782226 9276813
-0.099336699 0.043644153 0.02630711 9868436
-0.099238917 0.045240384 0.025777012 10656153
-0.099144489 0.046839293 0.025235262 10917783
-0.099050306 0.048440229 0.024691688 11376535
-0.098955981 0.050043114 0.024147548 11310228
-0.098861404 0.051647924 0.023603179 11310228
-0.098766699 0.05325469 0.023058185 10392724
-0.098671891 0.054863419 0.022512507 8816005
-0.098585054 0.056476206 0.02194028 10458517
-0.09596014 -0.0941609 0.10358004 6052699
-0.096114703 -0.092847615 0.10241704 6118492
-0.09630239 -0.09153951 0.10115465 6249821
-0.096490778 -0.090227365 0.099887989 7169895
-0.096679747 -0.088911138 0.098617405 5657941
-0.096889034 -0.087595917 0.097284697 6644065
-0.097240523 -0.086312324 0.095530264 9990513
-0.097706355 -0.08505132 0.09343522 8875887
-0.098343842 -0.083825171 0.090829313 7366760
-0.099065781 -0.082610436 0.087969102 6841444
-0.099849291 -0.081400499 0.084921598 5526612
-0.10161164 -0.080404535 0.078969069 4605510
-0.10298309 -0.07930091 0.074165024 4605253
-0.10462487 -0.07824029 0.068550289 4737096
-0.10657787 -0.077227339 0.062001247 6578015
-0.10888804 -0.076266907 0.054378793 8220013
-0.11184298 -0.075412244 0.044824395 6840930
-0.1158874 -0.074742027 0.032008417 10525338
-0.1159961 -0.047376037 0.017365748 9078920
-0.11344019 -0.04556898 0.024298696 10064273
-0.11279394 -0.043969747 0.025454395 9276299
-0.11231084 -0.042389359 0.026117135 9473164
-0.11188205 -0.040815923 0.026616087 8947591
-0.11145901 -0.039244678 0.027098486 11309714
-0.11109786 -0.037679765 0.02739343 11964046
-0.11073823 -0.036115985 0.027684277 12094861
-0.11038542 -0.034553651 0.027954871 11245720
-0.11009255 -0.032995831 0.028043075 9736593
-0.10981398 -0.031439081 0.028087756 9342092
-0.10954713 -0.02988307 0.028096709 8618883
-0.10928305 -0.02832721 0.028097186 8224125
-0.10901896 -0.02677135 0.028097721 8289918
-0.10875489 -0.025215497 0.028098198 10131094
-0.10849079 -0.023659645 0.02809873 10327959
-0.10822674 -0.022103796 0.028099151 10262166
-0.10796267 -0.020547951 0.028099628 8618883
-0.10769861 -0.018992105 0.028100047 8289918
-0.10743456 -0.017436268 0.028100468 10065558
-0.10717048 -0.01588043 0.028100945 10262166
-0.10690641 -0.014324597 0.028101422 10524310
-0.10664229 -0.012768769 0.02810207 10523539
-0.10637821 -0.01121294 0.028102603 10458003
-0.10611408 -0.0096571157 0.028103251 10458003
-0.10584977 -0.0081013022 0.028104467 11572629
-0.10558563 -0.0065454878 0.028105171 10589332
-0.10532171 -0.0049896701 0.028105194 11572372
-0.10513574 -0.0034305099 0.027863199 11506065
-0.10517763 -0.0018594851 0.026912738 11499383
-0.1057722 -0.00025534327 0.024241479 11506579
-0.10550713 0.0013072436 0.0242415 9207165
-0.10411147 0.0027964977 0.027764523 7959925
-0.10375898 0.0043466799 0.028040469 8026746
-0.10347562 0.0059011271 0.028101137 8618883
-0.10321184 0.0074569546 0.028100703 10064787
-0.10294805 0.0090127811 0.028100327 9605264
-0.10268426 0.010568606 0.02809995 10065044
-0.10242045 0.01212443 0.02809963 9013641
-0.10215662 0.01368025 0.028099367 8224125
-0.10189277 0.015236071 0.028099163 8158332
-0.10162891 0.016791888 0.028099013 8158332
-0.10136506 0.018347707 0.028098809 8158332
-0.1011012 0.01990352 0.02809866 8158332
-0.10083735 0.021459337 0.028098453 8158332
-0.1005735 0.023015155 0.028098248 8158332
-0.10030964 0.024570966 0.028098099 8158332
-0.10004577 0.02612678 0.02809795 9802129
-0.09978193 0.027682593 0.028097745 12094347
-0.099518068 0.029238405 0.028097596 11112849
-0.099254198 0.030794214 0.028097447 10130580
-0.098990336 0.032350022 0.028097298 10130580
-0.098734289 0.033907216 0.028072344 10393752
-0.098500066 0.035468496 0.027977983 10393495
-0.098290823 0.037034836 0.027803971 10130323
-0.098081999 0.038601883 0.02762831 10196373
-0.097922549 0.040179461 0.027294945 10459288
-0.097769558 0.041759577 0.026940359 10590360
-0.097652957 0.043348692 0.026468916 10918297
-0.097547218 0.044941884 0.025961855 10655639
-0.097451925 0.046539254 0.025420435 10196116
-0.097356811 0.048138641 0.024877362 10393238
-0.097261384 0.049739927 0.024334291 10196373
-0.097165853 0.051343169 0.023790536 9802129
-0.097070202 0.052948367 0.023246098 8947591
-0.096974425 0.05455552 0.022701032 8487297
-0.096878558 0.056164645 0.022155227 8882055
-0.096934274 0.057815872 0.021120206 8223868
-0.094772331 -0.094424747 0.10264752 4802889
-0.094957866 -0.093120337 0.10138636 4605510
-0.095143981 -0.091811873 0.10012127 4342338
-0.095330693 -0.090499349 0.098852195 4210752
-0.095577992 -0.089198686 0.097401522 4079166
-0.095926374 -0.087919548 0.095648788 5592148
-0.09637446 -0.086660065 0.093597308 6381407
-0.096996769 -0.085437424 0.091025047 5591891
-0.097653791 -0.084214695 0.088345148 4407874
-0.098430313 -0.083011769 0.085305169 4276545
-0.1001924 -0.082031257 0.079326734 4144959
-0.10173671 -0.080980308 0.073986389 3881787
-0.10336637 -0.079930656 0.068382122 5789013
-0.10552999 -0.078980111 0.061174612 7956841
-0.10783157 -0.078035042 0.053542249 7497318
-0.11044805 -0.077130601 0.044955038 6249307
-0.11303347 -0.048999324 0.022145925 9669772
-0.1120602 -0.047357526 0.024299864 8421504
-0.11156677 -0.045772504 0.024996052 10393238
-0.11111793 -0.044194236 0.025557552 10327959
-0.1106696 -0.042617958 0.026118541 9407885
-0.11024204 -0.041045424 0.026617078 8618883
-0.10982145 -0.039475184 0.027095238 10917526
-0.10945845 -0.037911002 0.027398001 10852761
-0.1090996 -0.036348168 0.027688639 10590103
-0.10875259 -0.034787126 0.027943527 10655896
-0.10845584 -0.033230014 0.028044654 9013384
-0.10817792 -0.031674296 0.028088113 8553090
-0.10791124 -0.030119287 0.02809713 8289918
-0.10764731 -0.02856444 0.028097665 8224125
-0.10738342 -0.027009593 0.028098142 8947848
-0.10711949 -0.02545475 0.028098676 11704986
-0.10685559 -0.023899911 0.028099153 11965331
-0.10659171 -0.022345075 0.028099574 11897739
-0.10632781 -0.020790242 0.028100053 9933972
-0.10606393 -0.019235414 0.028100474 8355711
-0.10580003 -0.017680585 0.028100951 11049112
-0.10553613 -0.016125761 0.028101429 11899795
-0.10527224 -0.01457094 0.028101908 10918040
-0.10500828 -0.013016121 0.028102556 10064530
-0.10474435 -0.011461307 0.028103147 9671057
-0.1044804 -0.009906495 0.028103795 9539471
-0.10421647 -0.0083516873 0.028104387 9802386
-0.10395236 -0.0067968923 0.02810555 8947591
-0.10368855 -0.0052420865 0.028105741 9868179
-0.10345474 -0.0036860183 0.028012287 9407628
-0.10341293 -0.0021204569 0.02731858 11761784
-0.1041326 -0.00051190093 0.024241563 11569545
-0.10386769 0.0010496667 0.024241641 11372680
-0.10248955 0.0025396256 0.02773058 9732224
-0.10214283 0.0040892907 0.027990539 7895160
-0.10184373 0.0056416248 0.028101457 8224125
-0.10158011 0.0071964376 0.028101081 8618883
-0.10131647 0.0087512489 0.028100761 8553090
-0.10105285 0.010306061 0.028100384 8684676
-0.10078923 0.011860875 0.028100008 8355711
-0.10052557 0.013415684 0.028099746 8158332
-0.10026188 0.014970491 0.028099598 8158332
-0.099998206 0.016525296 0.028099393 8158332
-0.09973453 0.0180801 0.028099187 8158332
-0.099470839 0.019634904 0.02809904 8092539
-0.099207148 0.021189706 0.028098891 8092539
-0.098943487 0.022744512 0.028098628 8092539
-0.098679781 0.024299311 0.028098537 8158332
-0.098416105 0.025854113 0.028098332 8684419
-0.098152414 0.027408911 0.028098183 11180184
-0.097888723 0.028963709 0.028098034 12160911
-0.097625047 0.030518509 0.028097829 11834002
-0.097361356 0.032073308 0.028097682 11834002
-0.097102225 0.033628911 0.028082957 12095632
-0.096852817 0.03518635 0.028037153 12029582
-0.096643306 0.03675149 0.027863599 11833231
-0.096433744 0.038317248 0.027689874 12030353
-0.096256666 0.039890148 0.027411683 12226961
-0.096098408 0.041467939 0.027072579 12357776
-0.095973007 0.043053929 0.026627302 11966616
-0.095858425 0.044643894 0.026146386 9671314
-0.09576229 0.046239737 0.025605183 8224125
-0.095666066 0.047837529 0.025063237 8289918
-0.0955697 0.049437258 0.024520723 8355711
-0.095473222 0.05103894 0.023977526 8421504
-0.095376618 0.052642569 0.023433702 8487297
-0.095279895 0.054248154 0.022889193 8553090
-0.095183067 0.055855703 0.022344001 8618883
-0.09512677 0.057475988 0.021666447 8289918
-0.093615875 -0.09469822 0.10161758 4473924
-0.093799725 -0.093393423 0.10035406 4342338
-0.093984164 -0.092084587 0.099086553 4210752
-0.094269007 -0.090798922 0.097518213 5263440
-0.094614327 -0.089524224 0.095767081 6775137
-0.095044784 -0.088266067 0.093759209 7366503
-0.095652089 -0.087046824 0.091220431 5855063
-0.096262902 -0.085819967 0.088666663 3881787
-0.097015396 -0.084619693 0.085685156 4276288
-0.098694876 -0.083634697 0.079926819 4671303
-0.1004914 -0.082658231 0.073807947 5854806
-0.10222877 -0.081647404 0.067855403 7431525
-0.10448147 -0.080734007 0.060347397 7300196
-0.10677443 -0.079804301 0.052705172 5854806
-0.1091087 -0.078857832 0.044925258 5986392
-0.1113476 -0.050752338 0.023076341 12025470
-0.11083173 -0.049160916 0.023843221 11310485
-0.11037306 -0.047578398 0.024436414 8947591
-0.10992498 -0.045999032 0.024998279 11900052
-0.10947748 -0.04442165 0.025559405 11834259
-0.10903049 -0.042846251 0.026119959 10261909
-0.10860417 -0.041274618 0.026618024 9539214
-0.10818599 -0.039705381 0.027091995 10524567
-0.10782119 -0.038141932 0.027402589 9407885
-0.10746311 -0.036580052 0.027693018 9210763
-0.10712184 -0.035020299 0.02793218 9407885
-0.10682123 -0.033463892 0.028046304 8421504
-0.10654399 -0.031909194 0.028088482 8224125
-0.10627745 -0.030355195 0.02809762 8224125
-0.1060137 -0.028801357 0.028098153 8224125
-0.10574999 -0.027247526 0.028098576 8816262
-0.10548624 -0.025693696 0.02809911 10655896
-0.10522252 -0.024139866 0.028099589 10852761
-0.10495879 -0.022586042 0.028100068 12682115
-0.10469508 -0.02103222 0.028100489 11178642
-0.10443138 -0.019478401 0.028100912 8750469
-0.10416765 -0.017924584 0.02810139 10196630
-0.10390392 -0.016370773 0.028101867 10655896
-0.10364016 -0.01481696 0.028102461 11245720
-0.1033764 -0.013263157 0.028103054 10785940
-0.10311264 -0.011709352 0.028103644 9802643
-0.10284886 -0.010155554 0.028104294 9736593
-0.10258511 -0.0086017549 0.028104888 9736593
-0.10232135 -0.0070479619 0.028105481 9408142
-0.10205751 -0.0054941769 0.0281063 9933715
-0.10182334 -0.0039391597 0.028013982 7763574
