# .PCD v0.7 - Point Cloud Data file format
VERSION 0.7
FIELDS x y z rgb
SIZE 4 4 4 4
TYPE F F F U
COUNT 1 1 1 1
WIDTH 1049
HEIGHT 1
VIEWPOINT 0 0 0 1 0 0 0
POINTS 1049
DATA ascii
-0.10091997 0.03430678 0.028050091 11381161
-0.10070261 0.035864931 0.027908033 12364715
-0.10049644 0.037425656 0.027729979 13537167
-0.10031187 0.038991131 0.027482608 13342101
-0.10015578 0.040563073 0.027143689 12822439
-0.10002048 0.042140432 0.026737614 12365229
-0.09990637 0.043723661 0.026262846 11052710
-0.099809982 0.045312393 0.025730364 11578283
-0.099715471 0.046903472 0.025190832 13017762
-0.099620745 0.04849647 0.024650957 11315625
-0.099525899 0.050091408 0.024110459 11184039
-0.099430978 0.051688299 0.023569163 10197915
-0.099335968 0.053287148 0.023027131 10197915
-0.09924081 0.054887943 0.022484528 10197915
-0.099156678 0.056493524 0.021905309 10197915
-0.096646473 -0.094674259 0.10400254 10912129
-0.096705407 -0.093345255 0.10311997 7302252
-0.096787654 -0.09201999 0.10216678 6052699
-0.096939765 -0.090711243 0.10100476 10253428
-0.097122379 -0.089407064 0.099750176 9266019
-0.097307451 -0.088099368 0.098486081 5854806
-0.097493052 -0.086787574 0.097218178 5920599
-0.0977735 -0.085496396 0.095665827 7563368
-0.098122649 -0.084217668 0.093906134 7891819
-0.098795183 -0.083014578 0.091179408 7957612
-0.099502735 -0.081810988 0.088343382 8416878
-0.1002777 -0.080614172 0.085301042 7957612
-0.10170697 -0.079562262 0.080297783 7760747
-0.10306514 -0.078476995 0.07549835 7366760
-0.10457523 -0.077410042 0.07023558 6840930
-0.10635447 -0.076385073 0.06415692 5394769
-0.10852318 -0.07542406 0.056899276 4144959
-0.11118478 -0.07454294 0.048149139 5524299
-0.11521097 -0.073914357 0.035283279 5392199
-0.11607029 -0.046887062 0.018390737 8546922
-0.1139094 -0.045115106 0.024186406 8810094
-0.11320923 -0.043513991 0.025524115 7760490
-0.11271931 -0.041938089 0.026220445 8220270
-0.11229168 -0.040370367 0.026727185 7760490
-0.11188646 -0.038806353 0.027166096 5920599
-0.1115301 -0.03724787 0.02745576 6052442
-0.11117397 -0.035690401 0.027745312 6052185
-0.11082926 -0.034134753 0.028000209 6052185
-0.1105507 -0.032584362 0.028051917 7760233
-0.11027506 -0.03103433 0.028094748 9402745
-0.11001308 -0.029485201 0.02809553 9931916
-0.10975126 -0.027936086 0.028095802 11115419
-0.10948943 -0.026386965 0.028096128 10525081
-0.10922758 -0.024837848 0.028096456 10394266
-0.10896577 -0.023288729 0.028096726 10853018
-0.10870402 -0.021739611 0.028096769 9802386
-0.1084423 -0.020190494 0.028096756 9276556
-0.10818057 -0.018641379 0.028096741 10523539
-0.10791884 -0.017092258 0.028096726 9729911
-0.10765713 -0.01554314 0.028096655 9276556
-0.10739539 -0.013994019 0.028096698 8816005
-0.10713363 -0.012444897 0.028096799 8682620
-0.10687187 -0.010895773 0.02809684 10389897
-0.10661021 -0.0093466472 0.028096655 10128010
-0.10634868 -0.0077975197 0.028096015 10392467
-0.10608684 -0.0062483922 0.028096342 8684162
-0.10583451 -0.0046989694 0.028066911 6250335
-0.10571615 -0.0031444854 0.027617732 8421247
-0.10652964 -0.0015488119 0.024245623 9407885
-0.10626673 7.0677402e-06 0.024245724 10197915
-0.10539779 0.0015304689 0.026149739 10197915
-0.10460202 0.0030514603 0.027827237 10197915
-0.10425291 0.0045954175 0.02810199 10197915
-0.10399048 0.0061444934 0.028104195 10197915
-0.10372882 0.0076936241 0.028103953 10197915
-0.10346724 0.0092427628 0.028103484 10526880
-0.10320567 0.010791904 0.028102959 12300721
-0.10294411 0.012341049 0.028102431 13410721
-0.10268245 0.013890189 0.028102189 10197915
-0.10242079 0.015439331 0.028101947 10197915
-0.10215913 0.016988473 0.028101705 10197915
-0.10189746 0.018537616 0.028101521 10197915
-0.1016358 0.020086763 0.028101278 10197915
-0.10137412 0.02163591 0.028101094 12364972
-0.10111246 0.023185061 0.028100852 13732490
-0.10085081 0.024734216 0.028100612 13084583
-0.10058914 0.02628337 0.028100368 11184553
-0.10032745 0.027832523 0.028100241 10197915
-0.10006575 0.029381676 0.028100112 10197915
-0.099804088 0.030930838 0.02809987 10461087
-0.099542394 0.032479994 0.028099742 12102828
-0.099289909 0.034030743 0.028070085 13667211
-0.099062413 0.035586055 0.027960256 13732747
-0.098855063 0.037145481 0.027785504 13732747
-0.098652221 0.038706392 0.02759596 12494759
-0.098494716 0.040276866 0.027260242 10724002
-0.098346263 0.041850384 0.026894709 10197915
-0.098229788 0.043431867 0.026425449 10197915
-0.098126158 0.045017794 0.025913857 11774891
-0.098030679 0.046607368 0.025374955 13731719
-0.097935006 0.04819886 0.024835654 13731976
-0.097839244 0.049792293 0.024295613 13016734
-0.097743392 0.051387679 0.023754835 10197915
-0.097647406 0.052985009 0.023213429 10197915
-0.097551316 0.054584287 0.022671342 10197915
-0.097455092 0.056185517 0.022128629 10197915
-0.097520538 0.057830855 0.021059377 10197915
-0.095299736 -0.094892122 0.10356013 8879228
-0.095423698 -0.09358301 0.10247921 6776165
-0.095598817 -0.092285097 0.101244 7892590
-0.095781036 -0.090985075 0.099985436 6183514
-0.095963821 -0.089681014 0.098722942 5855063
-0.096147202 -0.088372894 0.09745647 6117978
-0.09646336 -0.087096289 0.095790811 7563625
-0.096808292 -0.085821711 0.09403611 7432296
-0.097450934 -0.084618427 0.091386773 5986649
-0.098092467 -0.083405986 0.088736072 5920856
-0.098861367 -0.082216382 0.085698545 5986392
-0.1003123 -0.081183091 0.080607727 6775137
-0.10181569 -0.080145225 0.07535021 5855063
-0.10331135 -0.079087861 0.070106588 4605510
-0.10516536 -0.078094892 0.063774757 4210752
-0.10745608 -0.077178366 0.056115683 5131597
-0.10978853 -0.076245129 0.048317071 4210238
-0.11377367 -0.075638786 0.035515491 3552051
-0.11246464 -0.046888359 0.024402235 6839131
-0.11197286 -0.045308564 0.025106458 9535359
-0.11152057 -0.043735325 0.02569049 9138802
-0.11107866 -0.042165119 0.026243605 8876401
-0.11065935 -0.040598959 0.026728112 8024176
-0.11025384 -0.039035682 0.027170885 6841701
-0.10989824 -0.037478104 0.027460389 5460562
-0.10954287 -0.03592154 0.027749721 6513507
-0.10920384 -0.034367166 0.027989006 8749698
-0.10892142 -0.032817435 0.0280535 9209992
-0.10864652 -0.031268388 0.028094763 9145227
-0.10838468 -0.029720223 0.028095603 9145227
-0.108123 -0.028172068 0.028095929 9671314
-0.10786135 -0.02662392 0.028096199 9539728
-0.10759968 -0.025075765 0.028096527 9539728
-0.10733803 -0.023527611 0.028096797 9605521
-0.10707646 -0.02197946 0.028096782 8947848
-0.1068149 -0.02043131 0.028096767 10065558
-0.10655333 -0.018883159 0.028096752 11372937
-0.10629177 -0.017335005 0.028096739 9668744
-0.1060302 -0.015786853 0.028096722 7171180
-0.10576864 -0.014238695 0.028096708 8749441
-0.10550704 -0.012690539 0.028096808 10722203
-0.10524543 -0.011142381 0.028096907 12357776
-0.10498387 -0.0095942235 0.028096892 11835544
-0.10472234 -0.0080460599 0.028096763 10853275
-0.10446087 -0.0064978977 0.028096465 9868436
-0.10419914 -0.0049497373 0.028096963 8750469
-0.10397456 -0.0034002308 0.027980402 9408142
-0.10400777 -0.0018395255 0.027050581 10393752
-0.10463428 -0.00024740212 0.024246005 9143428
-0.10380954 0.0012777251 0.026021909 8683648
-0.1029873 0.0027967154 0.027793255 8289918
-0.10265259 0.0043407297 0.028024511 9408399
-0.10236582 0.0058872686 0.02810432 10197915
-0.10210437 0.007435435 0.028103963 10197915
-0.10184295 0.0089836102 0.028103435 10592673
-0.10158155 0.010531786 0.028102908 12366257
-0.10132013 0.012079963 0.028102439 13411492
-0.10105865 0.013628139 0.028102139 10197915
-0.10079715 0.015176317 0.028101897 10197915
-0.10053564 0.016724491 0.028101711 10197915
-0.10027417 0.018272674 0.028101413 10197915
-0.10001265 0.019820854 0.028101226 10197915
-0.099751152 0.021369038 0.028100986 12496044
-0.099489637 0.02291722 0.0281008 13731976
-0.099228144 0.024465408 0.028100556 13537681
-0.098966628 0.026013596 0.028100371 12951969
-0.098705091 0.027561784 0.028100243 12299179
-0.09844356 0.029109972 0.028100114 10987431
-0.09818206 0.030658167 0.028099872 10263708
-0.09792053 0.032206357 0.028099744 10789795
-0.097664893 0.033755571 0.028080599 11250089
-0.097423136 0.035307325 0.028016647 11250089
-0.097214893 0.036865491 0.027844349 11250089
-0.097006559 0.038424265 0.027671993 10855588
-0.096836157 0.039991092 0.027376601 10329501
-0.09667892 0.041561648 0.027038001 10197915
-0.096557468 0.043140866 0.026582738 10197915
-0.096445113 0.044723678 0.026097072 11840684
-0.096348673 0.046311751 0.025558801 12822439
-0.096252091 0.047901746 0.02501996 12037292
-0.096155398 0.049493682 0.024480438 12951969
-0.096058577 0.051087551 0.023940288 10197915
-0.09596166 0.052683372 0.0233994 10197915
-0.095864631 0.054281138 0.022857828 10197915
-0.095767446 0.055880845 0.022315744 10197915
-0.095730074 0.05749815 0.02157701 10197915
-0.094082706 -0.095148973 0.10273056 8943993
-0.094262145 -0.093856595 0.10147737 10449522
-0.094442122 -0.092560202 0.1002203 7432039
-0.094622672 -0.091259778 0.098959304 5131597
-0.0948148 -0.089958407 0.097661331 4342338
-0.095155224 -0.088693701 0.095915675 5065804
-0.095497094 -0.087423548 0.094162561 5657427
-0.096109062 -0.086219482 0.09159372 5920599
-0.096711844 -0.085004427 0.089047961 6314843
-0.097448178 -0.083815061 0.086095132 6314843
-0.098810367 -0.082773052 0.081249028 4868425
-0.10056736 -0.081811972 0.075202197 5920856
-0.10204867 -0.080764107 0.069977693 6052185
-0.10410652 -0.079834774 0.062999956 5000268
-0.10638835 -0.078933693 0.055331666 4210752
-0.10871176 -0.078016184 0.047523573 4013116
-0.11233892 -0.077360153 0.035747308 1842204
-0.11174872 -0.050270826 0.02318758 4867397
-0.11123736 -0.048684761 0.023954341 6710372
-0.11077401 -0.047106922 0.024574229 10459545
-0.1103306 -0.045533437 0.025133615 11117475
-0.10988774 -0.043961931 0.025692316 10851476
-0.10944722 -0.042392582 0.026244806 9013641
-0.10902867 -0.040827226 0.026730185 9408142
-0.10862327 -0.039264731 0.027175685 10196373
-0.10826844 -0.037708052 0.027464969 11574428
-0.10791383 -0.036152393 0.027754081 10394009
-0.10758042 -0.034599297 0.027977793 9933972
-0.10729418 -0.033050213 0.028055031 9342349
-0.10702001 -0.031502154 0.02809478 8750469
-0.10675829 -0.029954951 0.028095733 9145227
-0.10649682 -0.028407764 0.028095946 9736850
-0.10623531 -0.026860576 0.028096274 9079434
-0.10597382 -0.025313389 0.028096544 8618883
-0.10571232 -0.023766197 0.028096814 8289918
-0.10545092 -0.022219013 0.028096797 8092539
-0.10518952 -0.020671824 0.028096784 10456718
-0.10492812 -0.019124636 0.028096769 9602180
-0.10466673 -0.017577451 0.028096694 9340293
-0.10440534 -0.016030259 0.028096681 8882055
-0.1041439 -0.014483065 0.02809678 9276556
-0.10388245 -0.012935873 0.028096879 11573400
-0.10362104 -0.011388681 0.028096922 12226961
-0.10335962 -0.0098414849 0.028096963 10459031
-0.10309818 -0.0082942881 0.028097061 9342349
-0.10283681 -0.0067470907 0.028096933 8816262
-0.10257538 -0.0051998952 0.028096974 8355711
-0.10235055 -0.0036513926 0.02798108 8684419
-0.10232625 -0.0020942211 0.027228771 9079434
-0.10300387 -0.00050155545 0.024246238 9145227
-0.10274129 0.0010523847 0.024246337 7566195
-0.10141953 0.0025448839 0.027616011 6645093
-0.10103758 0.0040852688 0.027999409 9077892
-0.10074318 0.0056303628 0.028104447 8221041
-0.10048193 0.0071775694 0.028103918 8617855
-0.10022068 0.008724778 0.028103448 9144713
-0.099959441 0.010271991 0.028102921 12366257
-0.099698171 0.011819203 0.028102448 13346213
-0.099436879 0.013366417 0.028102092 10197915
-0.099175543 0.01491363 0.02810185 10197915
-0.098914191 0.016460842 0.028101664 10197915
-0.098652855 0.018008057 0.02810142 10197915
-0.098391525 0.019555274 0.028101178 10197915
-0.098130174 0.021102492 0.028100992 11840941
-0.097868837 0.022649715 0.028100749 12625831
-0.097607486 0.024196934 0.028100563 12690853
-0.097346134 0.025744159 0.028100377 12559524
-0.097084761 0.02729138 0.028100248 12233386
-0.096823409 0.028838607 0.028100062 11118760
-0.096562035 0.030385833 0.028099934 10921381
-0.096300684 0.031933062 0.028099747 11315625
-0.09604194 0.033480745 0.028091073 10789795
-0.09579017 0.035029706 0.028059782 10789795
-0.095576994 0.036585893 0.027903041 11250089
-0.095368512 0.038143542 0.02773075 10921381
-0.095182188 0.039706159 0.027485993 10329501
-0.095022351 0.041275013 0.02715447 10197915
-0.094887845 0.042850334 0.026739713 10197915
-0.094769649 0.044430651 0.026270894 11381418
-0.094669491 0.04601663 0.025742257 11709869
-0.094571978 0.047605131 0.025203934 11250089
-0.094474338 0.049195562 0.024664985 12821154
-0.094376586 0.050787929 0.024125354 10197915
-0.094278745 0.052382242 0.023584982 10197915
-0.094180733 0.053978488 0.023044098 10197915
-0.094082631 0.055576686 0.022502474 10197915
-0.093993299 0.05717916 0.02193094 10197915
-0.092927903 -0.095425233 0.1017103 5855063
-0.093105659 -0.094132453 0.10045473 5065804
-0.093283959 -0.092835657 0.099195287 4868682
-0.093511775 -0.091548964 0.097784311 5000011
-0.093849115 -0.090288632 0.096040361 6578015
-0.094187915 -0.08902289 0.094288886 7497061
-0.094769515 -0.087817736 0.091800369 6774880
-0.095367596 -0.086608686 0.089257523 6446429
-0.096038088 -0.085410215 0.08649087 5657684
-0.097312577 -0.084358573 0.081888646 5065804
-0.09912546 -0.083427906 0.075644895 4473924
-0.10081451 -0.082445569 0.069765948 4868682
-0.10304708 -0.081575669 0.062224679 6775394
-0.10532001 -0.080690049 0.054547109 7300453
-0.10763436 -0.079788283 0.046729591 5657684
-0.11090674 -0.079078473 0.035978667 4341567
-0.11052449 -0.052068677 0.022727482 4801604
-0.11002632 -0.05048278 0.023457097 7697524
-0.10958312 -0.048906174 0.024017515 10132122
-0.10914048 -0.047331546 0.024577191 8289918
-0.10869838 -0.045758903 0.025136182 9276042
-0.10825685 -0.044188239 0.025694491 10851733
-0.10781779 -0.042619742 0.026246071 10130323
-0.10739918 -0.041055124 0.026734944 9867665
-0.10699475 -0.03949349 0.027180493 10590103
-0.10664068 -0.037937716 0.027469559 12227989
-0.10628682 -0.036382951 0.027758507 11573657
-0.10595898 -0.034831148 0.027966566 10919068
-0.10566915 -0.033282708 0.028055994 9868436
-0.1053955 -0.031735625 0.028094858 9539728
-0.10513395 -0.030189386 0.028095812 9934229
-0.10487262 -0.028643161 0.02809608 10394009
-0.10461129 -0.027096935 0.02809635 9079177
-0.10434994 -0.02555071 0.028096676 6974058
-0.10408865 -0.024004485 0.028096832 6381921
-0.10382741 -0.022458265 0.028096817 8749955
-0.10356618 -0.02091204 0.028096743 11176586
-0.10330495 -0.019365814 0.028096728 10393238
-0.10304369 -0.017819589 0.028096769 10065044
-0.10278245 -0.016273363 0.028096754 8487297
-0.1025212 -0.014727133 0.028096795 8355711
-0.10225992 -0.013180902 0.028096896 11834259
-0.10199864 -0.011634672 0.028096993 11049112
-0.10173738 -0.010088439 0.028097034 9473935
-0.10147613 -0.0085422089 0.028097076 9079434
-0.10121485 -0.0069959755 0.028097175 9144970
-0.10095362 -0.0054497398 0.028097102 9079434
-0.10072856 -0.0039022425 0.027981764 9144970
-0.10073172 -0.0023450875 0.027137944 9145227
-0.10137548 -0.00075539557 0.024246532 9144970
-0.10111308 0.00079757784 0.024246573 9211020
-0.10001796 0.0023027328 0.026911302 9473935
-0.099469416 0.0038329477 0.027830394 9276299
-0.099123701 0.0053738547 0.028100926 8947591
-0.098861523 0.006920022 0.028103933 7631731
-0.09860044 0.008466268 0.028103404 8090740
-0.098339342 0.010012518 0.028102934 8352884
-0.098078236 0.011558768 0.028102461 11505037
-0.097817123 0.01310502 0.028102048 9798531
-0.09755595 0.014651269 0.028101804 10197915
-0.097294763 0.016197518 0.028101617 10197915
-0.09703359 0.017743772 0.028101375 10197915
-0.096772417 0.019290026 0.028101131 10197915
-0.096511245 0.020836283 0.028100887 10197915
-0.096250035 0.022382537 0.028100757 10197915
-0.09598884 0.023928795 0.028100571 10197915
-0.095727637 0.025475053 0.028100442 10197915
-0.095466442 0.027021315 0.028100256 10197915
-0.095205233 0.028567575 0.028100125 10658209
-0.09494406 0.030113842 0.028099881 12495016
-0.09468285 0.031660106 0.028099753 13537167
-0.094421655 0.033206377 0.028099567 11906734
-0.094169401 0.034754243 0.028070193 11972270
-0.093941346 0.036306679 0.027961697 13602446
-0.093732685 0.037863199 0.027789526 12429480
-0.093531571 0.039421823 0.027592327 10592673
-0.093368582 0.04098887 0.027269775 10197915
-0.093220852 0.042560261 0.026896548 10197915
-0.093101896 0.044139162 0.026428118 10197915
-0.092993118 0.045722004 0.025925318 10197915
-0.092894658 0.047309007 0.02538757 11381418
-0.092796095 0.048897944 0.024849141 12624289
-0.092697397 0.050488807 0.024310086 10263708
-0.092598595 0.052081607 0.023770345 10197915
-0.092499658 0.053676344 0.023229981 10197915
-0.09240061 0.05527303 0.022688931 10197915
-0.092301451 0.05687166 0.022147197 10197915
-0.092368126 0.058516733 0.02105502 10197915
-0.091771618 -0.095701836 0.10068877 6972516
-0.09194769 -0.094408661 0.099430814 5328976
-0.092210747 -0.093137048 0.097907163 6840673
-0.092545047 -0.091881096 0.096164808 8219242
-0.092880793 -0.090619758 0.09441492 7366246
-0.093432307 -0.089413188 0.092006654 6446429
-0.094025746 -0.088210143 0.089466617 5328976
-0.094631106 -0.08700186 0.086885735 5657684
-0.095818967 -0.08593969 0.082526445 6709344
-0.097618081 -0.085022204 0.07629627 7300967
-0.099805556 -0.084183067 0.068870142 7235174
-0.10198701 -0.083317563 0.06144898 4605510
-0.10425101 -0.082447425 0.053762179 5460305
-0.1065563 -0.081561416 0.045935173 8022120
-0.10947708 -0.080793746 0.036209628 4867911
-0.10935176 -0.053873375 0.022108011 7623250
-0.10884903 -0.052285135 0.022855306 8875887
-0.10839221 -0.050705433 0.023460794 9276042
-0.10795032 -0.049129669 0.024020819 7697524
-0.10750898 -0.047555886 0.02458016 7368816
-0.10706819 -0.045984089 0.025138814 8355454
-0.10662794 -0.044414263 0.025696784 10326674
-0.1061904 -0.042846631 0.026247339 11244692
-0.10577174 -0.041282743 0.026739711 10130323
-0.10537055 -0.039722171 0.02717812 10524310
-0.10501496 -0.038167089 0.027474152 11769237
-0.10466366 -0.036613371 0.027757237 12095632
-0.10433951 -0.035062715 0.027955383 12228246
-0.10404642 -0.033514943 0.028056104 11312541
-0.10377303 -0.03196881 0.028094877 11050140
-0.10351164 -0.030423529 0.02809583 10984861
-0.10325046 -0.028878266 0.028096156 9472393
-0.10298929 -0.027333003 0.028096426 8223611
-0.10272812 -0.025787741 0.028096694 6645093
-0.10246699 -0.024242479 0.028096851 6974058
-0.10220592 -0.02269722 0.028096834 9473935
-0.10194483 -0.021151958 0.028096819 10655896
-0.10168378 -0.019606695 0.028096747 8618883
-0.1014227 -0.018061429 0.02809673 8421504
-0.10116158 -0.016516164 0.028096829 8355711
-0.10090049 -0.014970897 0.02809687 8355711
-0.10063938 -0.013425629 0.028096968 10524567
-0.10037828 -0.011880358 0.028097009 9473935
-0.10011718 -0.010335092 0.02809705 9342349
-0.099856071 -0.0087898187 0.028097149 9933201
-0.099594973 -0.0072445483 0.02809719 10261909
-0.099333875 -0.0056992741 0.028097231 10261909
-0.099131301 -0.0041519981 0.027909605 10656410
-0.099189706 -0.0025936626 0.026883984 10525081
-0.099749126 -0.0010089173 0.024246771 10656153
-0.099486873 0.00054309081 0.024246871 10656153
-0.099078245 0.0020867768 0.024718134 10919068
-0.098062865 0.0035908634 0.027145172 9079177
-0.097564682 0.005121652 0.027908882 9079434
-0.097243115 0.0066627963 0.02810395 9145227
-0.096982196 0.0082080821 0.028103421 9671057
-0.096721262 0.0097533669 0.028102947 9605007
-0.096460357 0.011298659 0.028102363 10324361
-0.096199378 0.012843949 0.028102003 9602437
-0.09593837 0.014389235 0.028101759 9272444
-0.095677361 0.015934523 0.028101515 10194060
-0.09541633 0.017479813 0.028101327 10461087
-0.095155321 0.019025106 0.028101085 10197915
-0.094894275 0.020570397 0.028100954 10197915
-0.094633244 0.022115691 0.028100768 10197915
-0.094372198 0.023660986 0.028100636 10197915
-0.094111167 0.025206283 0.02810045 10197915
-0.093850158 0.026751587 0.028100207 10197915
-0.093589105 0.028296886 0.028100075 10329501
-0.093328081 0.029842189 0.028099889 10855588
-0.093067028 0.031387489 0.028099759 11184039
-0.092805997 0.032932799 0.028099572 10724002
-0.092550665 0.034479123 0.028080676 10724259
-0.092308223 0.036027897 0.028019341 12102057
-0.092099115 0.037583243 0.027848203 13081242
-0.091890186 0.039139241 0.027676152 12559267
-0.091719903 0.040703684 0.02737633 12626859
-0.091557778 0.04227091 0.027049012 11118760
-0.09143655 0.043848086 0.02658594 10197915
-0.091319509 0.045427866 0.026108094 10197915
-0.091220118 0.047013376 0.025570925 11512747
-0.091120608 0.048600812 0.025033073 13341587
-0.091020994 0.050190177 0.024494538 12493988
-0.090921246 0.051781476 0.023955375 12494245
-0.090821363 0.053374704 0.023415584 12494245
-0.090721376 0.054969877 0.022875108 12296866
-0.09062127 0.056566995 0.02233395 12296866
-0.090560019 0.058176525 0.021662226 11381161
-0.090613857 -0.095978796 0.099665903 7367017
-0.090911724 -0.094722681 0.09802983 7891562
-0.091242991 -0.093471095 0.096289068 8285035
-0.091545217 -0.092205204 0.094633698 7103588
-0.092071377 -0.090998352 0.092292085 6315100
-0.092686221 -0.089808799 0.089675412 6643551
-0.093278654 -0.088604309 0.087122492 7300453
-0.094329491 -0.08751642 0.083162487 8022634
-0.096155263 -0.086622834 0.076822266 8219499
-0.098905489 -0.085950933 0.067637049 7563111
-0.10103561 -0.085088618 0.060337584 6512222
-0.10320286 -0.084211253 0.052910902 5131597
-0.10547762 -0.083335608 0.04514027 4079166
-0.10804994 -0.082505979 0.036440242 4934218
-0.10839271 -0.055709951 0.020819679 7165783
-0.10768719 -0.054089904 0.022204656 8480615
-0.10720126 -0.052504711 0.022904184 10781828
-0.10676012 -0.050927803 0.023464559 9800330
-0.10631954 -0.049352888 0.024024189 8552576
-0.1058795 -0.047779944 0.024583193 7500402
-0.10544002 -0.046208993 0.025141452 7829367
-0.10500109 -0.044640005 0.025699027 9144456
-0.10456477 -0.043073207 0.026249409 10850705
-0.10414632 -0.041510068 0.026744485 9276299
-0.10374855 -0.039950587 0.027175173 9605007
-0.10339127 -0.038396169 0.027478753 9605007
-0.10304561 -0.036843769 0.027746145 10327702
-0.10272203 -0.035293993 0.027944187 12161425
-0.10242572 -0.03374688 0.028056158 12030610
-0.10215257 -0.0322017 0.028094895 11502981
-0.10189134 -0.030657388 0.028095907 9996681
-0.10163032 -0.029113082 0.028096233 8881027
-0.10136931 -0.02756878 0.028096503 7960696
-0.10110831 -0.026024476 0.028096771 8421504
-0.10084735 -0.024480177 0.02809687 8355711
-0.10058644 -0.022935877 0.028096853 8684676
-0.10032554 -0.021391574 0.028096778 10590874
-0.10006463 -0.019847272 0.028096763 9802643
-0.099803686 -0.018302968 0.028096804 9802643
-0.099542737 -0.016758662 0.028096901 8355711
-0.099281803 -0.015214354 0.028096942 8355711
-0.099020869 -0.01367005 0.028096983 10393752
-0.098759934 -0.012125741 0.028097024 10065558
-0.098498985 -0.010581432 0.028097123 10130580
-0.098238051 -0.0090371193 0.028097164 10392467
-0.097977094 -0.0074928105 0.028097261 10523796
-0.097735874 -0.0059479484 0.028033776 10458003
-0.097628474 -0.0043983827 0.027538501 11442071
-0.097865306 -0.0028335908 0.025930915 10589332
-0.098124802 -0.0012621235 0.024247015 11507350
-0.097862713 0.00028891917 0.024247115 11572629
-0.097600624 0.0018399613 0.024247214 12291726
-0.096883833 0.0033628307 0.02572098 9999508
-0.096149936 0.0048793349 0.027253078 10328216
-0.095676444 0.0064095417 0.027942494 10657181
-0.095365979 0.0079502156 0.028103376 8684676
-0.095105201 0.0094945412 0.028102905 8487297
-0.094844446 0.01103887 0.028102374 10065301
-0.094583645 0.0125832 0.028101958 9473935
-0.094322801 0.014127527 0.028101712 9276299
-0.094061933 0.015671855 0.028101526 7105387
-0.093801081 0.017216185 0.028101282 7829367
-0.093540236 0.018760517 0.028101036 9342092
-0.093279332 0.020304844 0.028100964 7828853
-0.093018465 0.021849178 0.028100776 8420990
-0.092757598 0.023393514 0.028100587 8420990
-0.092496708 0.024937849 0.028100457 9342349
-0.092235841 0.026482189 0.028100271 11052710
-0.091974959 0.028026527 0.02810014 10526880
-0.091714084 0.02957087 0.028099952 10197915
-0.091453217 0.031115215 0.028099766 10197915
-0.091192335 0.032659557 0.028099636 10263708
-0.090933986 0.034204356 0.028091114 10855588
-0.090683021 0.035750549 0.028058166 11905963
-0.090467788 0.037303671 0.027906839 12558753
-0.09025868 0.038858544 0.027734907 12428452
-0.090073705 0.040418927 0.027482616 12561066
-0.089909635 0.041984584 0.027160404 10987174
-0.089773796 0.043557461 0.026743731 10197915
-0.08965224 0.045135003 0.026278714 10197915
-0.089548357 0.046718236 0.02575394 11118760
-0.089447893 0.04830417 0.025216723 12428709
-0.08934734 0.049892038 0.024678763 12428966
-0.089246646 0.051481832 0.024140177 12231587
-0.089145847 0.053073563 0.023600906 12363173
-0.089044951 0.054667231 0.023060894 12231330
-0.088943891 0.056262832 0.022520369 13407894
-0.088850059 0.057862356 0.021954503 11968415
-0.089351341 0.059627775 0.019390004 10987174
-0.08987046 -0.095036462 0.096634977 7169124
-0.090156324 -0.0937711 0.095022671 6709344
-0.090531275 -0.092526704 0.093134336 6840416
-0.091201656 -0.091361851 0.090336069 6511965
-0.091876619 -0.090189002 0.08751867 7103331
-0.09286613 -0.089094929 0.083729193 6709344
-0.094726004 -0.088227704 0.077254929 5789013
-0.098003939 -0.087721787 0.066401817 6052185
-0.10012806 -0.08687406 0.059085481 6906723
-0.10228926 -0.086011529 0.051641442 5131597
-0.10448851 -0.085133813 0.044066332 5000268
-0.10672755 -0.084240682 0.036354441 5000268
-0.10655176 -0.055899058 0.021469982 5787985
-0.10601349 -0.054304458 0.022337517 7366503
-0.10556993 -0.052725963 0.022908233 9733252
-0.10513008 -0.051149901 0.023468271 10586248
-0.10469081 -0.049575824 0.024027564 9866380
-0.10425193 -0.048003715 0.024586627 7895160
-0.10381382 -0.046433602 0.02514432 9341578
-0.10337625 -0.044865463 0.025701327 9144456
-0.10294022 -0.043299396 0.026254509 9473421
-0.10252293 -0.041737117 0.026749261 9933458
-0.10212854 -0.04017872 0.02717228 10065044
-0.10176963 -0.038624965 0.027483301 9079177
-0.10142951 -0.037073877 0.027735151 9276556
-0.10110648 -0.035524998 0.027933089 10914699
-0.10080704 -0.033978537 0.028056208 9930631
-0.10053412 -0.032434311 0.028094972 10979978
-0.10027304 -0.030890951 0.028095983 9406343
-0.10001218 -0.029347606 0.028096309 9145227
-0.099751338 -0.027804259 0.028096577 9079177
-0.099490494 -0.026260918 0.028096845 8289918
-0.099229746 -0.024717577 0.028096829 8289918
-0.098968975 -0.023174237 0.02809687 8750469
-0.098708235 -0.021630894 0.028096795 11443870
-0.098447479 -0.020087551 0.028096778 11114648
-0.098186709 -0.018544206 0.028096819 11048598
-0.097925916 -0.01700086 0.028096916 9211020
-0.097665146 -0.015457514 0.028096957 8487297
-0.097404353 -0.013914167 0.028097054 10852761
-0.097143583 -0.012370817 0.028097095 11180184
-0.09688279 -0.010827467 0.028097192 10852504
-0.09662202 -0.0092841173 0.028097233 10261395
-0.096361242 -0.0077407635 0.028097274 9933715
-0.096149378 -0.0061960882 0.027938768 9933458
-0.096143261 -0.0046441108 0.027112393 10393495
-0.096764416 -0.0030650944 0.02424716 9407885
-0.096502505 -0.0015150155 0.024247203 10393238
-0.09624058 3.5060544e-05 0.024247302 10065044
-0.09597867 0.0015851432 0.024247343 12683657
-0.095716737 0.0031352229 0.024247441 11506836
-0.094943024 0.0046509369 0.025917733 11637908
-0.094239838 0.0061658928 0.027360832 11966616
-0.093790695 0.0076957326 0.027976086 8487297
-0.093491144 0.009236034 0.028102916 6908265
-0.093230546 0.010779406 0.028102385 8026489
-0.092969924 0.012322776 0.02810191 7500402
-0.092709236 0.013866144 0.028101666 8487297
-0.092448533 0.015409511 0.028101478 7237230
-0.092187829 0.01695288 0.02810129 8487297
-0.091927119 0.018496251 0.028101102 8224125
-0.091666415 0.020039624 0.028100913 8289918
-0.09140569 0.021582996 0.028100783 8355711
-0.091144986 0.023126373 0.028100595 8289918
-0.090884276 0.024669752 0.028100407 8158332
-0.090623558 0.026213128 0.028100276 10194060
-0.090362847 0.02775651 0.028100088 8223868
-0.090102121 0.029299891 0.028099956 10197915
-0.089841411 0.030843277 0.028099768 10197915
-0.089580707 0.032386664 0.02809958 10395294
-0.089319982 0.033930048 0.028099449 12038063
-0.089067973 0.035475045 0.028070306 12823467
-0.08883889 0.03702452 0.027964747 11118503
-0.088629425 0.038578235 0.027793566 10329501
-0.088429928 0.04013459 0.027588803 10197915
-0.088265389 0.041698981 0.027266847 10197915
-0.088113703 0.043267302 0.02690126 10197915
-0.087991379 0.044843428 0.026436696 10197915
-0.08787939 0.046423588 0.025936551 10197915
-0.08777798 0.048008028 0.025399972 10197915
-0.087676466 0.049594395 0.024862649 10197915
-0.087574862 0.051182695 0.024324585 10197915
-0.087473139 0.052772924 0.023785835 10197915
-0.08737129 0.054365084 0.023246458 10329501
-0.087269299 0.05595918 0.022706453 12756903
-0.087167203 0.057555214 0.022165762 13667982
-0.087208048 0.059192665 0.021141222 12430765
-0.088770464 -0.095333546 0.095410816 7563368
-0.089098506 -0.094081014 0.093658805 8481900
-0.089660287 -0.092892297 0.091183007 8481900
-0.090328872 -0.091726638 0.08837311 8022891
-0.091042809 -0.090564691 0.085418001 7431782
-0.093300022 -0.089828923 0.077686541 6775137
-0.097100861 -0.089495614 0.065164506 5065804
-0.099218965 -0.08866252 0.057831276 4802889
-0.10137407 -0.087814882 0.050369926 7366246
-0.10356715 -0.086952299 0.042777076 8612972
-0.10486315 -0.056109928 0.021652307 8681078
-0.1043794 -0.054524079 0.022352934 6250078
-0.10394038 -0.052946892 0.022913089 5263183
-0.1035019 -0.051371697 0.023472559 6974058
-0.10306397 -0.04979847 0.024031341 7566195
-0.10262661 -0.048227221 0.024589382 8749698
-0.10218978 -0.046657953 0.025146734 11045257
-0.10175338 -0.045090634 0.025703801 9735822
-0.1013184 -0.043525375 0.026257383 9407628
-0.10090158 -0.041963875 0.026754042 11180441
-0.10051053 -0.04040657 0.02716938 10917526
-0.10015 -0.038853481 0.027487908 8420990
-0.099815406 -0.037303708 0.027724085 8618369
-0.099488407 -0.035755359 0.027936375 11441043
-0.099190347 -0.034209903 0.028056312 8026489
-0.098917685 -0.032666624 0.028094985 10524824
-0.098656744 -0.031124223 0.028096111 10393752
-0.098396063 -0.029581837 0.02809638 8289918
-0.098135374 -0.02803945 0.028096646 8289918
-0.097874694 -0.026497068 0.028096916 8289918
-0.097614102 -0.024954684 0.028096899 8355711
-0.097353511 -0.023412302 0.028096881 9539728
-0.097092919 -0.021869918 0.028096864 12424083
-0.096832328 -0.020327533 0.028096847 12489105
-0.096571721 -0.018785145 0.028096888 12616065
-0.096311107 -0.017242758 0.028096927 10393495
-0.096050479 -0.01570037 0.028097026 8750469
-0.095789865 -0.014157979 0.028097065 11246234
-0.095529236 -0.012615588 0.028097162 11835030
-0.095268629 -0.011073196 0.028097203 11049112
-0.095008016 -0.009530806 0.028097242 10261652
-0.094757192 -0.0079882089 0.028065393 9605521
-0.094619088 -0.0064425343 0.027665913 9539728
-0.094791703 -0.0048854984 0.026251484 9539728
-0.095143996 -0.0033167067 0.024247292 8947848
-0.094882227 -0.0017675937 0.024247389 9736850
-0.094620466 -0.00021847637 0.024247488 8684676
-0.094358712 0.0013306402 0.024247531 11508121
-0.094096951 0.0028797574 0.02424763 11442585
-0.093835182 0.0044288747 0.024247728 11441557
-0.093005516 0.0059368773 0.026114043 11635852
-0.092337877 0.0074509536 0.027450999 7895160
-0.091907032 0.0089801978 0.028010916 8026746
-0.09161865 0.010520261 0.028102392 8487297
-0.091358207 0.012062677 0.02810186 8421504
-0.091097675 0.013605086 0.028101614 8618883
-0.090837136 0.015147494 0.028101426 8750469
-0.090576589 0.016689906 0.028101237 9079177
-0.09031605 0.01823232 0.028101049 9079434
-0.090055488 0.019774731 0.028100919 8882055
-0.089794926 0.021317145 0.028100787 8947848
-0.089534372 0.022859564 0.028100597 8947591
-0.08927381 0.024401981 0.028100466 9013641
-0.089013271 0.025944402 0.028100278 9013641
-0.088752724 0.027486825 0.02810009 8816005
-0.088492155 0.029029248 0.028099958 8487040
-0.088231616 0.030571675 0.02809977 10197915
-0.087971061 0.032114103 0.02809958 10395294
-0.0877105 0.03365653 0.028099449 11513004
-0.087455466 0.035199981 0.028080802 11578283
-0.087212645 0.036745831 0.028021179 10526880
-0.087002434 0.038298316 0.027852064 10263708
-0.086792894 0.039851546 0.027680378 10197915
-0.086623587 0.041413806 0.027373079 10197915
-0.086459666 0.042978335 0.027047094 11709612
-0.086333163 0.044552322 0.026594413 12430251
-0.086213179 0.046129428 0.026118876 11446954
-0.086110853 0.047712382 0.025582818 10197915
-0.086008392 0.049297251 0.025046133 10724002
-0.085905828 0.050884049 0.024508705 11643562
-0.085803159 0.052472774 0.023970593 10790052
-0.085700385 0.054063436 0.023431737 11840427
-0.085597485 0.055656027 0.022892253 12495016
-0.085494429 0.057250548 0.022352198 13148320
-0.085419275 0.058854755 0.02171625 13213599
-0.087708049 -0.095643423 0.094062179 8285549
-0.088124014 -0.094417706 0.092027113 7432296
-0.088786222 -0.093259178 0.089224793 7103845
-0.089462765 -0.092095599 0.086372897 5855063
-0.091400787 -0.091288343 0.079597279 5197390
-0.096018806 -0.091221884 0.064476885 5263183
-0.098308325 -0.090454035 0.056574918 4934218
-0.10045732 -0.089621328 0.049096178 4802632
-0.10280275 -0.088816628 0.040991273 4802889
-0.10322788 -0.056328174 0.021673484 8479844
-0.10275093 -0.054743942 0.022357047 8091254
-0.10231321 -0.0531676 0.022916863 4868682
-0.10187602 -0.051593244 0.023475993 7894903
-0.1014394 -0.050020862 0.024034379 8749184
-0.1010033 -0.048450459 0.024592135 8946820
-0.10056766 -0.046882007 0.025149493 11372423
-0.1001326 -0.045315538 0.025706047 9472907
-0.099698894 -0.043751109 0.026259284 9210249
-0.099282272 -0.042190351 0.02675877 11110793
-0.098894514 -0.04063414 0.027166473 11109765
-0.098532416 -0.039081704 0.027492462 8618369
-0.098203234 -0.037533257 0.027713116 9734023
-0.097871736 -0.035985384 0.027941661 10394009
-0.097575702 -0.034440983 0.028056299 8684676
-0.097303249 -0.03289865 0.028095052 8882055
-0.097042486 -0.031357203 0.028096121 8816005
-0.096781962 -0.029815774 0.028096389 8289918
-0.09652143 -0.028274346 0.028096715 8289918
-0.096260928 -0.02673292 0.028096925 8289918
-0.096000493 -0.025191495 0.028096907 8355711
-0.095740065 -0.023650073 0.02809689 8618883
-0.095479652 -0.022108644 0.028096816 9210763
-0.09521918 -0.020567216 0.028096912 9605264
-0.09495873 -0.019025788 0.028096952 12813701
-0.094698265 -0.017484354 0.028097048 11831689
-0.094437815 -0.015942922 0.028097089 9145227
-0.09417735 -0.014401489 0.028097186 8750469
-0.0939169 -0.012860058 0.028097225 9211020
-0.093656451 -0.011318621 0.028097264 11704472
-0.093396015 -0.0097771864 0.028097248 12095889
-0.093191661 -0.0082346406 0.027913442 10459545
-0.093145274 -0.0066874092 0.027211098 10393495
-0.093787171 -0.0051161638 0.02424738 10459031
-0.093525566 -0.0035680088 0.024247479 10656667
-0.093263976 -0.0020198552 0.02424752 10984090
-0.093002394 -0.00047170103 0.024247561 8289918
-0.092740774 0.0010764528 0.024247717 8224125
-0.092479192 0.0026246107 0.024247758 7499888
-0.092217602 0.0041727684 0.024247799 9338751
-0.091955982 0.0057209237 0.024247954 11247262
-0.091072373 0.0072207404 0.026306363 9408142
-0.090450428 0.0087351454 0.027502045 8684676
-0.090031534 0.010263477 0.028026856 8289918
-0.089748472 0.011802897 0.028101863 8816262
-0.089488104 0.013344349 0.028101617 9342606
-0.089227721 0.014885802 0.028101427 9934486
-0.088967338 0.016427256 0.028101239 10591645
-0.08870694 0.017968711 0.028101105 10394266
-0.088446535 0.019510165 0.028100975 9933972
-0.088186152 0.021051625 0.028100787 10065301
-0.087925769 0.022593085 0.028100597 10196373
-0.087665364 0.024134547 0.028100464 10525081
-0.087404981 0.02567601 0.028100275 10721946
-0.087144598 0.027217476 0.028100086 10786968
-0.086884208 0.028758945 0.028099898 10917783
-0.086623788 0.030300409 0.028099822 9211020
-0.086363405 0.031841882 0.028099634 10658466
-0.086103015 0.033383355 0.028099444 11578540
-0.085845038 0.034925275 0.028091136 11446954
-0.08559484 0.036468711 0.028056579 10987174
-0.085377753 0.038018793 0.027910231 10987174
-0.085167937 0.039570883 0.027739009 10789795
-0.084984191 0.041129049 0.027479267 10329501
-0.084816545 0.042691614 0.027164515 12168621
-0.084677607 0.044261679 0.026751868 13083812
-0.084553584 0.045836635 0.026287815 11906220
-0.08444646 0.04741722 0.025765434 10855588
-0.084343068 0.049000598 0.025229329 11643562
-0.08423958 0.050585903 0.024692481 12428195
-0.084135972 0.05217313 0.02415495 11249832
-0.084032267 0.053762291 0.023616673 13018790
-0.083928414 0.055353373 0.023077827 11708327
-0.083824463 0.056946397 0.022538237 12037035
-0.083726309 0.058542997 0.021977717 12820383
-0.084008388 0.060249373 0.020114698 12496301
-0.086668171 -0.095961682 0.092633829 5526098
-0.087248698 -0.094786666 0.090073586 5131597
-0.087912165 -0.093628295 0.087250017 5394512
-0.089465506 -0.092725284 0.081643835 5197390
-0.094897151 -0.092937358 0.063911401 5394769
-0.097396135 -0.092248581 0.055316456 5460305
-0.099539004 -0.091430865 0.047820255 5854806
-0.1022886 -0.090756156 0.038409535 6511965
-0.10159814 -0.056546662 0.021683645 6642523
-0.10112448 -0.054963522 0.022361223 9403773
-0.10068806 -0.053388033 0.022920642 6052699
-0.10025217 -0.051814515 0.023479432 5657941
-0.099816814 -0.050242979 0.024037534 8552062
-0.099381939 -0.048673403 0.024595177 8223611
-0.098947547 -0.047105785 0.025152307 9800587
-0.098513819 -0.045540154 0.025708348 7171437
-0.098081447 -0.043976568 0.026261071 8157561
-0.097665824 -0.042416628 0.026760807 9932430
-0.097280502 -0.040861432 0.027163556 9669001
-0.096916847 -0.039309647 0.027497014 9211020
-0.096590564 -0.03776231 0.027710138 10130580
-0.096257105 -0.036215119 0.027946893 8750469
-0.095963031 -0.034671776 0.028056394 8224125
-0.095690832 -0.033130389 0.028095055 8224125
-0.09543021 -0.031589899 0.028096182 8224125
-0.095169835 -0.030049426 0.028096506 8224125
-0.094909459 -0.028508954 0.028096832 8289918
-0.094649158 -0.026968483 0.028096929 8289918
-0.09438888 -0.025428014 0.028096911 8487297
-0.094128616 -0.023887545 0.028096894 9671057
-0.093868345 -0.022347076 0.028096875 10327702
-0.093608059 -0.020806603 0.028096914 8684676
-0.093347751 -0.019266129 0.028097011 10787225
-0.093087479 -0.017725652 0.028096993 12485507
-0.092827171 -0.016185177 0.028097089 10654868
-0.09256687 -0.0146447 0.028097186 8224125
-0.092306577 -0.013104224 0.028097225 8487297
-0.092046306 -0.011563743 0.028097207 9539471
-0.091786034 -0.010023264 0.028097188 9539471
-0.091623627 -0.0084809205 0.027774515 9013384
-0.091730997 -0.0069307606 0.026560942 8947848
-0.092170604 -0.0053661917 0.024247507 8947591
-0.091909163 -0.003818999 0.024247605 9013384
-0.091647744 -0.0022718073 0.024247646 9079177
-0.091386296 -0.00072461157 0.024247743 7237230
-0.091124855 0.00082258286 0.024247842 6776422
-0.090863429 0.0023697801 0.024247883 8289918
-0.090601988 0.003916976 0.02424798 10065044
-0.090340547 0.0054641739 0.024248078 11246234
-0.090079121 0.0070113731 0.024248119 11049626
-0.089159176 0.008503845 0.026442667 9539471
-0.088565536 0.010017597 0.027553035 9736593
-0.088160135 0.011545283 0.028037088 10851990
-0.087880529 0.013083938 0.028101612 11310999
-0.087620303 0.014624434 0.028101422 11835030
-0.087360069 0.016164929 0.028101292 12227475
-0.087099843 0.017705429 0.028101102 12226704
-0.086839616 0.01924593 0.02810091 12160397
-0.086579382 0.020786433 0.028100779 12355977
-0.086319156 0.022326937 0.028100589 12486535
-0.086058915 0.023867443 0.028100457 12813187
-0.085798688 0.025407951 0.028100267 12812930
-0.085538447 0.026948458 0.028100135 12551814
-0.085278228 0.028488971 0.028099945 12552071
-0.085018001 0.030029485 0.028099755 8553090
-0.084757738 0.031569995 0.02809968 11578283
-0.084497511 0.033110511 0.02809949 12887461
-0.084237285 0.03465103 0.0280993 12887461
-0.083985947 0.036193248 0.028068958 12821925
-0.083755754 0.037739746 0.027966749 12822182
-0.083545215 0.039290607 0.027797535 12102828
-0.083347239 0.040844712 0.027585238 10592673
-0.083180845 0.042406395 0.027264912 11315882
-0.083028585 0.043972366 0.02689578 11841198
-0.082899883 0.045545045 0.026445514 11972013
-0.082784846 0.047122553 0.025947642 12429480
-0.082680523 0.048704442 0.02541212 13082270
-0.082576089 0.050288249 0.024875911 12687255
-0.082471557 0.051873986 0.024338961 11446440
-0.082366891 0.053461637 0.023801381 13147292
-0.082262143 0.055051226 0.023263 11314854
-0.082157239 0.056642737 0.022724047 10987174
-0.082052216 0.058236185 0.022184407 11578540
-0.082074955 0.059867885 0.021203676 11250346
-0.085716218 -0.096309118 0.090919659 5789013
-0.08637026 -0.09515693 0.088113293 6315100
-0.087488368 -0.094137035 0.083846331 6643551
-0.093775392 -0.094652988 0.063345864 7168867
-0.096482418 -0.09404619 0.054055773 7693926
-0.098992109 -0.093351483 0.045369104 7037538
-0.101772 -0.09270478 0.03581576 6446172
-0.099970438 -0.056764878 0.02169387 8546922
-0.09950009 -0.055182837 0.022365285 7038052
-0.099064939 -0.05360819 0.022924419 8025204
-0.098630317 -0.052035511 0.023482926 5657941
-0.098196201 -0.050464809 0.024040859 7368559
-0.09776254 -0.048896063 0.024598392 7500145
-0.097329482 -0.047329288 0.025155006 7303023
-0.096897073 -0.045764495 0.02571059 7500402
-0.096465997 -0.044201739 0.026262911 6710886
-0.096052803 -0.042642787 0.026758203 8421504
-0.095668487 -0.041088443 0.02716063 8421504
-0.095305763 -0.039537534 0.02749355 8684419
-0.094977312 -0.037990853 0.02771551 8684676
-0.094644472 -0.03644456 0.027952181 8553090
-0.09435235 -0.034902286 0.02805648 8618883
-0.094080396 -0.033361845 0.028095109 8947848
-0.093819916 -0.031822309 0.028096292 9013384
-0.093559727 -0.03028279 0.028096562 9079177
-0.093299516 -0.028743271 0.028096886 9144970
-0.093039386 -0.027203757 0.028096925 9276556
-0.092779279 -0.025664242 0.028096907 9670800
-0.092519164 -0.024124727 0.028096888 11443099
-0.092259057 -0.022585208 0.02809687 11965845
-0.091998912 -0.021045692 0.028096966 8553090
-0.091738783 -0.019506171 0.028097006 9999251
-0.091478638 -0.017966652 0.028097102 11505551
-0.091218509 -0.01642713 0.02809714 11636109
-0.090958364 -0.014887607 0.028097237 8224125
-0.090698257 -0.013348086 0.02809722 8224125
-0.090438142 -0.011808562 0.028097199 8355711
-0.090222701 -0.010268483 0.027949179 8947591
-0.090154909 -0.0087251971 0.027311116 9013384
-0.090785131 -0.0071629155 0.024354428 9210763
-0.090556026 -0.0056159128 0.024247689 9933458
-0.090294749 -0.004069679 0.024247786 8814720
-0.090033486 -0.0025234427 0.024247827 7434095
-0.08977221 -0.00097720884 0.024247924 8289918
-0.08951094 0.00056902732 0.024247965 8421504
-0.089249678 0.0021152655 0.024248004 8158332
-0.088988401 0.0036615029 0.024248103 8158332
-0.088727124 0.0052077421 0.0242482 11179156
-0.088465855 0.006753982 0.024248239 12876667
-0.088204578 0.0083002234 0.024248337 10852504
-0.087252185 0.0097852545 0.026567856 11900566
-0.086683214 0.011298314 0.027603909 12876410
-0.08629109 0.012825469 0.028047325 12551557
-0.08601477 0.014363377 0.028101813 12225676
-0.085754804 0.015902931 0.028101277 12226190
-0.085494727 0.017442474 0.028101144 12030867
-0.085234664 0.018982021 0.028100954 11899538
-0.084974602 0.020521568 0.028100764 10982291
-0.084714524 0.022061119 0.028100632 10064787
-0.084454454 0.02360067 0.028100442 9868179
-0.08419437 0.02514022 0.028100308 9671057
-0.083934307 0.026679777 0.028100118 10065044
-0.083674245 0.028219335 0.028099928 12746880
-0.083414167 0.029758891 0.028099796 12288642
-0.083154082 0.031298451 0.028099664 11433333
-0.08289402 0.032838013 0.028099474 12365229
-0.08263395 0.034377575 0.028099284 12102057
-0.082379237 0.035918165 0.028080828 12102057
-0.082136005 0.037461087 0.0280231 12102057
-0.081924744 0.039010722 0.027855899 12169135
-0.081714585 0.040561195 0.027684577 10592673
-0.081546135 0.042121284 0.02737001 10526880
-0.081382848 0.043683659 0.027037062 10724259
-0.081248842 0.045253925 0.026602888 12037292
-0.081125952 0.046828367 0.026129611 12624546
-0.081020728 0.048408777 0.025594616 12167336
-0.080915369 0.049991094 0.025058992 11905963
-0.080809906 0.051575337 0.024522623 10921381
-0.080704331 0.053161498 0.023985568 11577512
-0.080598615 0.054749578 0.023447884 11184296
-0.080492787 0.056339588 0.022909511 10461087
-0.080386855 0.057931535 0.022370398 10658466
-0.080307648 0.059533056 0.021737559 10526623
-0.08483655 -0.096681446 0.088964 7037538
-0.085562371 -0.095551521 0.085913956 6577501
-0.087910309 -0.094910309 0.077741623 5263183
-0.098345757 -0.056982968 0.021700956 6250335
-0.097877689 -0.055401869 0.022369461 5789270
-0.097443812 -0.053828068 0.022928314 7697010
-0.097010456 -0.05225623 0.023486536 7039337
-0.096577533 -0.050686352 0.024044413 7959411
-0.096145168 -0.049118444 0.024601545 7303023
-0.095713452 -0.047552511 0.025157645 6842472
-0.095282331 -0.045988549 0.025712827 8421504
-0.094852567 -0.044426635 0.026264688 8289918
-0.094441801 -0.042868655 0.026755532 8224125
-0.094058439 -0.041315172 0.02715775 8816262
-0.093698412 -0.039765317 0.027484344 11965074
-0.093366042 -0.038219105 0.027720992 11571087
-0.093033858 -0.036673721 0.027957467 10196887
-0.092743672 -0.035132509 0.02805656 10589589
-0.092471957 -0.03359301 0.028095154 12223877
-0.092211649 -0.032054428 0.028096341 12289413
-0.091951594 -0.030515859 0.028096665 12354435
-0.091691554 -0.028977297 0.028096931 12419714
-0.091431588 -0.027438734 0.02809697 12485507
-0.091171645 -0.025900176 0.028096952 12616065
-0.090911709 -0.024361614 0.028096875 12746880
-0.090651743 -0.022823051 0.028096914 11704215
-0.090391763 -0.021284483 0.028097011 9408142
-0.090131782 -0.019745918 0.028097106 11243407
-0.089871809 -0.018207353 0.028097145 9342092
-0.089611828 -0.016668784 0.028097242 11572372
-0.089351863 -0.015130214 0.028097279 8355711
-0.089091927 -0.013591645 0.028097203 8355711
-0.088831991 -0.012053076 0.028097127 8947848
-0.088661894 -0.010513463 0.027797598 10458260
-0.088726766 -0.0089687193 0.026713366 10459031
-0.089204572 -0.0074105971 0.024247767 11048341
-0.088943474 -0.0058653234 0.024247807 11172988
-0.088682346 -0.0043200492 0.024247902 11505808
-0.088421233 -0.0027747704 0.024248 11637137
-0.088160127 -0.0012294929 0.024248039 11638165
-0.087899037 0.0003157875 0.024248082 9079177
-0.087637894 0.0018610647 0.024248235 8158332
-0.087376796 0.0034063458 0.024248274 8092539
-0.08711569 0.004951627 0.024248315 11506836
-0.086854562 0.0064969072 0.024248471 12810874
-0.086593457 0.0080421902 0.024248511 12419714
-0.086332351 0.0095874751 0.02424855 12680316
-0.085348085 0.011064716 0.026692908 12875639
-0.08480341 0.012577296 0.02765478 11442842
-0.084424399 0.014104041 0.028057566 10590360
-0.084151261 0.015641226 0.028102174 10590360
-0.083891548 0.017179839 0.028101355 10394009
-0.083631694 0.018718438 0.028100992 10393495
-0.083371796 0.020257033 0.0281008 9210763
-0.08311189 0.02179563 0.02810061 8355711
-0.082851991 0.023334229 0.02810042 8355711
-0.082592048 0.024872825 0.028100343 8355711
-0.082332149 0.026411427 0.028100153 9079177
-0.082072243 0.02795003 0.028099962 11114391
-0.081812337 0.029488636 0.028099772 12158341
-0.081552401 0.031027239 0.028099695 9538957
-0.081292495 0.032565847 0.028099505 8223868
-0.081032589 0.034104459 0.028099315 11184296
-0.080774963 0.035643507 0.028091274 11118503
-0.080525555 0.037184209 0.02805499 11315625
-0.080307037 0.038731333 0.027912322 11709869
-0.080096148 0.040280573 0.027743071 10921381
-0.079913564 0.041836541 0.027475856 10724259
-0.079739638 0.043395396 0.02717822 10724259
-0.079604864 0.04496428 0.026744695 12168364
-0.079473972 0.046535645 0.02629685 12102571
-0.079363666 0.048113596 0.025776818 11118760
-0.079257399 0.049694434 0.02524172 10855588
-0.079150997 0.051277179 0.024705991 10395294
-0.079044491 0.052861847 0.024169521 10921381
-0.078937858 0.054448433 0.02363242 11118760
-0.078831099 0.056036942 0.02309463 10724002
-0.078724258 0.057627391 0.022556039 10724002
-0.078620784 0.059220765 0.022004617 10526623
-0.078842588 0.060911018 0.020316469 10921381
-0.084020376 -0.097076431 0.086790606 4605510
-0.085656859 -0.096233189 0.080834903 3881787
-0.096723109 -0.057200789 0.021708045 5131854
-0.096257299 -0.055620633 0.022373699 3947580
-0.095824681 -0.054047666 0.022932265 7960439
