# .PCD v0.7 - Point Cloud Data file format
VERSION 0.7
FIELDS x y z rgb
SIZE 4 4 4 4
TYPE F F F U
COUNT 1 1 1 1
WIDTH 1041
HEIGHT 1
VIEWPOINT 0 0 0 1 0 0 0
POINTS 1041
DATA ascii
-0.10748746 0.019441551 0.028106632 9473935
-0.10594799 0.019878276 0.028106485 9736850
-0.10440724 0.020315224 0.028106386 9802900
-0.10286519 0.020752626 0.028106252 9539728
-0.10132185 0.021190364 0.028106125 10131351
-0.099777214 0.021628439 0.028106015 9801615
-0.098231293 0.022066912 0.028105894 8553090
-0.096684091 0.022505952 0.02810571 8882055
-0.095135599 0.022945443 0.028105499 8618883
-0.093585812 0.023385389 0.028105268 9539728
-0.092034712 0.023825558 0.028105073 8618883
-0.090482317 0.02426618 0.028104858 8553090
-0.088928632 0.024707254 0.028104618 8553090
-0.087373614 0.025148612 0.028104404 8553090
-0.0858173 0.025590306 0.028104205 8553090
-0.084259674 0.026032455 0.028103972 8553090
-0.082700737 0.026474942 0.028103756 8553090
-0.081140488 0.026917825 0.028103525 8487297
-0.079578921 0.027360989 0.028103327 8092025
-0.078016035 0.02780455 0.028103128 8618883
-0.076451838 0.028248621 0.028102878 11574171
-0.074886315 0.028692918 0.028102674 9999765
-0.073319331 0.029135657 0.028103054 8750469
-0.071751118 0.029579941 0.028103076 10262423
-0.070181638 0.030025598 0.028102802 10525081
-0.068610847 0.03047171 0.028102512 10394266
-0.067038715 0.030918162 0.028102223 11181469
-0.065465257 0.031364951 0.028101945 11770779
-0.063897811 0.031937808 0.028064147 12032666
-0.062342621 0.032758396 0.027952556 12294039
-0.060820155 0.034223028 0.027649064 12555412
-0.059382126 0.037367422 0.026845146 12817556
-0.051323082 -0.029972974 0.047295935 8882055
-0.049836032 -0.02987163 0.047389943 9736850
-0.048348825 -0.029770281 0.047483951 9605521
-0.04686147 -0.029668868 0.047577962 8750212
-0.045373954 -0.029567448 0.047671985 9013641
-0.043886285 -0.029466081 0.047766026 8618883
-0.042398468 -0.029364593 0.047860052 9079434
-0.04091049 -0.029263157 0.047954101 6842472
-0.039422359 -0.029161714 0.048048168 8355197
-0.037934072 -0.029060265 0.048142247 9469052
-0.036445636 -0.028958753 0.04823631 9928318
-0.03495704 -0.028857293 0.048330408 9411942
-0.033468291 -0.028755827 0.048424512 11920259
-0.031979386 -0.028654296 0.048518617 15778980
-0.030490329 -0.028552817 0.048612751 16763849
-0.029001117 -0.028451277 0.048706871 16767192
-0.027511749 -0.028349727 0.048801009 16772332
-0.026022227 -0.028248174 0.048895158 16710394
-0.024532549 -0.028146615 0.048989311 16644087
-0.02304272 -0.028044991 0.049083464 16772075
-0.021552732 -0.027943419 0.049177647 16769505
-0.02006259 -0.027841842 0.049271833 16634835
-0.018572295 -0.027740315 0.049366057 16643059
-0.017081844 -0.027638668 0.049460247 16775416
-0.015591238 -0.027537074 0.049554475 16777215
-0.014100477 -0.027435414 0.049648695 16777215
-0.012609562 -0.027333749 0.049742918 16776958
-0.10834358 0.013628751 0.028108131 9342349
-0.10681389 0.014060325 0.028108006 11247262
-0.10528291 0.014492236 0.028107887 12098459
-0.10375067 0.014924483 0.028107775 10394266
-0.10221715 0.015357069 0.028107667 9013641
-0.10068234 0.015790047 0.02810755 8618112
-0.099146262 0.016223421 0.028107421 9342349
-0.097608909 0.016657135 0.028107306 8553090
-0.096070275 0.017091239 0.028107172 8553090
-0.094530359 0.017525624 0.028107062 8684676
-0.092989169 0.017960636 0.028106879 8947848
-0.091446698 0.018396042 0.028106686 8553090
-0.08990296 0.018831901 0.028106464 8553090
-0.088357911 0.019268097 0.028106252 8553090
-0.08681158 0.019704688 0.028106026 8553090
-0.085263953 0.020141616 0.02810581 8553090
-0.083715029 0.020578884 0.028105602 8553090
-0.082164809 0.021016546 0.028105384 8553090
-0.080613263 0.021454202 0.028105285 8553090
-0.079060294 0.021890646 0.028105658 8224125
-0.077506028 0.022327369 0.028106056 10060932
-0.075950533 0.022765407 0.028106166 9868436
-0.074393831 0.023205161 0.028105874 8684676
-0.072835818 0.023645256 0.028105589 8684676
-0.071276501 0.024085745 0.028105294 9671314
-0.069715872 0.024526514 0.028105026 9934229
-0.068153925 0.024967737 0.028104734 11116190
-0.06660565 0.025651446 0.028031634 12685456
-0.065056868 0.026363108 0.027950317 12686484
-0.063505851 0.027075779 0.027868886 12946572
-0.061949443 0.027733592 0.027804118 12294810
-0.060389455 0.028364416 0.027747629 12033180
-0.058865 0.029702282 0.027479209 12685199
-0.057343569 0.031186562 0.027167259 11574428
-0.056064814 0.037667494 0.025358317 9408142
-0.051220205 -0.029961649 0.04574997 8750469
-0.0497327 -0.029860301 0.045843933 8947848
-0.048245039 -0.029758947 0.045937903 8684676
-0.046757232 -0.029657472 0.046031848 8618883
-0.045269262 -0.029556105 0.046125837 8553090
-0.043781143 -0.029454619 0.046219803 8553090
-0.042292867 -0.029353185 0.0463138 8553090
-0.040804438 -0.029251684 0.046407796 9473935
-0.039315857 -0.029150181 0.046501797 11246491
-0.037827119 -0.02904867 0.046595808 12027269
-0.036338221 -0.02894721 0.046689849 11499383
-0.034849174 -0.028845688 0.046783883 8357476
-0.033359975 -0.028744159 0.046877936 13615998
-0.031870615 -0.028642625 0.046971992 14671761
-0.030381104 -0.028541084 0.047066059 15267771
-0.028891439 -0.028439481 0.047160123 16710882
-0.027401617 -0.028337928 0.04725422 16776958
-0.02591164 -0.028236369 0.04734832 16777215
-0.024421509 -0.028134804 0.047442432 16777215
-0.022931224 -0.028033176 0.047536537 16776958
-0.021440784 -0.027931543 0.047630653 16772075
-0.019950187 -0.02782996 0.047724806 16762052
-0.018459437 -0.027728315 0.047818948 16765650
-0.016968532 -0.027626663 0.047913097 16775416
-0.015477471 -0.027525006 0.048007257 16777215
-0.013986255 -0.027423343 0.048101433 16777215
-0.012494885 -0.027321672 0.048195623 16776701
-0.10766929 0.0083134305 0.028109401 8882055
-0.10614853 0.0087455297 0.028107693 12099230
-0.10462616 0.009174698 0.028106993 12946572
-0.10310221 0.009601335 0.028107177 11116190
-0.101577 0.010028194 0.028107401 8487297
-0.10005054 0.010455502 0.028107587 8947591
-0.098522805 0.010883091 0.028107803 8684676
-0.096993826 0.011311132 0.02810799 8553090
-0.095463574 0.011739451 0.028108198 8684676
-0.093932055 0.012168107 0.028108412 8947848
-0.092399359 0.012598132 0.028108317 9210763
-0.090865403 0.013028552 0.028108211 9473935
-0.089330181 0.01345948 0.028108057 9671314
-0.0877937 0.013890918 0.028107857 9934229
-0.086255878 0.014322004 0.028107874 10196887
-0.084716685 0.01475228 0.028108247 9934229
-0.083181091 0.015242993 0.028090341 8618883
-0.081648715 0.015793353 0.028054437 8553090
-0.080119982 0.016412959 0.02799763 8553090
-0.078596719 0.017130591 0.027911223 8882055
-0.077071212 0.017849172 0.027824722 9999251
-0.075543471 0.018568933 0.027738048 7105387
-0.074017413 0.019345462 0.027634356 9736850
-0.072489329 0.020129154 0.027528701 9473935
-0.070958786 0.020914031 0.027422899 10590874
-0.069425076 0.021689532 0.027320154 11704986
-0.067893595 0.022539631 0.027195038 12293268
-0.066359416 0.023391157 0.027069721 12162453
-0.064822555 0.024244227 0.02694417 12230302
-0.063282996 0.025098782 0.0268184 12815500
-0.061748222 0.026087435 0.026652358 10919839
-0.060204558 0.026973357 0.026517602 10854046
-0.058661256 0.027920764 0.026364535 12812416
-0.05712552 0.029076844 0.026148777 12752791
-0.055588812 0.030291064 0.025915811 8882055
-0.05111726 -0.029950412 0.044203103 8487297
-0.049629305 -0.029849002 0.044297002 9013641
-0.048141196 -0.029747531 0.044390887 9539728
-0.046652928 -0.029646108 0.044484809 9802643
-0.045164511 -0.029544622 0.044578724 10393752
-0.043675933 -0.029443188 0.044672668 10722203
-0.042187206 -0.02934169 0.044766597 10984604
-0.040698327 -0.02924013 0.044860531 11312798
-0.039209288 -0.029138679 0.044954505 11771036
-0.037720095 -0.029037105 0.04504846 11765639
-0.03623075 -0.028935583 0.045142442 11043201
-0.034741245 -0.028834058 0.045236427 12100729
-0.033251591 -0.028732523 0.045330431 12164731
-0.03176178 -0.028630927 0.045424432 8421218
-0.030271813 -0.028529381 0.045518458 7437896
-0.028781693 -0.028427774 0.045612469 12707959
-0.027291417 -0.028326159 0.045706499 14876575
-0.025800988 -0.028224539 0.045800544 16646097
-0.024310403 -0.028122911 0.045894597 16777215
-0.022819662 -0.02802128 0.04598866 16777215
-0.021328766 -0.027919641 0.046082731 16775416
-0.019837717 -0.027817996 0.046176817 16775159
-0.018346511 -0.027716288 0.046270899 16775930
-0.01685515 -0.02761469 0.046365026 16777215
-0.015363635 -0.027512971 0.046459123 16777215
-0.013871964 -0.027411245 0.046553236 16774902
-0.012380139 -0.02730957 0.046647381 16769248
-0.10875493 0.0048036678 0.027442126 8947848
-0.10710834 0.0040262733 0.027812118 9210763
-0.10553463 0.0038997298 0.027981296 10985118
-0.10400666 0.0041997125 0.028019039 12946315
-0.10247786 0.0044997856 0.028056826 10126982
-0.10094822 0.0048000054 0.028094638 9144713
-0.099427342 0.0051959073 0.028103089 10262423
-0.097919583 0.0057368865 0.028067034 10590874
-0.096410163 0.006278161 0.028031036 10853275
-0.094910309 0.0069379392 0.027958779 11115676
-0.093416125 0.0076811421 0.02786109 11312284
-0.091919251 0.0084212814 0.027764536 11574428
-0.0904186 0.0091460822 0.027672896 11836315
-0.088915698 0.0098719476 0.027581118 12097945
-0.087410547 0.010598879 0.027489219 12359318
-0.08591041 0.011413001 0.027370805 12621462
-0.084408797 0.012241399 0.027248243 10656410
-0.082904592 0.01307122 0.027125472 8750469
-0.081397615 0.013900284 0.027003158 9013641
-0.079887941 0.014729453 0.026881047 8947848
-0.078375667 0.015560044 0.026758712 8882055
-0.076860785 0.016392061 0.02663618 9408142
-0.075344592 0.017243585 0.026507916 9276556
-0.073828675 0.018138504 0.026366651 7631731
-0.072310157 0.019038472 0.026224084 10131094
-0.070788808 0.01994016 0.02608124 11640221
-0.069264606 0.020843571 0.025938122 12490390
-0.067737527 0.021748245 0.025794867 11901080
-0.066208579 0.022670951 0.025646372 11050140
-0.064678684 0.023628403 0.025487555 11247262
-0.06314458 0.024567656 0.025334539 11312798
-0.061607487 0.025508748 0.025181215 9736850
-0.060069326 0.026487013 0.02501687 10131351
-0.058529157 0.027488209 0.024845827 11639964
-0.056985784 0.028491486 0.024674423 10919582
-0.055444691 0.029608076 0.024468927 8553090
-0.051014256 -0.029939095 0.042655278 8750469
-0.04952585 -0.029837623 0.042749118 10393752
-0.048037283 -0.029736202 0.04284298 11443099
-0.046548564 -0.029634718 0.042936843 11639193
-0.045059692 -0.029533228 0.043030709 12883092
-0.043570664 -0.029431732 0.043124586 12817813
-0.042081483 -0.029330229 0.043218482 12686998
-0.040592145 -0.029228665 0.043312367 11640735
-0.039102655 -0.029127093 0.043406259 11312798
-0.037613012 -0.029025516 0.04350017 10455433
-0.036123209 -0.02892399 0.043594107 10263661
-0.034633253 -0.028822402 0.043688033 11579474
-0.033143144 -0.028720805 0.043781977 11249750
-0.031652879 -0.028619204 0.043875929 13751173
-0.030162456 -0.028517654 0.043969907 14473379
-0.028671883 -0.028415984 0.04406387 13873550
-0.027181154 -0.028314307 0.044157833 7829336
-0.025690267 -0.028212741 0.044251848 6911809
-0.024199229 -0.02811105 0.044345841 12248690
-0.022708032 -0.028009357 0.044439841 15531949
-0.021216681 -0.027907714 0.044533867 16777192
-0.019725177 -0.027806006 0.044627897 16777215
-0.018233517 -0.027704353 0.04472195 16777215
-0.0167417 -0.027602633 0.044815991 16776958
-0.015249731 -0.027500967 0.044910073 16776701
-0.013757604 -0.027399179 0.045004122 16771304
-0.012265323 -0.027297501 0.045098215 16772589
-0.1084813 0.0031649973 0.026336828 9276813
-0.10684107 0.0024227656 0.026697237 10460059
-0.10524005 0.0020194829 0.026952345 11967387
-0.1036733 0.0019251266 0.027111595 11632511
-0.10212589 0.0020118786 0.027214708 9999508
-0.10060789 0.0023877742 0.027228324 11574942
-0.099111415 0.0029894102 0.027172187 12750992
-0.097626358 0.0037263071 0.027074385 12946572
-0.096142471 0.00449999 0.02696541 12816528
-0.094662718 0.0053438372 0.026834963 12685970
-0.093180351 0.0061892816 0.026704257 12555669
-0.091695353 0.0070361509 0.026573341 12425111
-0.090206884 0.0078753848 0.026445016 12294553
-0.088716783 0.0087272273 0.026313029 12229531
-0.087226674 0.009611412 0.026171306 12098459
-0.085733794 0.010497258 0.026029319 12685199
-0.084238209 0.011385567 0.025886817 11311770
-0.082739979 0.0122772 0.025743531 10984347
-0.081241205 0.013199067 0.025591189 11180955
-0.07974115 0.014143657 0.025432112 9736850
-0.078238122 0.015090032 0.025272751 8684676
-0.076732107 0.016038304 0.025113067 10131351
-0.075223111 0.016988534 0.024953041 10262423
-0.073711105 0.017940605 0.02479271 9999508
-0.072196089 0.01889452 0.024632081 10193546
-0.070678055 0.019850446 0.024471089 11050911
-0.069156997 0.020808162 0.024309825 11313055
-0.067610525 0.021414254 0.024256524 10459802
-0.066051424 0.021846285 0.024256671 9408142
-0.0645198 0.022759978 0.024109533 10131351
-0.063038126 0.024586542 0.023683429 9605521
-0.06150192 0.025553988 0.023520492 8684676
-0.059962634 0.026523512 0.023357186 9671314
-0.058420263 0.027495051 0.023193538 10459802
-0.056874789 0.028468493 0.023029566 9737107
-0.055326205 0.029443957 0.022865253 9145227
-0.050911188 -0.029927809 0.041106533 9933972
-0.049422327 -0.029826274 0.04120031 11574428
-0.047933307 -0.029724849 0.041294131 12227989
-0.046444137 -0.029623304 0.041387927 11836315
-0.04495481 -0.029521808 0.041481752 11771293
-0.043465327 -0.029420307 0.041575588 11640221
-0.041975696 -0.029318744 0.041669421 11378077
-0.040485904 -0.029217174 0.041763261 10262680
-0.038995959 -0.029115597 0.041857116 9605007
-0.037505858 -0.029014016 0.041950978 8683905
-0.036015604 -0.028912371 0.04204483 8555611
-0.034525193 -0.028810777 0.042138718 12566861
-0.03303463 -0.028709177 0.042232614 11316035
-0.031543911 -0.028607514 0.042326506 10855748
-0.030053036 -0.028505845 0.04242041 13422704
-0.028562006 -0.028404227 0.042514339 14738581
-0.027070822 -0.028302545 0.042608265 15394982
-0.025579482 -0.028200857 0.042702202 14408850
-0.024087986 -0.028099222 0.042796165 11580267
-0.022596337 -0.027997524 0.042890124 7237954
-0.02110453 -0.027895819 0.042984087 6911555
-0.019612571 -0.02779405 0.04307805 13036172
-0.018120455 -0.027692391 0.043172058 15855032
-0.016628183 -0.02759061 0.043266047 16312775
-0.015135757 -0.027488882 0.043360058 16772581
-0.013643176 -0.027387088 0.04345407 16776444
-0.012150439 -0.027285347 0.043548103 16777215
-0.1086847 -0.0080717402 0.028103553 8684676
-0.10719033 -0.0076596225 0.028103651 11247776
-0.10569473 -0.0072472282 0.028103761 12556697
-0.10419792 -0.0068343845 0.028103838 11237496
-0.10269975 -0.0064226403 0.028104356 12029839
-0.1012003 -0.0060112486 0.028105093 10854303
-0.09969987 -0.0055972878 0.028105132 11247262
-0.098938085 0.0022020815 0.025806732 11902622
-0.097459227 0.0029931383 0.025690764 11771550
-0.095990241 0.0039130887 0.025534932 11640735
-0.094518825 0.0048394618 0.025377365 11509663
-0.093044527 0.0057676709 0.025219476 11378848
-0.09156733 0.0066977181 0.025061274 11247776
-0.090087228 0.0076296031 0.024902761 11116704
-0.088604204 0.0085632689 0.024743952 10985375
-0.087118261 0.0094988877 0.024584798 10853789
-0.085629389 0.010436287 0.024425343 12877952
-0.084137566 0.011375469 0.024265595 12751763
-0.082603894 0.011834951 0.024254631 12621719
-0.081066005 0.012258869 0.02425479 12490904
-0.079526864 0.012683178 0.024254929 9145227
-0.077986464 0.013107766 0.024255091 8553090
-0.076444812 0.013532806 0.024255224 10525595
-0.074901894 0.013958068 0.024255395 9933972
-0.073357716 0.014383836 0.024255512 10065558
-0.071812272 0.014809827 0.024255676 11247262
-0.070265569 0.015236154 0.024255838 10588818
-0.068717599 0.015662933 0.024255972 10065815
-0.067168355 0.016089989 0.024256121 9342349
-0.06561818 0.016522836 0.0242546 9079177
-0.06406682 0.016957743 0.024252558 10459802
-0.062581792 0.018561615 0.023890937 9933972
-0.061397403 0.025619319 0.021852477 9868179
-0.059857462 0.026589291 0.021687428 9539728
-0.058314428 0.027561221 0.02152204 9211020
-0.056768291 0.028535057 0.021356342 9868179
-0.055219032 0.029510794 0.02119033 10327959
-0.050808061 -0.029916439 0.039556835 11247262
-0.049318746 -0.029814959 0.039650589 12425111
-0.04782927 -0.02971347 0.039744344 12424597
-0.046339646 -0.029611919 0.039838098 11247262
-0.044849865 -0.029510364 0.03993186 10590874
-0.043359932 -0.029408801 0.040025637 10656410
-0.041869845 -0.029307175 0.040119402 10393752
-0.040379599 -0.0292056 0.040213205 9605264
-0.038889199 -0.029103963 0.040306993 7434352
-0.037398644 -0.029002376 0.040400814 7500402
-0.035907935 -0.028900784 0.040494643 5734466
-0.03441707 -0.028799128 0.040588461 7051835
-0.032926053 -0.028697465 0.040682301 8955713
-0.031434879 -0.02859574 0.040776126 8030510
-0.029943548 -0.028494123 0.040870007 6587184
-0.028452063 -0.028392445 0.040963873 9548378
-0.026960423 -0.0282907 0.041057739 12505465
-0.025468629 -0.028189009 0.041151628 14342537
-0.023976678 -0.028087312 0.041245528 14736784
-0.022484573 -0.027985608 0.041339442 14869395
-0.020992311 -0.027883841 0.041433349 13883004
-0.019499896 -0.027782068 0.041527271 11974518
-0.018007325 -0.027680347 0.041621216 10653810
-0.016514597 -0.027578618 0.041715171 10457460
-0.015021715 -0.027476827 0.041809127 12509074
-0.013528679 -0.027375031 0.041903086 14286762
-0.012035485 -0.027273227 0.041997064 15925197
-0.10802402 -0.013144747 0.028104687 9737107
-0.10653765 -0.012736781 0.028104726 12817299
-0.10505011 -0.012328424 0.028104741 12164509
-0.10356136 -0.01191979 0.02810478 10251629
-0.1020714 -0.011510822 0.028104814 11703958
-0.10058025 -0.011101464 0.028104829 10394266
-0.099087887 -0.010691828 0.028104864 10262937
-0.097594313 -0.010281801 0.028104875 10722717
-0.096099541 -0.0098715564 0.028104922 10722717
-0.094603516 -0.0094613191 0.028105082 10722717
-0.093128212 -0.008819405 0.028032916 10722717
-0.09275455 0.0036884125 0.024253255 10394266
-0.091233663 0.0041055293 0.024253394 10131608
-0.089711547 0.0045229238 0.024253555 10591388
-0.088188216 0.0049407673 0.024253674 10854046
-0.086663634 0.0053588315 0.024253832 10196887
-0.085137822 0.0057772882 0.024253976 11705500
-0.083610766 0.0061960802 0.024254123 11575456
-0.08208248 0.0066152071 0.024254266 11444384
-0.080552951 0.0070346692 0.024254413 10985118
-0.079022177 0.0074544675 0.024254562 8553090
-0.077490158 0.0078746006 0.024254717 8684676
-0.075956911 0.0082951263 0.024254849 9868436
-0.074422397 0.0087159304 0.024255006 9671314
-0.072886646 0.0091370707 0.024255164 9671314
-0.071349643 0.0095586041 0.024255309 10525595
-0.069811456 0.0099814469 0.024255147 10196887
-0.068272419 0.010410765 0.024253083 8289661
-0.066732086 0.010840306 0.024251068 8816262
-0.065190479 0.011270241 0.024249036 9737107
-0.063647583 0.011700455 0.024247026 10721689
-0.062149424 0.012927715 0.023998428 10853018
-0.060772248 0.016388742 0.023059117 11049883
-0.059747592 0.026569821 0.020042837 9079434
-0.0582009 0.027482271 0.019894212 9144970
-0.05665103 0.028391104 0.019746955 10590617
-0.055093881 0.029212164 0.019627051 10721946
-0.05070487 -0.029905161 0.038006235 10525595
-0.049215097 -0.029803617 0.038099922 11574428
-0.047725178 -0.029702011 0.038193598 10984861
-0.046235096 -0.029600454 0.038287308 9802643
-0.044744857 -0.029498952 0.038381044 9802643
-0.043254472 -0.029397327 0.038474757 10459288
-0.041763928 -0.029295696 0.038568482 10590617
-0.040273231 -0.029194061 0.038662218 9144456
-0.038782373 -0.029092418 0.038755964 6776422
-0.037291367 -0.028990768 0.038849723 7566195
-0.0358002 -0.028889114 0.038943488 4950327
-0.034308881 -0.028787455 0.039037269 5279289
-0.032817408 -0.02868573 0.039131045 5738810
-0.03132578 -0.028584057 0.039224844 5737269
-0.029833993 -0.028482379 0.039318658 3957799
-0.028342053 -0.028380694 0.039412484 4618545
-0.026849959 -0.028278889 0.039506286 5673280
-0.025357708 -0.028177192 0.039600134 7512663
-0.023865303 -0.028075432 0.039693974 11974010
-0.022372741 -0.027973667 0.039787825 13027710
-0.020880025 -0.027871953 0.039881706 13488991
-0.019387152 -0.027770175 0.03997558 13686375
-0.017894125 -0.02766839 0.040069465 13883245
-0.016400944 -0.027566545 0.040163346 14343572
-0.014907604 -0.027464749 0.040257245 11843449
-0.013414112 -0.027362891 0.040351149 7501131
-0.011920462 -0.027261082 0.040445078 6583108
-0.10884834 -0.018560981 0.0281044 11770779
-0.10737108 -0.018157607 0.028104443 11901594
-0.10589264 -0.017753843 0.028104469 12684685
-0.10441301 -0.017349802 0.028104503 9471879
-0.10293221 -0.016945371 0.028104521 11112592
-0.1014502 -0.016540665 0.028104555 10854046
-0.099967018 -0.016135626 0.028104581 9539728
-0.098482631 -0.015730252 0.028104609 9408399
-0.09699706 -0.015324548 0.028104628 9934229
-0.095510289 -0.014918507 0.028104655 10131094
-0.094022326 -0.014512192 0.028104693 10525595
-0.092533164 -0.014105486 0.028104706 10328473
-0.091042794 -0.013698559 0.028104762 9408142
-0.089551136 -0.013292274 0.028105116 9408142
-0.088058278 -0.012885655 0.028105471 10854046
-0.087639637 -0.00020364518 0.024253339 10328473
-0.08612328 0.00021014556 0.024253463 9605521
-0.084605694 0.00062421249 0.024253601 10525595
-0.083086878 0.0010385583 0.024253767 10394266
-0.08156684 0.0014532952 0.024253909 10459802
-0.080045581 0.001868366 0.024254046 10197144
-0.078523085 0.002283772 0.024254188 9342349
-0.076999366 0.0026994557 0.024254348 9671057
-0.075474411 0.0031155322 0.024254493 10196887
-0.073948234 0.0035319426 0.024254635 10131351
-0.072421066 0.0039523016 0.024253653 9605521
-0.070892878 0.0043762634 0.024251644 9342606
-0.069363438 0.0048006773 0.024249613 9211020
-0.067832723 0.0052253697 0.024247596 8553090
-0.066300742 0.0056502246 0.024245631 8092025
-0.064767472 0.0060751881 0.024243748 10787996
-0.063232943 0.0065004304 0.024241887 10918811
-0.061755456 0.0079377433 0.023925032 11639707
-0.06035801 0.010894238 0.023135835 11704215
-0.05940105 0.022178367 0.019757235 10196887
-0.057844363 0.022762924 0.019708395 10393752
-0.056353536 0.024685632 0.019243877 10722203
-0.054783307 0.025116675 0.019243227 10590874
-0.05060162 -0.029893799 0.036454678 8816262
-0.049111392 -0.029792251 0.03654832 10656924
-0.047621012 -0.029690698 0.03664197 9605521
-0.046130478 -0.029589079 0.03673562 8618883
-0.044639789 -0.029487457 0.036829274 9539471
-0.043148946 -0.029385827 0.036922947 10852761
-0.041657947 -0.029284192 0.037016623 11178899
-0.040166795 -0.029182494 0.037110299 9404287
-0.038675487 -0.029080847 0.037203997 8814977
-0.037184022 -0.028979136 0.037297696 8554863
-0.035692401 -0.028877478 0.037391417 8954472
-0.034200627 -0.028775753 0.037485138 8758117
-0.032708697 -0.028674083 0.037578881 8430180
-0.031216614 -0.028572349 0.037672624 8036450
-0.029724373 -0.028470609 0.037766375 7312988
-0.028231978 -0.028368862 0.03786014 6061645
-0.026739426 -0.02826711 0.037953909 6524498
-0.025246723 -0.028165294 0.038047682 6264654
-0.023753859 -0.02806353 0.038141474 8169061
-0.022260843 -0.027961817 0.038235303 7052368
-0.02076767 -0.027859926 0.038329083 6855240
-0.019274343 -0.027758144 0.038422909 9088846
-0.017780859 -0.027656354 0.038516756 11650904
-0.016287221 -0.027554503 0.038610585 13950836
-0.014793426 -0.027452646 0.038704436 13950335
-0.013299475 -0.027350839 0.038798306 14476170
-0.01180537 -0.027248969 0.038892172 15131041
-0.10819472 -0.023514869 0.028104175 11312541
-0.10672529 -0.023115577 0.028104186 11378077
-0.10525468 -0.022716008 0.028104212 11181469
-0.1037829 -0.022316165 0.028104253 8025718
-0.10230995 -0.021915933 0.02810427 10525852
-0.10083582 -0.021515425 0.028104294 10065815
-0.099360511 -0.021114584 0.028104326 9408142
-0.097884014 -0.020713469 0.028104365 9013641
-0.096406348 -0.020311963 0.02810438 9802643
-0.094927505 -0.019910123 0.028104395 9999765
-0.093447477 -0.01950801 0.028104424 10394266
-0.091966256 -0.019105619 0.028104471 9868179
-0.090483852 -0.018702781 0.028104477 8882055
-0.089000262 -0.018299723 0.028104516 9473935
-0.087515488 -0.017896278 0.028104531 10919582
-0.086029448 -0.017493298 0.028104797 9408142
-0.084542207 -0.017090274 0.028105151 9211020
-0.08305376 -0.016686918 0.028105497 9342606
-0.081584819 -0.016031679 0.028026551 9211020
-0.081056878 -0.0036517512 0.024253545 10131351
-0.079543799 -0.0032410072 0.024253687 10590874
-0.078029498 -0.0028299871 0.024253838 10590617
-0.076513976 -0.0024186324 0.024253992 10721946
-0.074997693 -0.0020007531 0.024252197 10787482
-0.073480226 -0.0015818502 0.024250191 10393752
-0.071961515 -0.0011625554 0.02424816 9473935
-0.070441537 -0.00074315449 0.024246207 9013641
-0.068920292 -0.00032376233 0.024244359 9079434
-0.067397803 9.6023206e-05 0.0242425 9539728
-0.065874077 0.00051620201 0.024240626 10525338
-0.064349085 0.00093665812 0.024238767 9537158
-0.062822856 0.0013575066 0.024236888 11050397
-0.061380617 0.003260785 0.023770884 11966616
-0.060002975 0.0064390409 0.022906333 11638679
-0.058811549 0.013269099 0.020900168 10787482
-0.057457462 0.017441794 0.01972702 10459545
-0.055909541 0.018061386 0.019665679 9868436
-0.054646011 0.024558874 0.017768111 9342349
-0.050498303 -0.02988247 0.034902196 8882055
-0.049007624 -0.029780859 0.034995776 9342606
-0.047516789 -0.029679244 0.035089366 8882055
-0.046025798 -0.02957768 0.035182986 8684676
-0.044534657 -0.029475994 0.035276581 9933715
-0.043043356 -0.029374361 0.035370205 11703187
-0.041551903 -0.029272664 0.035463821 12021872
-0.040060293 -0.029171018 0.035557467 10846079
-0.03856853 -0.029069308 0.03565111 9666945
-0.037076615 -0.028967537 0.035744742 8619114
-0.035584539 -0.028865814 0.035838407 9741421
-0.034092307 -0.028764145 0.035932098 9938030
-0.032599922 -0.028662356 0.036025763 10068847
-0.031107383 -0.028560616 0.036119457 10133871
-0.029614687 -0.028458871 0.036213167 10199152
-0.028121836 -0.028357062 0.036306866 9998185
-0.02662883 -0.028255248 0.036400579 9798754
-0.025135666 -0.028153485 0.036494322 8493924
-0.02364235 -0.028051658 0.036588054 8102243
-0.022148876 -0.027949883 0.03668182 10655851
-0.020655248 -0.027847987 0.036775559 10983019
-0.019161463 -0.027746201 0.036869343 10787949
-0.017667525 -0.027644293 0.036963098 11052661
-0.016173428 -0.027542494 0.037056904 9942391
-0.014679178 -0.027440576 0.037150692 8827474
-0.013184771 -0.027338706 0.037244502 11126116
-0.011690209 -0.027236775 0.037338309 13687426
-0.10900866 -0.028810406 0.028104147 10262423
-0.10754814 -0.028415462 0.028104138 10328473
-0.10608646 -0.028020188 0.028104117 10328473
-0.10462362 -0.027624585 0.028104085 7039594
-0.10315961 -0.02722876 0.028104097 8224125
-0.10169445 -0.026832549 0.028104072 9276556
-0.10022812 -0.026436061 0.028104071 10525595
-0.098760612 -0.026039299 0.028104076 11181726
-0.097291939 -0.025642261 0.028104099 9539985
-0.095822096 -0.025244894 0.028104113 10656153
-0.094351083 -0.024847306 0.028104158 10656667
-0.092878893 -0.02444933 0.028104179 9868436
-0.091405541 -0.024051022 0.028104197 9737107
-0.089931019 -0.023652438 0.028104225 8618883
-0.088455312 -0.023253521 0.028104257 9671314
-0.086978436 -0.022854272 0.028104275 10656924
-0.085500374 -0.022454748 0.028104309 8750469
-0.084021144 -0.022054892 0.028104341 8618883
-0.082540691 -0.021655045 0.028104478 8618883
-0.081059009 -0.021255611 0.028104849 8618883
-0.07957615 -0.020855788 0.028105194 10459545
-0.078092113 -0.02045569 0.028105548 10787739
-0.076607168 -0.020051589 0.028104747 10787739
-0.076035067 -0.0074651581 0.024248755 10787739
-0.074526928 -0.0070510292 0.024246786 11246234
-0.07301753 -0.0066369674 0.024244944 11180955
-0.071506903 -0.0062225712 0.024243096 10459545
-0.069995046 -0.0058078403 0.02424125 10196887
-0.068481959 -0.0053927177 0.024239382 10328216
-0.066967644 -0.0049773175 0.024237536 11050654
-0.065452091 -0.0045615253 0.024235668 11115933
-0.063935295 -0.0041454551 0.02423382 11180955
-0.062432241 -0.0034759212 0.024152201 10848135
-0.061013896 -0.0012930448 0.023594083 10852761
-0.059676226 0.0024740673 0.022537811 10918297
-0.058528185 0.010003262 0.020298738 10787225
-0.057074115 0.012165332 0.019750072 9539471
-0.055533454 0.012754944 0.019696401 8684676
-0.054789629 0.029780157 0.014478031 8618883
-0.050394926 -0.029871115 0.033348773 8684676
-0.048903793 -0.029769503 0.033442304 8618883
-0.047412504 -0.029667882 0.033535853 8487297
-0.045921061 -0.029566141 0.033629373 8882055
-0.044429462 -0.029464507 0.033722945 9999508
-0.042937707 -0.029362869 0.033816524 10981263
-0.041445795 -0.029261168 0.033910096 10320249
-0.039953735 -0.029159402 0.034003668 10060675
-0.038461514 -0.029057689 0.034097258 7760747
-0.036969136 -0.028955968 0.034190867 6654807
-0.03547661 -0.028854186 0.034284465 7118420
-0.033983923 -0.028752396 0.034378082 7446615
-0.032491084 -0.028650602 0.034471698 7512153
-0.030998087 -0.028548857 0.034565356 7709019
-0.029504934 -0.028447108 0.034659013 7905886
-0.028011627 -0.028345238 0.034752648 8232544
-0.026518164 -0.028243419 0.034846321 8490077
-0.025024546 -0.028141595 0.034939997 6850385
-0.023530772 -0.028039763 0.035033688 7905373
-0.022036843 -0.027937926 0.035127386 10657132
-0.020542758 -0.027836027 0.035221085 9152878
-0.019048516 -0.027734177 0.035314806 8956526
-0.017554119 -0.027632322 0.035408538 9613688
-0.016059568 -0.027530404 0.03550227 9089138
-0.01456486 -0.02742848 0.035596006 6199875
-0.013069996 -0.027326606 0.035689779 6265927
-0.011574977 -0.027224671 0.035783537 7711072
-0.10838301 -0.033467285 0.028044058 8816262
-0.10692353 -0.03313154 0.028061809 8947848
-0.10546412 -0.032786261 0.028076572 9013641
-0.10400397 -0.032438539 0.028090635 7105644
-0.10254304 -0.032088488 0.028104046 8092539
-0.10108556 -0.031696405 0.028104046 8882055
-0.099626936 -0.031303935 0.028104024 10853532
-0.098167159 -0.030911189 0.028104009 11247262
-0.096706226 -0.030518111 0.028103992 9868693
-0.095244132 -0.030124759 0.028103983 10393752
-0.09378089 -0.029731018 0.028103953 10131351
-0.092316486 -0.02933706 0.028103955 9276556
-0.090850919 -0.028942769 0.028103948 9144970
-0.089384183 -0.028548263 0.028103966 8750469
-0.087916285 -0.028153481 0.028104 9211020
-0.086447224 -0.027758365 0.028104031 9276813
-0.084976994 -0.027362978 0.028104071 8618883
-0.083505601 -0.0269672 0.028104091 8618883
-0.082033046 -0.026571089 0.028104102 8618883
-0.080559306 -0.026174763 0.028104138 8816262
-0.079084404 -0.025778102 0.02810418 10787996
-0.077608258 -0.025382085 0.028104519 10787739
-0.076130934 -0.02498579 0.028104873 10787739
-0.07465256 -0.02458756 0.028104713 10656667
-0.073173247 -0.024185847 0.028103543 11572886
-0.071692735 -0.023783803 0.028102364 11704472
-0.070221335 -0.023233548 0.028054187 10918811
-0.069553427 -0.010817325 0.024236333 10787482
-0.06804841 -0.010406524 0.024234483 10787482
-0.066542163 -0.0099953888 0.024232628 10919068
-0.065034702 -0.0095839174 0.024230784 9999765
-0.063526019 -0.0091721127 0.024228934 9999765
-0.062059041 -0.0080327885 0.023996584 10983062
-0.06065074 -0.0058026658 0.023418983 9931659
-0.059359353 -0.001329003 0.022131566 9999765
-0.058260117 0.0070084324 0.019622514 10656410
-0.05675995 0.0081961416 0.019377863 9736850
-0.055271178 0.00968978 0.019036802 9736850
-0.054210585 0.020120727 0.015871318 9802900
-0.050291486 -0.029859794 0.031794425 9408142
-0.048799898 -0.029758118 0.031887896 8684676
-0.047308154 -0.029656436 0.031981383 8487297
-0.045816254 -0.029554749 0.032074876 8618883
-0.044324201 -0.029453054 0.032168385 9210763
-0.042831991 -0.029351354 0.032261901 8880513
-0.041339625 -0.029249648 0.032355428 8419705
-0.039847106 -0.029147821 0.032448933 6710372
-0.03835443 -0.029046101 0.032542486 4736582
-0.036861602 -0.028944321 0.032636032 3964990
-0.035368614 -0.028842533 0.032729585 4491070
-0.033875473 -0.028740739 0.032823153 4950846
-0.032382175 -0.028638938 0.032916732 5213500
-0.030888723 -0.028537134 0.033010323 5476154
-0.029395116 -0.028435264 0.033103906 5673273
-0.027901351 -0.028333448 0.033197511 5541687
-0.026407432 -0.028231625 0.033291131 6197314
-0.024913358 -0.028129738 0.033384752 4880179
-0.023419127 -0.028027844 0.033478379 5078579
-0.021924742 -0.027926002 0.033572037 7643736
-0.0204302 -0.027824096 0.033665687 7316821
-0.018935502 -0.027722185 0.033759348 7120213
-0.017440649 -0.027620269 0.033853021 7843425
-0.015945639 -0.027518289 0.033946682 9612658
-0.014450474 -0.027416417 0.034040395 8628584
-0.012955152 -0.027314482 0.034134101 7381592
-0.011459676 -0.027212484 0.034227803 7316055
-0.10936731 -0.037109498 0.027546525 9011842
-0.10789471 -0.036942575 0.027617846 8618369
-0.10642172 -0.036775582 0.027689178 9539728
-0.10494862 -0.036606174 0.027759753 9605521
-0.10348316 -0.036363833 0.027806805 5658198
-0.10201705 -0.036121413 0.027853888 8618883
-0.10055029 -0.035878904 0.027900999 9145227
-0.099077925 -0.035683569 0.027963376 10722460
-0.097606726 -0.035472248 0.028020652 10525338
-0.096144855 -0.035163425 0.028046537 9868436
-0.09468475 -0.034828026 0.028063931 9868436
-0.093224689 -0.034481943 0.028077971 9539728
-0.091763645 -0.034135595 0.028092006 8750469
-0.090302229 -0.033782337 0.028103914 8684676
-0.088843219 -0.033391729 0.028103892 8684676
-0.087383047 -0.033000849 0.028103877 8684676
-0.085921735 -0.032609634 0.028103858 8684676
-0.084459268 -0.032218091 0.02810383 8684676
-0.082995646 -0.031826328 0.028103832 8618883
-0.081530854 -0.03143429 0.028103851 8618883
-0.080064908 -0.031041982 0.028103877 9079177
-0.078597799 -0.030649398 0.02810391 9802900
-0.077129543 -0.030256424 0.028103923 9736850
-0.075660117 -0.029863231 0.02810397 9605521
-0.074189477 -0.029470339 0.028104207 9671314
-0.072717659 -0.029077515 0.02810456 10590617
-0.071244992 -0.02867995 0.028103506 11049626
-0.069771163 -0.028281709 0.028102329 10787482
-0.068295762 -0.027889092 0.028103054 10787482
-0.066819161 -0.027496658 0.028103938 10721689
-0.065341465 -0.027102977 0.028104521 9736850
-0.064621292 -0.014560647 0.024228759 8618883
-0.063126817 -0.014051286 0.024194453 8618883
-0.061691776 -0.01250638 0.023830153 10327702
-0.060298428 -0.010140384 0.02320466 9933201
-0.059056018 -0.0049030827 0.02166537 9011842
-0.057818886 0.00077295653 0.019987937 10722460
-0.056303516 0.0014670716 0.019897396 10787996
-0.055168286 0.0097913444 0.01738029 10919325
-0.053824529 0.014405227 0.016045166 10984861
-0.050187983 -0.029848451 0.030239133 9736850
-0.048695941 -0.029746713 0.030332539 8553090
-0.047203742 -0.029645026 0.030425983 8487297
-0.045711387 -0.029543275 0.030519413 8487297
-0.044218875 -0.029441576 0.030612879 8158075
-0.042726208 -0.02933987 0.030706353 6842215
-0.041233391 -0.029238045 0.030799801 6184542
-0.039740413 -0.029136272 0.030893274 4079166
-0.038247284 -0.02903449 0.030986767 5661778
-0.036753997 -0.028932648 0.031080246 6460245
-0.035260554 -0.028830854 0.031173762 6328663
-0.033766955 -0.028729057 0.031267282 6196824
-0.032273203 -0.028627194 0.031360801 6131032
-0.030779297 -0.028525328 0.031454325 6525527
-0.029285232 -0.028423455 0.031547859 6854485
-0.02779101 -0.028321631 0.031641431 6001990
-0.026296634 -0.028219746 0.031734988 6198848
-0.024802102 -0.028117856 0.03182856 5342771
-0.023307415 -0.028015956 0.031922147 4485676
-0.021812573 -0.027913997 0.032015722 6787917
-0.020317573 -0.027812088 0.032109324 7841628
-0.018822419 -0.027710171 0.032202944 7908447
-0.017327107 -0.027608192 0.032296553 7186001
-0.01583164 -0.027506266 0.032390188 10527598
-0.014336019 -0.027404273 0.032483827 10332531
-0.01284024 -0.027302334 0.032577485 9087338
-0.011344305 -0.027200332 0.032671139 6856013
-0.0097818375 0.048183337 0.0091441581 8102244
-0.10893306 -0.040080149 0.026968572 9209221
-0.10745976 -0.039961062 0.02705485 8814463
-0.10598764 -0.039829671 0.027137142 10327445
-0.10451525 -0.039698329 0.027219478 8880513
-0.10304624 -0.03953382 0.027291056 8816005
-0.10157703 -0.039367694 0.027362138 8618883
-0.10010743 -0.03920155 0.027433254 8947848
-0.098637462 -0.039035279 0.027504357 9934229
-0.097169966 -0.038841203 0.027566472 10656924
-0.095706455 -0.038603012 0.027614325 10459802
-0.094237462 -0.038413469 0.027678 10459802
-0.092768013 -0.038223848 0.027741691 10000022
-0.091298096 -0.038034212 0.027805408 9079434
-0.089827709 -0.037844501 0.027869148 8684676
-0.088356867 -0.037654717 0.027932897 8684676
-0.086891547 -0.03739877 0.027975308 8684676
-0.085430101 -0.037091188 0.028001085 8684676
-0.083967797 -0.036783457 0.028026884 8684676
-0.082504615 -0.036475576 0.028052719 8684676
-0.081040561 -0.036167435 0.028078532 8684676
-0.079578437 -0.035824917 0.028093342 8684676
-0.078116417 -0.035468511 0.02810376 8684676
-0.076655895 -0.035079494 0.028103748 8816262
-0.075194225 -0.034690086 0.028103717 8882055
-0.073731385 -0.034300577 0.028103752 9342349
-0.072267406 -0.033910681 0.028103752 10065558
-0.070802242 -0.033520911 0.028103905 10459545
-0.069336049 -0.033129089 0.028103486 10262423
-0.067868605 -0.032738198 0.028103471 9934229
-0.06639982 -0.032349896 0.028104383 9605521
-0.064929888 -0.031961262 0.028105287 9013641
-0.063465275 -0.031468458 0.028072856 8553090
-0.062011618 -0.030769495 0.027974434 8750469
-0.060551666 -0.03013913 0.027898202 9210763
-0.060001772 -0.013519487 0.022698082 9342349
-0.058786247 -0.0078844531 0.02102145 10525081
-0.057459928 -0.0039520715 0.019891623 9273986
-0.055936784 -0.0035590364 0.019895615 12031124
-0.054602839 0.00064216251 0.018681565 12161682
-0.053443134 0.00875872 0.016216898 11638936
-0.05008442 -0.029837081 0.028682893 9934229
-0.048591919 -0.029735338 0.028776268 8487297
-0.047099266 -0.029633589 0.028869638 8487297
-0.045606457 -0.029531833 0.028963033 8158332
-0.044113487 -0.029430075 0.029056426 6974058
-0.042620368 -0.029328305 0.029149845 6118749
-0.041127089 -0.029226534 0.029243259 4342338
-0.039633658 -0.029124698 0.029336676 4408131
-0.038140073 -0.029022856 0.029430103 5862739
-0.036646329 -0.028921066 0.029523551 6789462
-0.035152432 -0.028819153 0.029616991 6920025
-0.033658374 -0.02871735 0.029710462 6722649
-0.032164168 -0.028615484 0.029803934 6656856
-0.030669803 -0.028513554 0.029897409 6525529
-0.029175278 -0.028411735 0.029990913 6328665
-0.027680604 -0.02830979 0.030084409 4425286
-0.026185768 -0.028207904 0.03017791 5213253
-0.024690779 -0.028106008 0.030271439 6395466
-0.023195636 -0.028003989 0.030364944 6458698
-0.021700336 -0.027902082 0.030458495 6653524
-0.020204879 -0.027800167 0.030552058 7313501
-0.018709267 -0.027698131 0.030645596 8103785
-0.017213499 -0.02759615 0.030739155 6726229
-0.015717573 -0.027494216 0.030832751 9939313
-0.014221495 -0.02739222 0.030926347 8433253
-0.012725257 -0.027290162 0.031019917 8301665
-0.011228865 -0.027188154 0.031113535 6068285
-0.00966118 0.042816125 0.0091469558 6131272
-0.008040851 0.043249525 0.0091463681 6849888
-0.0064192167 0.043683324 0.0091457721 6913636
-0.0047962768 0.044117462 0.009145176 7178858
-0.10855666 -0.042561367 0.026240416 7762803
-0.10708501 -0.042462274 0.026332779 9997966
-0.10561288 -0.042366095 0.026426118 9274243
-0.10414012 -0.042274423 0.026520936 7893104
-0.10266721 -0.042182855 0.026615815 9275528
-0.1011942 -0.042091176 0.026710652 9211020
-0.099721171 -0.041998401 0.026805142 9342349
-0.098252006 -0.04186755 0.026887232 10459802
-0.096782587 -0.041736688 0.026969325 11312541
-0.095312893 -0.041605819 0.027051438 10984604
-0.093842953 -0.041474883 0.027133558 11049883
-0.092372738 -0.041343991 0.027215708 10787739
-0.090901628 -0.041219778 0.027300069 9868693
-0.089430086 -0.041097619 0.027385106 9539728
-0.087964602 -0.040907331 0.027448004 9539985
-0.086498633 -0.040717024 0.027510937 9605521
-0.08503221 -0.040526699 0.027573902 9671314
-0.083565317 -0.040336244 0.027636867 9013641
-0.082097962 -0.040145714 0.027699839 8684676
-0.080630139 -0.039955165 0.027762847 9539728
-0.079162657 -0.039754584 0.027822645 9934229
-0.077696182 -0.039535042 0.027876338 10000022
-0.07622914 -0.039315477 0.027930085 10000022
-0.074761525 -0.039095778 0.027983824 10065815
-0.073299512 -0.038793299 0.028010799 9868693
-0.07183782 -0.03847453 0.028032586 9868693
-0.070375212 -0.038155556 0.028054381 9868436
-0.068911701 -0.037836369 0.028076198 9276556
-0.067456886 -0.037374604 0.028051995 8750469
-0.066001005 -0.036907341 0.028026145 8618883
-0.064543694 -0.036439683 0.028000282 8618883
-0.063103735 -0.035670094 0.0278771 8618883
-0.061664898 -0.034840107 0.027734645 8553090
-0.060223427 -0.034008641 0.027591953 8553090
-0.058802608 -0.032766376 0.027317071 9671314
-0.057398897 -0.031138256 0.026918253 11508635
-0.057109527 -0.0085371668 0.019766591 11638936
-0.055729732 -0.00551493 0.018923115 11108994
-0.0544535 -0.00020664657 0.017345093 12942460
-0.053066403 0.003181834 0.016385941 11835801
-0.049980793 -0.029825687 0.027125716 10065815
-0.048487842 -0.029723883 0.027219025 9013641
-0.046994723 -0.029622188 0.027312364 8487297
-0.045501459 -0.02952037 0.027405694 7368816
-0.044008039 -0.029418547 0.027499037 5855577
-0.042514462 -0.029316776 0.027592398 5395026
-0.041020725 -0.029214999 0.027685773 3223857
-0.039526839 -0.029113157 0.027779149 4802632
-0.038032796 -0.029011253 0.02787251 4158014
-0.036538593 -0.0289094 0.027965909 3703355
-0.035044242 -0.028807541 0.028059317 5147467
-0.03354973 -0.028705619 0.028152714 6591577
-0.032055061 -0.028603749 0.028246129 5476166
-0.03056024 -0.028501816 0.028339548 4950848
-0.029065263 -0.028399874 0.028432991 5016641
-0.027570127 -0.028297987 0.028526442 4294200
-0.026074838 -0.028195975 0.028619884 4228666
-0.024579391 -0.028094077 0.028713357 5672781
-0.023083789 -0.027992111 0.028806845 6131281
-0.021588031 -0.02789014 0.028900331 5537868
-0.020092117 -0.027788108 0.028993802 4881224
-0.018596048 -0.027686127 0.029087311 5738328
-0.01709982 -0.027584139 0.02918083 5608789
-0.015603438 -0.027482143 0.029274374 6791522
-0.014106899 -0.027380086 0.029367892 5872720
-0.012610205 -0.027278021 0.029461434 5806919
-0.011147799 0.029999094 0.011398591 6266183
-0.0095499801 0.030453678 0.011388707 6329932
-0.0079507772 0.030908601 0.011378829 6656617
-0.0063501922 0.031363983 0.011368924 8498311
-0.0047482238 0.031819701 0.01135904 9418378
-0.0031448642 0.032275874 0.011349113 8498546
-0.0015401187 0.03273239 0.011339193 6395979
6.6017739e-05 0.033189304 0.011329286 5145393
0.0016735467 0.033646613 0.011319346 4944940
0.0032824718 0.034104381 0.011309394 4681802
0.0048927916 0.034562487 0.011299433 8298385
-0.10819928 -0.044883739 0.025468184 6579300
-0.10672893 -0.04480537 0.025566978 8092282
-0.10525848 -0.044727225 0.025665862 8749955
-0.10378787 -0.044649817 0.025765004 8024176
-0.10231727 -0.044571664 0.025863886 10982291
-0.10084661 -0.04449328 0.025962716 10591131
-0.099375919 -0.04441455 0.026061432 10722460
-0.097905159 -0.044335764 0.02616013 12163481
-0.096434601 -0.044254169 0.026257919 12227732
-0.094964236 -0.044169772 0.026354805 11114905
-0.093493789 -0.044085313 0.026451671 11572886
-0.092023231 -0.044000912 0.026548555 11900823
-0.090554602 -0.043895349 0.026638532 11050654
-0.089087315 -0.043773655 0.026723253 10854046
-0.087619781 -0.043652132 0.026808022 10919582
-0.086152032 -0.043530479 0.026892787 10854046
-0.084684044 -0.043408874 0.026977593 10919839
-0.083215833 -0.043287262 0.027062401 9210763
-0.08174739 -0.043165587 0.027147215 8947848
-0.080278717 -0.043043956 0.027232055 10919582
-0.07880982 -0.042922262 0.027316902 11247519
-0.077344753 -0.042749759 0.027385207 11116447
-0.075880595 -0.042560194 0.027447969 10853789
-0.074416354 -0.042365689 0.027509175 10853789
-0.072953403 -0.042147309 0.027562631 9802900
-0.071489878 -0.041928902 0.027616145 10065558
-0.070026048 -0.041706759 0.027668484 10394009
-0.068562664 -0.041469712 0.027716026 9342606
-0.067112669 -0.041024543 0.027695976 8750469
-0.065667808 -0.040480305 0.027643871 8618883
-0.064225733 -0.039865483 0.027568974 8618883
-0.062797941 -0.038988926 0.027409296 8618883
-0.06136794 -0.038101036 0.027246183 8618883
-0.05994248 -0.037085533 0.02704194 8553090
-0.058518283 -0.0359882 0.026811458 11115162
-0.057105832 -0.034610845 0.026490554 12747651
-0.055696432 -0.033088773 0.026123192 12876924
-0.055240531 -0.012956228 0.019732388 12941946
-0.054446023 0.0017931876 0.015089167 11504266
-0.052694302 -0.0023255991 0.016552007 11376535
-0.049877103 -0.029814327 0.02556761 10261909
-0.04838369 -0.029712519 0.025660863 9276299
-0.046890125 -0.029610703 0.025754141 7039851
-0.045396402 -0.029508881 0.025847416 7105644
-0.04390252 -0.029407112 0.025940727 6052956
-0.042408489 -0.029305277 0.02603404 4013373
-0.040914301 -0.029203383 0.026127324 3750201
-0.039419953 -0.029101536 0.026220659 4671046
-0.037925452 -0.028999627 0.026313979 3900734
-0.036430798 -0.028897712 0.026407313 5872732
-0.034935985 -0.028795794 0.02650064 6988396
-0.033441018 -0.028693922 0.02659402 7642737
-0.031945892 -0.028591989 0.026687386 4359237
-0.030450612 -0.02849005 0.026780764 3045421
-0.028955178 -0.028388049 0.026874127 3505455
-0.027459586 -0.028286098 0.026967527 4031538
-0.025963839 -0.02818414 0.027060937 4360243
-0.024467934 -0.028082177 0.02715436 5214274
-0.022971874 -0.027980153 0.02724777 6132816
-0.02147566 -0.027878121 0.027341189 4949570
-0.019979287 -0.027776139 0.027434645 3434544
-0.018482758 -0.027674096 0.027528087 4422454
-0.016986074 -0.027572047 0.027621541 6724188
-0.015489233 -0.027470049 0.027715031 5871705
-0.013992238 -0.027367927 0.027808497 4098375
-0.012495084 -0.027265916 0.027902009 4427591
-0.011023614 0.028185574 0.010317848 4952650
-0.0094289351 0.028276993 0.010422955 5344847
-0.0078341374 0.028372429 0.010526783 6527073
-0.00623922 0.028467875 0.010630634 7316583
-0.0046441844 0.028563267 0.010734502 8563304
-0.0030488896 0.028675307 0.010833066 9085542
-0.0014532103 0.028807789 0.010925142 6787915
0.00014271807 0.028940341 0.011017226 4486956
0.0017388948 0.029072842 0.011109337 3696690
0.0033353767 0.029208856 0.011200345 5272914
0.0049357456 0.02955704 0.011223941 10203836
0.0065377825 0.029940348 0.011236454 7247464
0.0081747612 0.031965215 0.010727681 7563864
-0.10931124 -0.047264975 0.024598693 4408131
-0.10784458 -0.047186866 0.024697226 5987163
-0.10637776 -0.047109611 0.02479605 6316128
-0.10491083 -0.047032639 0.024894977 7105644
-0.10344381 -0.046955779 0.024993943 7630189
-0.10197692 -0.046877146 0.025092317 11047827
-0.1005099 -0.046798967 0.025190866 11443099
-0.099042684 -0.046721924 0.025289787 11443356
-0.097575516 -0.046643738 0.025388349 12162710
-0.096108258 -0.046565607 0.025486926 12033437
-0.094640926 -0.046487473 0.025585508 10984861
-0.093173549 -0.046409052 0.025683999 11771293
-0.091706112 -0.046330456 0.025782438 11901080
-0.090238594 -0.046251968 0.025880929 11574171
-0.088770986 -0.04617342 0.025979403 11574428
-0.087303311 -0.046094872 0.026077883 11574428
-0.085835561 -0.046016317 0.026176369 10853018
-0.084368072 -0.045933876 0.02627358 11575199
-0.082900643 -0.045849714 0.026370229 10131608
-0.081434749 -0.045746282 0.026460571 10394266
-0.079969719 -0.045630548 0.026546881 12488591
-0.078504473 -0.045514863 0.026633227 12488077
-0.077039026 -0.045399055 0.026719555 11639707
-0.07557337 -0.045283299 0.026805907 10852761
-0.074107498 -0.045167532 0.02689229 10721689
-0.072641432 -0.045051698 0.026978662 9802643
-0.071176678 -0.044914752 0.027058136 10853018
-0.069722727 -0.044621274 0.027086429 11639964
-0.068272151 -0.044266891 0.027094869 9671571
-0.066825747 -0.043834768 0.027077993 8816262
-0.065391891 -0.043190941 0.026992073 8882055
-0.063957326 -0.042525575 0.026899282 9013641
-0.062529266 -0.041720606 0.026761111 9145227
-0.061110675 -0.040714599 0.026557572 8684676
-0.059689622 -0.039693356 0.026349349 8618883
-0.058269206 -0.038600776 0.026118148 12031124
-0.056854505 -0.037337586 0.025831675 12879237
-0.05544268 -0.035940275 0.025501894 12944516
-0.054037184 -0.034327693 0.025102431 12943488
-0.054439664 0.0038267032 0.012814027 11377049
-0.052326608 -0.0077678785 0.0167161 9669258
-0.04977335 -0.029802945 0.024008552 10718348
-0.048279483 -0.02970113 0.024101762 8946563
-0.046785459 -0.029599253 0.024194976 7960696
-0.045291282 -0.029497368 0.0242882 6908265
-0.043796945 -0.029395595 0.024381455 5066061
-0.042302452 -0.029293699 0.024474703 5723991
