# .PCD v0.7 - Point Cloud Data file format
VERSION 0.7
FIELDS x y z rgb
SIZE 4 4 4 4
TYPE F F F U
COUNT 1 1 1 1
WIDTH 1044
HEIGHT 1
VIEWPOINT 0 0 0 1 0 0 0
POINTS 1044
DATA ascii
-0.058357656 -0.00057517382 0.052186482 16776958
-0.058078468 0.0009089057 0.052265249 16580326
-0.057799317 0.002392713 0.052344076 15072969
-0.057520241 0.0038762498 0.052422788 13893553
-0.057241198 0.0053595146 0.052501556 14155697
-0.0569622 0.0068425057 0.052580323 12779414
-0.056683265 0.0083252275 0.052659035 11664265
-0.056404386 0.0098076798 0.052737746 12705162
-0.056125559 0.011289859 0.052816398 11592573
-0.055846769 0.012771767 0.05289511 8970834
-0.055568039 0.014253404 0.052973762 10670960
-0.055289358 0.015734771 0.053052418 8049481
-0.055010743 0.017215867 0.053131014 12246693
-0.054732151 0.01869669 0.053209666 10987680
-0.054453611 0.020177243 0.053288318 11710900
-0.05417515 0.021657528 0.053366859 11057048
-0.053896714 0.023137538 0.053445451 7580237
-0.053618331 0.024617279 0.053524047 5545001
-0.05334001 0.026096752 0.053602584 4551714
-0.060058974 0.028858274 0.027682053 7566195
-0.059786633 0.030384654 0.027709767 8947334
-0.059566315 0.031921159 0.027543828 10915984
-0.059358176 0.033460733 0.027332086 11111564
-0.059155829 0.03500228 0.027098285 9209992
-0.05896578 0.036547326 0.026817989 9144456
-0.058782324 0.038094848 0.026512396 9931916
-0.058647104 0.039654557 0.026025511 9341321
-0.058528211 0.041219879 0.025476307 8289661
-0.058411192 0.04278763 0.024918845 8421247
-0.058294021 0.044357352 0.024360688 8552833
-0.058176707 0.045929048 0.023801841 8749698
-0.058059242 0.047502723 0.023242299 8618369
-0.057941638 0.049078379 0.022682006 7237230
-0.057827905 0.050657135 0.02210583 7631988
-0.057711273 0.052237157 0.021539299 7303023
-0.057583954 0.053816121 0.021011926 8355197
-0.057456475 0.055396948 0.020483978 8421247
-0.057328846 0.056979649 0.019955393 7434609
-0.057201069 0.058564227 0.019426173 7434609
-0.057073154 0.060150687 0.018896258 8552833
-0.05694738 0.06173978 0.018356988 9997195
-0.056990609 0.063387014 0.017172825 9930888
-0.07556574 -0.060283113 0.021612005 9010814
-0.075091392 -0.058709793 0.022342704 10063502
-0.0746677 -0.057147402 0.022896621 10391953
-0.074244529 -0.055586949 0.023449903 10588818
-0.073821872 -0.054028433 0.024002492 10260881
-0.073399588 -0.052471824 0.024554966 10129552
-0.072982393 -0.050917815 0.02509062 10129552
-0.072566949 -0.049365845 0.025621189 10129552
-0.072151989 -0.047815721 0.026151182 10260881
-0.071749203 -0.046268929 0.0266391 10195345
-0.071357355 -0.044725079 0.027089285 10195602
-0.070999019 -0.043186575 0.027421284 10195602
-0.070669465 -0.041652299 0.027651628 10195859
-0.070340142 -0.040118821 0.027881626 10196116
-0.070032142 -0.038588166 0.028036091 9998994
-0.069754601 -0.037060767 0.028082199 8816262
-0.069486745 -0.035534337 0.028093807 8092539
-0.06922216 -0.034008201 0.028093738 9013641
-0.068957612 -0.032482069 0.028093556 11245720
-0.068693064 -0.030955931 0.028093375 12419971
-0.068428487 -0.029429793 0.028093249 10261652
-0.068163939 -0.027903656 0.028093066 8158332
-0.067899369 -0.026377518 0.028092939 9409412
-0.067643352 -0.02485173 0.02806201 9803908
-0.067499101 -0.023329703 0.02762834 7506267
-0.060614537 -0.021614384 0.051507581 8235860
-0.060335089 -0.020128131 0.051586457 9486176
-0.060055692 -0.018642148 0.051665332 9296215
-0.059776355 -0.017156439 0.051744148 10545005
-0.059497066 -0.015671 0.051822968 12581522
-0.059217822 -0.014185835 0.051901784 14876606
-0.05893863 -0.01270094 0.051980603 16777196
-0.058659498 -0.011216318 0.052059364 16711422
-0.058380418 -0.0097319679 0.052138124 16776958
-0.05810136 -0.0082478886 0.05221694 16777215
-0.057822384 -0.0067640827 0.05229564 16776958
-0.057543457 -0.0052805464 0.052374344 16777215
-0.057264563 -0.0037972825 0.052453104 16777215
-0.056985743 -0.0023142889 0.052531745 16777215
-0.056706954 -0.00083156565 0.052610449 16777215
-0.056428239 0.00065088586 0.052689094 16777205
-0.056149546 0.0021330658 0.052767798 12844961
-0.055870928 0.0036149754 0.052846383 10351475
-0.055592343 0.0050966125 0.052925024 9760360
-0.055313814 0.0065779793 0.053003673 9169243
-0.055035353 0.0080590788 0.053082198 9364067
-0.054756917 0.0095399022 0.053160846 9952105
-0.054478548 0.011020458 0.053239372 9165145
-0.054200221 0.012500743 0.05331796 7327543
-0.053921953 0.013980757 0.053396489 8113226
-0.053643741 0.015460503 0.053474959 6603311
-0.05336557 0.016939977 0.053553488 10595732
-0.053087443 0.01841918 0.053632017 10984602
-0.052809391 0.019898115 0.053710431 13353155
-0.052531358 0.021376777 0.05378896 12960691
-0.052253403 0.022855172 0.05386737 10073459
-0.051975492 0.024333296 0.053945784 7644486
-0.051697612 0.025811147 0.054024257 6917186
-0.05866506 0.028616937 0.027002886 7104351
-0.058307424 0.030127343 0.027350025 9537929
-0.058083378 0.031662785 0.02719716 10129809
-0.057874929 0.03320194 0.026985403 9472907
-0.057683907 0.034745514 0.026707709 8552833
-0.05750576 0.036292873 0.026380947 8881541
-0.057354327 0.037847374 0.025952879 9472393
-0.057219464 0.039407227 0.025461357 9734794
-0.057100613 0.040972639 0.024908286 10128010
-0.056983884 0.042540554 0.02434597 9734537
-0.056869015 0.044110961 0.023775332 9931145
-0.056754012 0.045683388 0.023203943 10717577
-0.056638859 0.047257837 0.022631802 10062988
-0.056523543 0.048834305 0.022058966 7631988
-0.056408089 0.050412808 0.021485381 6974058
-0.056289628 0.051992532 0.020921908 6974058
-0.056161303 0.053571414 0.020394728 10981006
-0.056032803 0.055152159 0.019867029 10390925
-0.05590418 0.056734782 0.019338578 9209735
-0.055775378 0.058319271 0.018809605 9209735
-0.055646345 0.059905615 0.018280286 10456975
-0.055517156 0.061493833 0.017750392 11960191
-0.055445608 0.063103199 0.016998233 10585991
-0.073962115 -0.060502198 0.021646325 8551548
-0.073498465 -0.058931332 0.022344401 9669772
-0.073076032 -0.057369765 0.022897968 10260881
-0.0726588 -0.055810913 0.023434244 10851219
-0.072245836 -0.054254532 0.023956528 10326160
-0.071834654 -0.052700166 0.024473608 9997966
-0.071419157 -0.051146913 0.025007108 10063502
-0.071004167 -0.049595527 0.025539914 10063502
-0.070589684 -0.048046 0.026072085 10982291
-0.070190087 -0.046500161 0.026552271 10982291
-0.069805093 -0.044957723 0.026981277 10785683
-0.069429062 -0.043417767 0.027379176 10195088
-0.06909357 -0.041883592 0.027632795 9998480
-0.068764053 -0.040350888 0.027865538 9604750
-0.068458788 -0.03882134 0.028011775 9736336
-0.068174012 -0.037294153 0.028084742 9736593
-0.067907073 -0.035768732 0.028093696 9144970
-0.067642666 -0.034243543 0.028093569 9276556
-0.067378283 -0.032718357 0.028093386 10589846
-0.067113861 -0.031193163 0.028093319 11309971
-0.066849463 -0.029667972 0.028093195 9539214
-0.060077488 -0.027788598 0.051617283 9610859
-0.059798297 -0.026302889 0.051696092 11986047
-0.059519161 -0.024817452 0.0517749 11197566
-0.059240077 -0.023332292 0.051853653 13169570
-0.058961064 -0.021847401 0.051932346 14679484
-0.058682077 -0.020362779 0.052011095 16317917
-0.058403127 -0.01887843 0.052089904 16777204
-0.058124267 -0.017394349 0.052168541 16777209
-0.057845421 -0.015910545 0.05224729 16777215
-0.057566658 -0.014427008 0.052325927 16777215
-0.057287924 -0.012943747 0.05240462 16777215
-0.057009239 -0.011460752 0.052483313 16777215
-0.056730617 -0.0099780308 0.05256195 16777215
-0.056452055 -0.0084955785 0.052640524 16777215
-0.056173526 -0.0070134006 0.052719161 16777215
-0.055895057 -0.0055314898 0.052797738 16777215
-0.055616636 -0.004049853 0.052876316 16776187
-0.055338264 -0.0025684854 0.052954894 16775416
-0.055059936 -0.0010873877 0.053033467 16775416
-0.054781657 0.00039343833 0.053112045 14612675
-0.054503456 0.0018739951 0.053190511 10871929
-0.05422527 0.0033542798 0.053269085 9427040
-0.053947166 0.0048342971 0.05334755 9033819
-0.053669102 0.006314043 0.053426009 7919177
-0.053391092 0.0077935192 0.053504471 8049229
-0.053113107 0.0092727216 0.053582992 8441681
-0.052835219 0.010751659 0.053661335 6605102
-0.052557349 0.012230325 0.053739801 6998322
-0.052279536 0.013708719 0.053818204 7980358
-0.052001774 0.015186844 0.053896606 7586115
-0.051724058 0.016664701 0.053975012 10859396
-0.051446404 0.018142289 0.054053359 12233890
-0.051168796 0.019619605 0.054131705 13092287
-0.050891235 0.021096652 0.054210048 12767918
-0.050613735 0.022573432 0.054288339 9485419
-0.050336268 0.024049938 0.054366685 8300108
-0.050058864 0.025526179 0.054444972 9146701
-0.05738565 0.028396603 0.025890836 7497823
-0.056937501 0.029890794 0.026580878 8090740
-0.056611963 0.031406656 0.026809746 8289404
-0.056421496 0.032949194 0.026528813 7829367
-0.056252223 0.03449719 0.026167095 7434609
-0.05609623 0.036049366 0.025754258 7303023
-0.055953495 0.037605982 0.025290247 8026489
-0.055820305 0.039166465 0.024788937 10324361
-0.055703953 0.040732749 0.024222512 11435389
-0.055587467 0.042301029 0.023655336 9340036
-0.055470802 0.043871306 0.023087524 9602694
-0.055354007 0.045443591 0.022518899 11501439
-0.055237077 0.047017891 0.021949528 9537672
-0.055120546 0.048594356 0.021377321 7566195
-0.055004168 0.050172932 0.020803204 6776679
-0.054884568 0.05175266 0.020240134 6776679
-0.054755386 0.053331628 0.019712511 10062474
-0.054625947 0.054912433 0.019184658 10848906
-0.054496374 0.056495111 0.018656109 11177357
-0.054366622 0.058079652 0.018127041 11308429
-0.054236747 0.059666082 0.017597221 11111307
-0.05410669 0.061254378 0.017066879 9799816
-0.054001 0.062852755 0.016441241 7763574
-0.072374679 -0.060723577 0.021630513 7894903
-0.07191769 -0.059154384 0.022309868 8421504
-0.071501777 -0.057594504 0.022844281 8158332
-0.071091071 -0.056037266 0.023361215 8355711
-0.070682913 -0.054482173 0.023870166 8355454
-0.070274174 -0.052928694 0.024382303 8355454
-0.069863752 -0.051376678 0.024901554 8487040
-0.069467761 -0.049828459 0.025370173 8552833
-0.069072194 -0.048281867 0.025838275 9210249
-0.068677053 -0.046736903 0.026305852 9341578
-0.068282418 -0.045193583 0.02677262 9407114
-0.067888446 -0.043651916 0.027238002 9275785
-0.067520291 -0.042114682 0.02761138 9604493
-0.067222215 -0.040586073 0.027732767 9670543
-0.066925645 -0.039058026 0.027849004 10393238
-0.066625349 -0.037530024 0.027978955 11048855
-0.066334069 -0.036003243 0.028076561 10327188
-0.066065028 -0.034478579 0.028093792 9276556
-0.065800883 -0.032954346 0.028093321 9736336
-0.065536641 -0.031430103 0.028093195 10392981
-0.065272406 -0.029905854 0.028093072 9407885
-0.05842587 -0.028014574 0.052041538 8492621
-0.05814714 -0.026530497 0.052120224 13106553
-0.057868455 -0.025046693 0.052198905 14350777
-0.057589825 -0.02356316 0.052277591 16711165
-0.057311248 -0.022079896 0.052356213 16776958
-0.057032727 -0.020596905 0.052434843 16776444
-0.056754254 -0.019114185 0.052513469 16776444
-0.056475833 -0.017631738 0.052592035 16186874
-0.056197468 -0.016149558 0.052670605 16055801
-0.055919148 -0.01466765 0.052749172 15465971
-0.055640876 -0.01318601 0.052827742 16776444
-0.055362679 -0.011704643 0.052906193 16776701
-0.0550845 -0.010223546 0.052984763 16777215
-0.054806385 -0.0087427227 0.053063273 16777215
-0.05452833 -0.0072621638 0.053141728 16777215
-0.054250304 -0.0057818792 0.053220239 16777215
-0.053972341 -0.0043018637 0.053298689 16775159
-0.053694442 -0.0028221176 0.053377084 16774388
-0.053416595 -0.00134264 0.053455479 16774388
-0.053138774 0.00013656419 0.05353393 14873797
-0.052860998 0.0016155004 0.053612385 10672756
-0.052583303 0.0030941674 0.05369072 9161816
-0.052305639 0.0045725629 0.053769115 8769623
-0.052028038 0.0060506901 0.053847454 7721032
-0.051750481 0.0075285486 0.05392579 8506706
-0.051472973 0.0090061361 0.054004125 8702036
-0.05119551 0.010483453 0.054082461 6801206
-0.050918095 0.011960502 0.0541608 7456575
-0.050640758 0.013437284 0.054239023 8176200
-0.050363433 0.014913792 0.054317359 8110152
-0.050086189 0.016390035 0.054395579 10009698
-0.049808994 0.017866008 0.054473799 10209654
-0.049531844 0.019341713 0.054552022 11197067
-0.049254727 0.020817144 0.054630302 10738044
-0.048977684 0.022292312 0.054708462 8897882
-0.048700687 0.023767211 0.054786626 10140518
-0.048423726 0.025241837 0.05486485 11111761
-0.048146822 0.026716195 0.05494301 7367245
-0.055676967 0.029675063 0.025393626 6380636
-0.055257604 0.031173574 0.025979767 8025975
-0.05500504 0.032703973 0.02593283 7960953
-0.054839138 0.034252785 0.025555788 7368559
-0.054695804 0.035807844 0.025091833 7171437
-0.054558255 0.037365865 0.024604734 8683905
-0.05443776 0.038929567 0.024051383 10455176
-0.054321319 0.040496219 0.023481252 9405829
-0.05420538 0.042065043 0.022907879 7039851
-0.054089304 0.04363589 0.022333756 7303023
-0.053973086 0.045208767 0.021758821 9077635
-0.053856708 0.046783671 0.021183191 6776679
-0.05374017 0.048360609 0.020606868 6908265
-0.053623486 0.049939588 0.020029793 7039851
-0.053503629 0.051519744 0.019463595 6974058
-0.05337606 0.053099688 0.018925866 7829110
-0.053248353 0.05468154 0.018387442 9603208
-0.053118858 0.056264795 0.017854691 9997195
-0.052985925 0.057848908 0.017334031 9734794
-0.052852809 0.059434853 0.01681285 8815234
-0.052711058 0.06101986 0.016324015 7697524
-0.052578811 0.062609836 0.015797108 6974058
-0.052700203 0.064288601 0.014281785 7302766
-0.070816353 -0.06094972 0.021517344 9471879
-0.070344642 -0.059378248 0.022254266 9538957
-0.069936208 -0.057820186 0.022765793 7895160
-0.0695353 -0.056265101 0.023251377 7566195
-0.069138564 -0.054712307 0.02372301 7500402
-0.068742245 -0.053161163 0.024194121 7500402
-0.068347313 -0.0516118 0.024661297 7500402
-0.067952812 -0.050064072 0.025127893 7434609
-0.067558751 -0.048517976 0.025593909 7500402
-0.067165047 -0.046973489 0.026059637 7434609
-0.066771276 -0.045430556 0.026526637 7434609
-0.066383034 -0.043889862 0.02697459 7960953
-0.066015288 -0.042352989 0.027349183 9538957
-0.065681249 -0.040820971 0.027602252 10721175
-0.06538333 -0.039293449 0.027724581 11834773
-0.065078512 -0.037765682 0.02787227 12420742
-0.064773783 -0.036238421 0.028019961 11178899
-0.064502381 -0.034714397 0.028046468 8947591
-0.064233646 -0.033190664 0.028063307 9473678
-0.063964926 -0.03166699 0.028080087 10459545
-0.063697301 -0.030143445 0.02809293 10459288
-0.056777906 -0.028240047 0.052464899 8357475
-0.056499649 -0.026757604 0.052543398 14286212
-0.056221433 -0.025275424 0.052621957 15792597
-0.055943239 -0.023793517 0.052700575 16776958
-0.055665124 -0.022311879 0.052779075 15531766
-0.055387061 -0.020830512 0.052857578 16382713
-0.055109039 -0.019349419 0.052936077 16709109
-0.054831084 -0.017868591 0.053014521 16774645
-0.054553177 -0.016388038 0.053092964 16774645
-0.054275319 -0.014907752 0.053171407 16774645
-0.053997498 -0.013427738 0.053249851 16774645
-0.053719744 -0.011947993 0.053328235 16773617
-0.053442039 -0.010468519 0.053406622 16777215
-0.053164382 -0.0089893127 0.053485006 16777215
-0.052886769 -0.0075103785 0.053563394 16777215
-0.05260922 -0.0060317116 0.053641722 16777215
-0.052331716 -0.0045533148 0.053720046 16775673
-0.052054264 -0.0030751859 0.053798378 16775673
-0.051776852 -0.0015973283 0.053876705 16775673
-0.051499505 -0.00011973997 0.053954974 15923678
-0.051222201 0.0013575787 0.054033242 10805629
-0.050944954 0.0028346286 0.054111514 8703317
-0.050667759 0.0043114102 0.054189723 8310611
-0.050390594 0.0057879211 0.054267995 7720267
-0.050113499 0.0072641643 0.054346208 9552220
-0.049836446 0.0087401383 0.054424416 10008921
-0.049559459 0.010215844 0.054502573 8439117
-0.049282517 0.011691283 0.054580726 8571729
-0.049005602 0.013166448 0.054658938 9097305
-0.048728753 0.014641347 0.054737091 9688418
-0.04845196 0.016115978 0.054815184 10016616
-0.048175219 0.017590342 0.054893281 9231961
-0.047898512 0.019064434 0.054971438 9888860
-0.047621865 0.020538259 0.055049535 9690713
-0.047345266 0.022011817 0.055127628 9754715
-0.047068726 0.023485107 0.055205669 10406252
-0.046792232 0.024958128 0.055283707 11307856
-0.046515785 0.026430883 0.055361744 6846541
-0.054927327 0.029556582 0.022245774 6709601
-0.053981837 0.030956 0.024845416 8286320
-0.053670794 0.03247552 0.025021417 9076864
-0.053465609 0.034016717 0.024792016 7829110
-0.053328689 0.035573591 0.024300039 6776679
-0.053201221 0.037134342 0.023770602 7565938
-0.053083934 0.038699348 0.023200814 8289147
-0.052966483 0.040266354 0.022630326 7237230
-0.05284889 0.041835371 0.022059089 6447714
-0.052731149 0.043406408 0.021487098 6842472
-0.052613251 0.044979457 0.020914415 9012356
-0.0524952 0.046554528 0.020340974 8683905
-0.052377004 0.048131626 0.019766783 8881027
-0.05225873 0.04971078 0.01919155 9078149
-0.052137394 0.051291127 0.018626913 8026232
-0.052011449 0.052872166 0.018078834 7894903
-0.051887222 0.054455705 0.017522823 8223611
-0.05176153 0.056040809 0.016971212 6842472
-0.051615503 0.057621505 0.016497649 7171437
-0.051459067 0.059200574 0.016063631 7566195
-0.051302493 0.060781173 0.01562915 7829110
-0.051147457 0.062363874 0.015187603 7763317
-0.051125262 0.063993827 0.014224449 7302766
-0.069259554 -0.061175644 0.021404313 10390668
-0.068817168 -0.059609797 0.022040715 10917012
-0.068416648 -0.0580534 0.022527296 8552833
-0.068016566 -0.056498706 0.023013357 7895160
-0.067619659 -0.054946154 0.023488991 7829367
-0.067224286 -0.053395446 0.023960046 7829367
-0.066830069 -0.051846482 0.024427975 7763574
-0.066436529 -0.050299183 0.024894454 7631988
-0.066054709 -0.04875508 0.025319334 7434609
-0.065674409 -0.047212601 0.025739642 7368816
-0.065293998 -0.045671534 0.02616122 7368816
-0.064912394 -0.04413173 0.026588071 8092539
-0.064539611 -0.042594388 0.026983697 10588561
-0.064187385 -0.0410606 0.027305052 11113363
-0.063858867 -0.039530318 0.027540373 10524053
-0.063558824 -0.03800356 0.027671929 10654868
-0.063258849 -0.036477253 0.02780355 9341835
-0.062964037 -0.034951825 0.027916512 8618626
-0.06268999 -0.03342839 0.027953407 10917783
-0.062421829 -0.031905495 0.027968749 11965331
-0.06215366 -0.030382648 0.02798415 12031124
-0.061879307 -0.028859496 0.028022379 10323323
-0.054855805 -0.026984198 0.052965675 14545290
-0.05457804 -0.025503645 0.053044107 15722955
-0.054300331 -0.02402336 0.053122543 16776958
-0.054022659 -0.022543347 0.053200979 16776958
-0.053745046 -0.021063603 0.053279351 16775673
-0.05346749 -0.01958413 0.053357732 16774902
-0.053189974 -0.018104926 0.053436104 16774902
-0.052912526 -0.016625989 0.053514425 16774902
-0.052635103 -0.015147326 0.053592797 16774902
-0.052357763 -0.01366893 0.053671058 16774902
-0.052080452 -0.012190802 0.053749379 16763594
-0.05180322 -0.010712948 0.05382758 16775416
-0.051526017 -0.009235356 0.053905841 16775673
-0.05124886 -0.0077580409 0.053984098 16775673
-0.050971765 -0.0062809885 0.054062303 16775930
-0.050694719 -0.0048042075 0.054140504 16776958
-0.050417718 -0.0033276966 0.054218706 16777215
-0.050140765 -0.0018514536 0.054296911 16777215
-0.049863894 -0.00037547605 0.054374997 16777210
-0.049587034 0.0011002293 0.054453202 10217078
-0.049310237 0.0025756655 0.054531343 7194941
-0.049033482 0.0040508336 0.054609489 7523146
-0.048756793 0.0055257343 0.054687575 8901982
-0.048480153 0.0070003667 0.05476566 11586164
-0.048203554 0.0084747318 0.054843746 13287032
-0.047927003 0.0099488245 0.054921832 12575881
-0.04765052 0.011422654 0.054999862 10479723
-0.047374073 0.012896213 0.055077892 9758301
-0.047097698 0.014369506 0.055155862 9692509
-0.04682133 0.015842527 0.055233948 9232472
-0.046545047 0.017315283 0.055311918 10741872
-0.046268802 0.018787771 0.055389889 10215272
-0.045992613 0.020259991 0.055467859 10017125
-0.045716468 0.021731945 0.055545833 9818467
-0.045440376 0.023203628 0.05562374 9815141
-0.045164339 0.024675047 0.055701654 9154136
-0.044888347 0.026146198 0.055779569 5670197
-0.054100927 0.02942363 0.019357843 6908265
-0.053035922 0.03080353 0.022432767 6840930
-0.052417174 0.032263555 0.023794219 8285549
-0.052132808 0.03378927 0.023868077 7434352
-0.051965449 0.035340216 0.023489926 6381921
-0.051847395 0.03690359 0.022920189 6250335
-0.051729605 0.038469065 0.022348074 6250335
-0.051614095 0.040037133 0.021765824 6250335
-0.051498424 0.041607253 0.021182818 6316128
-0.051382594 0.043179423 0.020599119 6710886
-0.051266186 0.044753544 0.020016288 10849163
-0.051149521 0.046329692 0.019433109 11044743
-0.051032715 0.047907904 0.018849118 11175301
-0.050915737 0.049488172 0.018264433 11371652
-0.050794557 0.051069345 0.017694809 9340807
-0.050666381 0.052650515 0.017151257 9011842
-0.050531141 0.054231521 0.016634125 9340807
-0.050372437 0.055807151 0.016207835 7368816
-0.050215449 0.057384871 0.015773777 9012870
-0.050058309 0.058964122 0.015339316 9867151
-0.049890652 0.060541477 0.014945236 10064273
-0.049691282 0.062109567 0.014675251 9407114
-0.049566641 0.063704394 0.014109682 10129809
-0.067735046 -0.061407175 0.021179888 9866123
-0.067316972 -0.059845958 0.021732451 11702673
-0.066917397 -0.058289863 0.022219047 9801358
-0.066518232 -0.056735463 0.022705175 8815748
-0.066119514 -0.055182766 0.023190726 8749955
-0.065731801 -0.053633437 0.023637203 9604750
-0.065356322 -0.052087475 0.02404003 9538957
-0.064976037 -0.050542153 0.024461294 9407371
-0.064596139 -0.048998304 0.024882032 9276042
-0.064216159 -0.047455855 0.025303988 9144713
-0.06383507 -0.045914683 0.02573093 8487040
-0.06345436 -0.044374991 0.026157469 7631731
-0.063072987 -0.042836662 0.026587307 8618369
-0.062721498 -0.041303065 0.026908223 9341578
-0.062394101 -0.039773051 0.027141139 8947334
-0.062066872 -0.038243838 0.027373938 8684419
-0.061757583 -0.036717054 0.027541058 8026746
-0.061462294 -0.03519202 0.027656814 8026746
-0.061169621 -0.03366759 0.027763182 9604750
-0.060884569 -0.03214407 0.027841548 10261138
-0.060615689 -0.030621886 0.027860146 10195345
-0.060341917 -0.029099476 0.027896948 8551543
-0.053215612 -0.027210297 0.05338699 14218623
-0.052938305 -0.025731362 0.053465299 15988946
-0.052661046 -0.0242527 0.053543605 16777215
-0.052383836 -0.0227743 0.053621918 16777215
-0.052106686 -0.021296179 0.053700168 16776958
-0.051829565 -0.019818319 0.053778477 16776444
-0.051552523 -0.018340735 0.053856667 16776187
-0.051275518 -0.016863417 0.053934921 16776958
-0.050998565 -0.015386367 0.054013111 16776958
-0.050721668 -0.013909585 0.054091305 16776701
-0.050444808 -0.012433076 0.054169498 16770533
-0.050168019 -0.010956831 0.054247633 16774388
-0.049891271 -0.0094808592 0.054325767 16774388
-0.049614586 -0.0080051515 0.054403845 16773617
-0.04933795 -0.0065297135 0.05448192 16772075
-0.049061362 -0.0050545456 0.054559998 16776187
-0.048784796 -0.0035796452 0.054638132 16776958
-0.048508313 -0.0021050125 0.054716151 16776958
-0.048231866 -0.00063064817 0.05479423 16776958
-0.047955491 0.00084344752 0.054872189 10940040
-0.047679149 0.0023172766 0.054950207 7916107
-0.047402851 0.0037908375 0.055028226 8374357
-0.047126602 0.0052641286 0.055106249 10738293
-0.046850428 0.0067371549 0.055184148 13092991
-0.046574283 0.0082099112 0.055262111 13947018
-0.046298176 0.0096823983 0.05534013 12908433
-0.046022154 0.011154622 0.055417974 10021469
-0.045746163 0.012626577 0.055495877 8182594
-0.045470208 0.014098261 0.055573836 6868528
-0.045194332 0.015569684 0.055651683 9234257
-0.044918481 0.017040834 0.055729587 10280297
-0.044642694 0.01851172 0.05580743 10607214
-0.044366959 0.019982338 0.055885278 10737520
-0.044091262 0.021452688 0.055963121 10079080
-0.043815631 0.022922775 0.056040909 8765271
-0.043540042 0.024392592 0.056118693 7188804
-0.043264508 0.025862142 0.056196481 4951338
-0.052558977 0.029154494 0.019209251 5264972
-0.05222977 0.03067879 0.019452658 6118749
-0.051301323 0.032079805 0.022022882 3881787
-0.050912976 0.033585727 0.022499969 5658198
-0.050648972 0.035117075 0.022494338 6973801
-0.050520003 0.036678836 0.021962682 6184542
-0.050403651 0.038245425 0.021380533 6184542
-0.050287168 0.039814066 0.020797571 6250335
-0.050170515 0.041384757 0.020213917 6250335
-0.050053675 0.042957496 0.019629622 6447714
-0.049936712 0.044532303 0.019044461 9733766
-0.049819574 0.046109162 0.018458599 9339779
-0.049702223 0.047688078 0.01787222 9011585
-0.04957303 0.049265776 0.017330997 8749184
-0.049444139 0.050845515 0.016787341 7697524
-0.049288318 0.05241926 0.016348554 7500145
-0.049130104 0.05399387 0.015918171 8289661
-0.048972555 0.055570245 0.015484137 9603722
-0.048813622 0.057147756 0.015054567 11438216
-0.048624098 0.058716912 0.01474511 12027526
-0.048423629 0.060283564 0.01447832 12159112
-0.048223015 0.06185114 0.014211473 12159112
-0.048058361 0.06343212 0.013801089 12420742
-0.048185583 0.065117627 0.012228459 10781057
-0.066255294 -0.06164689 0.020796349 7105644
-0.065817624 -0.060082 0.021424318 8223868
-0.065418951 -0.058526199 0.021910978 10719119
-0.065020725 -0.056972101 0.02239712 11374222
-0.064639047 -0.055422381 0.02282363 11177614
-0.064268805 -0.053875938 0.023209132 11440015
-0.063896641 -0.052330475 0.023602519 11374479
-0.063517094 -0.050785236 0.024023924 11242636
-0.063137598 -0.049241416 0.024446087 11112592
-0.062756866 -0.047698848 0.024873698 10981777
-0.062376533 -0.046157766 0.025300788 10129295
-0.06199925 -0.044618502 0.025717553 7763574
-0.061633669 -0.04308201 0.026091974 7039851
-0.061284199 -0.041548584 0.026407577 7960953
-0.06095108 -0.040017944 0.026663259 8618369
-0.060618166 -0.038488183 0.026918767 7960696
-0.060285624 -0.036959324 0.027173463 7631988
-0.059974711 -0.035433199 0.027348286 7697781
-0.059683647 -0.033909258 0.027449613 7566195
-0.059392661 -0.032385666 0.027550884 7697781
-0.059115384 -0.030863348 0.027601222 7763574
-0.058877245 -0.029343596 0.027505502 7237230
-0.051579043 -0.027435891 0.053807396 12377711
-0.051302195 -0.025958575 0.053885583 16186573
-0.051025391 -0.024481528 0.053963766 16777215
-0.05074865 -0.023004748 0.054041889 16777215
-0.050471958 -0.021528237 0.054120015 16777215
-0.050195292 -0.020051993 0.054198198 16776701
-0.049918693 -0.018576022 0.054276325 16775673
-0.049642149 -0.017100316 0.054354392 16777215
-0.049365643 -0.015624881 0.054432515 16777215
-0.049089193 -0.014149711 0.054510582 16776958
-0.048812795 -0.012674812 0.054588649 16775673
-0.048536461 -0.011200178 0.054666661 16775673
-0.048260152 -0.0097258156 0.054744728 16775673
-0.047983903 -0.0082517192 0.054822735 16773103
-0.047707725 -0.00677789 0.054900687 16767706
-0.047431584 -0.0053043305 0.054978639 16772846
-0.047155499 -0.0038310373 0.055056591 16774131
-0.046879452 -0.0023580135 0.055134539 16774388
-0.046603471 -0.00088525575 0.055212434 16775930
-0.046327531 0.00058723462 0.055290326 12711848
-0.046051644 0.0020594564 0.055368219 10014571
-0.045775797 0.0035314108 0.055446111 9878108
-0.045500018 0.0050031012 0.055523947 10602092
-0.045224287 0.0064745215 0.055601783 11974252
-0.044948597 0.0079456754 0.055679619 10277997
-0.044672951 0.0094165606 0.055757452 8575825
-0.044397354 0.01088718 0.055835288 8182086
-0.044121835 0.012357535 0.055913009 7919679
-0.043846335 0.013827619 0.055990845 6868532
-0.043570906 0.01529744 0.056068562 10876782
-0.043295514 0.016766991 0.056146339 11265144
-0.043020193 0.018236279 0.056224 10344301
-0.042744905 0.019705299 0.05630172 10540143
-0.042469662 0.021174053 0.056379437 9949287
-0.042194467 0.022642538 0.056457158 8308816
-0.041919332 0.024110759 0.056534819 6074413
-0.041644242 0.025578713 0.05661248 4692765
-0.054845087 0.029614987 0.0041378769 4543283
-0.051022902 0.030475084 0.018003579 4802375
-0.050388053 0.031937595 0.019442879 5657941
-0.049716901 0.033387311 0.0210276 6380379
-0.049408495 0.034910601 0.021194823 9534074
-0.049195975 0.036454909 0.020986341 6184542
-0.049078722 0.038022101 0.020403191 6184542
-0.048961323 0.03959135 0.019819291 6184542
-0.048843723 0.041162636 0.01923481 6184542
-0.048725981 0.042735986 0.018649517 6184542
-0.04860808 0.044311397 0.018063469 6184542
-0.048481692 0.04588664 0.017509557 7631731
-0.048352033 0.047462977 0.016967306 7434352
-0.048208497 0.04903736 0.016478708 6710886
-0.048046466 0.050608154 0.016062271 6710886
-0.047888514 0.052181665 0.015628664 7829110
-0.047730416 0.053756699 0.015194593 9931916
-0.047550105 0.055326402 0.014847879 11504780
-0.04735776 0.056893539 0.014548266 11242893
-0.047156993 0.058459021 0.014281544 9866637
-0.046956092 0.060025435 0.014014705 9341578
-0.046747457 0.061590191 0.013778145 9341578
-0.046541929 0.063156888 0.013528593 9341835
-0.046503868 0.064783797 0.012607442 7105387
-0.06477613 -0.061886515 0.020412847 6579300
-0.064319059 -0.060317904 0.021116424 7434609
-0.063921332 -0.058762401 0.021603098 9078406
-0.063545637 -0.05721239 0.022009615 9735051
-0.06317576 -0.0556647 0.022395588 9866380
-0.062806182 -0.054118361 0.022781266 10062988
-0.062436935 -0.052573361 0.023166599 10325389
-0.062058255 -0.051028222 0.023587685 11960448
-0.061677933 -0.049484257 0.024015795 10914956
-0.061311256 -0.047943614 0.02439422 10783884
-0.060945634 -0.046404384 0.024769569 10390925
-0.060580309 -0.04486645 0.025144625 8486783
-0.060215324 -0.043329816 0.02551928 7303023
-0.059850633 -0.041794475 0.025893642 8355197
-0.059517771 -0.040263806 0.02615012 10259339
-0.059187531 -0.038734268 0.026397372 9472393
-0.058857467 -0.037205581 0.026644506 8421247
-0.058538157 -0.03567867 0.026851939 8421247
-0.058247283 -0.034154791 0.026953269 7631731
-0.057967085 -0.032632064 0.027014785 8223868
-0.057699103 -0.031110384 0.027030561 8552833
-0.057493597 -0.029592672 0.026811501 6842472
-0.049946088 -0.027660988 0.054226894 9480544
-0.049669713 -0.026185283 0.054304894 16120262
-0.04939336 -0.024709849 0.05438295 16775673
-0.049117059 -0.023234678 0.05446101 16775930
-0.048840821 -0.021759782 0.05453901 16776958
-0.048564609 -0.02028515 0.054617066 16774902
-0.048288465 -0.018810786 0.054695066 16767963
-0.04801238 -0.017336691 0.054773007 16775930
-0.047736343 -0.015862864 0.054850947 16775930
-0.047460329 -0.014389305 0.054928947 16776701
-0.0471844 -0.012916012 0.055006828 16777215
-0.046908502 -0.011442988 0.055084772 16777215
-0.046632662 -0.009970231 0.055162653 16777215
-0.046356857 -0.0084977392 0.055240598 16776444
-0.046081111 -0.0070255199 0.055318478 16772075
-0.045805428 -0.0055535636 0.055396304 16767449
-0.04552979 -0.0040818751 0.055474129 16765650
-0.045254197 -0.0026104548 0.055551957 16765907
-0.044978667 -0.0011392999 0.055629723 16773617
-0.044703182 0.00033158693 0.055707488 14351557
-0.04442773 0.0018022052 0.055785313 10998137
-0.04415236 0.0032725616 0.055863027 10009696
-0.043877028 0.0047426489 0.055940732 10076006
-0.043601729 0.0062124678 0.056018502 11389303
-0.043326497 0.0076820222 0.056096211 9231969
-0.043051317 0.0091513107 0.056173861 10938492
-0.042776171 0.01062033 0.056251571 8773458
-0.042501092 0.012089087 0.056329221 8379723
-0.04222605 0.013557574 0.05640687 9037143
-0.041951064 0.015025796 0.056484524 9956710
-0.041676115 0.016493753 0.056562174 8970330
-0.041401237 0.017961442 0.056639768 8904280
-0.041126397 0.019428866 0.056717362 9559649
-0.040851619 0.020896027 0.056794897 10279787
-0.040576879 0.02236292 0.056872491 10935926
-0.040302191 0.023829546 0.056950025 8570452
-0.040027555 0.025295908 0.05702756 6138671
-0.039752979 0.026762007 0.057105038 3035931
-0.052836202 0.030868497 0.0046687881 5129798
-0.050883126 0.03208385 0.011291565 6314586
-0.048925243 0.03327461 0.017948821 5855063
-0.048185077 0.034707963 0.019817594 9857642
-0.047895532 0.036236376 0.019910917 9862268
-0.047752533 0.037798565 0.019424919 10257283
-0.047634203 0.039368413 0.018840138 6118749
-0.047515679 0.040940307 0.018254712 6118749
-0.047392745 0.042513181 0.017685425 6184542
-0.047261704 0.044085976 0.017147018 6381921
-0.047130339 0.045660622 0.016608609 11045771
-0.046967696 0.047228586 0.016193481 9472650
-0.04680616 0.04879836 0.015772955 7237230
-0.046647649 0.050370526 0.015339371 6974058
-0.046476018 0.051940363 0.014957151 8618112
-0.046287593 0.053506471 0.014641277 10587533
-0.046092436 0.055071622 0.014351578 10915470
-0.045891356 0.056635939 0.014084982 9604236
-0.045680936 0.058198173 0.013855241 7960953
-0.045465957 0.059759725 0.01364326 7697781
-0.045232214 0.061315656 0.01350633 7829367
-0.044996936 0.062871546 0.01337526 7895160
-0.044858281 0.064462252 0.012853974 7237230
-0.06329751 -0.062126048 0.020029554 8419962
-0.062821411 -0.060553703 0.020808369 7763574
-0.062451571 -0.059003446 0.02119516 7565938
-0.062082056 -0.05745453 0.021581601 8355454
-0.061716344 -0.055907551 0.021954741 7237230
-0.061351672 -0.054361992 0.022324864 7105644
-0.060989588 -0.052818082 0.022686157 7237230
-0.060629379 -0.051275659 0.023041295 11112592
-0.060265426 -0.049733881 0.023411185 7960696
-0.059901763 -0.04819338 0.023780784 6974058
-0.059538398 -0.04665415 0.02415009 7039851
-0.059175368 -0.045116212 0.024518995 7829110
-0.058823358 -0.043580845 0.024847416 9143685
-0.058475398 -0.042047054 0.025161374 9209478
-0.058127671 -0.040514339 0.025475161 10586762
-0.05778503 -0.038983207 0.025770538 11437445
-0.057443067 -0.037453141 0.026063994 11176586
-0.057103287 -0.035924248 0.026349902 11176843
-0.056825005 -0.034401458 0.026404487 10980235
-0.056546863 -0.032878853 0.026458666 11111564
-0.056247674 -0.031354956 0.026592525 11242379
-0.056109697 -0.029841846 0.026116509 9991798
-0.048316769 -0.027885588 0.05464536 10916972
-0.048040811 -0.026411492 0.054723348 16179635
-0.047764938 -0.024937667 0.054801222 16770019
-0.047489088 -0.023464106 0.054879155 16770790
-0.047213286 -0.021990817 0.054957084 16775930
-0.046937544 -0.020517794 0.055034958 16774902
-0.046661869 -0.019045034 0.055112775 16765136
-0.04638622 -0.017572546 0.055190649 16769505
-0.04611063 -0.016100325 0.055268463 16768991
-0.045835078 -0.014628367 0.055346336 16774388
-0.045559596 -0.013156682 0.055424094 16777215
-0.045284156 -0.011685259 0.055501912 16777215
-0.045008752 -0.010214108 0.055579726 16777215
-0.044733409 -0.0087432191 0.05565748 16776958
-0.044458117 -0.0072725993 0.055735238 16774902
-0.044182867 -0.0058022467 0.055812996 16767449
-0.043907672 -0.0043321587 0.055890754 16766935
-0.043632526 -0.0028623394 0.055968452 16766421
-0.043357451 -0.0013927844 0.056046095 16772075
-0.04308242 7.6504468e-05 0.056123734 16383467
-0.042807437 0.0015455273 0.056201376 11658129
-0.042532492 0.0030142809 0.056279015 9095521
-0.0422576 0.0044827694 0.056356657 8243034
-0.04198277 0.0059509943 0.05643424 9361258
-0.041707985 0.0074189515 0.056511823 8444502
-0.041433245 0.0088866446 0.05658941 11000701
-0.041158561 0.010354069 0.056666929 9758056
-0.040883914 0.011821229 0.056744516 10481008
-0.040609341 0.013288125 0.05682198 11926914
-0.040334787 0.014754752 0.056899562 12123780
-0.040060308 0.016221117 0.05697703 11072886
-0.039785873 0.017687216 0.057054497 9758815
-0.039511487 0.019153049 0.057131965 8443214
-0.039237145 0.020618616 0.057209432 9423969
-0.038962863 0.022083919 0.05728684 9814630
-0.038688619 0.023548955 0.057364307 7845452
-0.038414419 0.025013724 0.057441775 5284902
-0.038140286 0.026478235 0.057519127 3498015
-0.052798457 0.030896699 -0.0015164206 1381653
-0.050829016 0.032118354 0.0052108089 4472639
-0.048861783 0.033316549 0.011945184 5657427
-0.047130667 0.034542464 0.017757393 6183257
-0.046660446 0.036032706 0.018568212 8220270
-0.046432287 0.0375765 0.018417027 11695734
-0.046305548 0.039145201 0.017861091 9732224
-0.046173975 0.0407147 0.017323164 10323847
-0.046042442 0.042286135 0.016783783 6776422
-0.045890801 0.04385424 0.016323561 6513507
-0.04572764 0.0454209 0.015908411 7368816
-0.045566577 0.046989635 0.015483851 7237230
-0.045403544 0.048559338 0.015066203 7039851
-0.045214843 0.050123088 0.014750712 7171437
-0.04502603 0.051687941 0.014434932 7303023
-0.044826679 0.053250723 0.01416085 7566195
-0.044615023 0.054810651 0.013935789 7566195
-0.044403259 0.056371357 0.013710611 7631988
-0.044178911 0.057928767 0.013535785 7763574
-0.043943614 0.059483152 0.013404869 7895160
-0.043705948 0.061037198 0.013283242 7960953
-0.043452233 0.062586091 0.013226492 7960953
-0.043278348 0.06416364 0.012845141 7368816
-0.061828669 -0.062367324 0.019612061 10192004
-0.061389036 -0.060801733 0.020260314 8420990
-0.061022434 -0.05925186 0.020637579 8092539
-0.060656663 -0.057703391 0.021012578 11372937
-0.060292263 -0.056156404 0.021383278 7566195
-0.059932895 -0.054611493 0.021735961 6974058
-0.05958157 -0.053069051 0.022059295 7039851
-0.059225842 -0.051527008 0.022399893 7500402
-0.058862422 -0.049984962 0.022770127 7105644
-0.05849931 -0.0484442 0.023140011 6842472
-0.058145136 -0.04690589 0.023477122 6842472
-0.057797089 -0.045369502 0.023791855 6974058
-0.057449285 -0.043834195 0.024106419 7565938
-0.057101708 -0.042299978 0.024420803 7631731
-0.056754384 -0.040766846 0.024734959 8157561
-0.056407321 -0.039234798 0.025048822 8749184
-0.056065168 -0.037704285 0.025344785 9012099
-0.055736095 -0.036175966 0.02559182 9208964
-0.055420496 -0.034649629 0.025788236 9340550
-0.055126622 -0.033125658 0.025902476 9471879
-0.054902997 -0.031607132 0.025749628 9011585
-0.054856837 -0.030099725 0.024920216 6972773
-0.05595484 -0.02865711 0.0197243 8615782
-0.046415549 -0.026637204 0.055140771 15719332
-0.046140101 -0.025164982 0.055218574 16638947
-0.045864705 -0.023693025 0.05529638 16769248
-0.045589373 -0.022221342 0.055374127 16775673
-0.045314081 -0.020749923 0.055451874 16776187
-0.045038827 -0.019278768 0.05552968 16770533
-0.044763647 -0.017807882 0.055607367 16765907
-0.044488497 -0.016337262 0.055685118 16760253
-0.04421341 -0.014866907 0.055762805 16770533
-0.043938361 -0.013396822 0.055840492 16776958
-0.043663368 -0.011926999 0.055918183 16777215
-0.043388419 -0.010457445 0.05599587 16777215
-0.04311353 -0.008988156 0.056073502 16776701
-0.042838689 -0.0075191353 0.056151133 16775159
-0.042563893 -0.0060503804 0.056228764 16770533
-0.042289156 -0.004581891 0.056306336 16772589
-0.042014454 -0.0031136668 0.056383967 16769762
-0.041739821 -0.001645709 0.056461483 16769762
-0.041465227 -0.00017801812 0.056539055 16776701
-0.041190688 0.0012894091 0.056616571 11332237
-0.040916186 0.0027565695 0.056694143 7522119
-0.040641747 0.0042234659 0.056771658 6079288
-0.040367361 0.0056900955 0.056849115 8051283
-0.040093038 0.007156461 0.056926511 11663494
-0.03981873 0.0086225588 0.057004027 13098643
-0.039544508 0.010088394 0.057081427 11594630
-0.039270319 0.011553964 0.057158824 11134846
-0.038996167 0.013019267 0.05723628 10412148
-0.038722094 0.014484308 0.057313621 9426534
-0.038448047 0.01594908 0.057391021 8506712
-0.038174044 0.017413588 0.057468418 6800953
-0.037900124 0.018877836 0.057545703 6667832
-0.037626211 0.020341812 0.0576231 9745756
-0.037352383 0.02180553 0.057700384 10789980
-0.037078578 0.023268979 0.057777721 8565074
-0.036804844 0.024732165 0.057855006 5350694
-0.036531165 0.02619509 0.057932232 3702037
-0.052757133 0.030924637 -0.0077662258 2436129
-0.050777033 0.03215386 -0.00095598062 2302755
-0.048808984 0.033361427 0.0058223032 4209724
-0.046711881 0.034516562 0.013133027 5591891
-0.045517914 0.03585013 0.01684365 4408131
-0.045175388 0.037369315 0.017148621 8681849
-0.044955697 0.038916983 0.016961137 9405315
-0.044815555 0.040485039 0.016453445 9208964
-0.044652011 0.042048942 0.016038675 6908265
-0.044488322 0.043614298 0.015623559 6776679
-0.044327747 0.045181982 0.015194843 9866380
-0.044143699 0.046744708 0.014859922 10653069
-0.043954648 0.048307221 0.014544411 10915470
-0.043761652 0.04986972 0.014244126 11112335
-0.043550629 0.051427916 0.014016194 11308943
-0.043338757 0.052986678 0.013791168 9998737
-0.043125745 0.054545894 0.013570209 8158332
-0.042891677 0.056099165 0.013434386 7829367
-0.042651452 0.057650898 0.01332332 7960953
-0.042407084 0.05920165 0.013228875 7960953
-0.042149555 0.060748234 0.013187954 8092539
-0.041892033 0.062294967 0.013146916 8158332
-0.041700356 0.063865401 0.012836229 7500402
-0.042021979 0.065624416 0.010421177 7697010
-0.060412619 -0.062619008 0.018998599 7434095
-0.059967492 -0.061051872 0.019671673 7171437
-0.059601493 -0.05950183 0.020049112 8026489
-0.059235789 -0.057953097 0.020426322 11370624
-0.058876857 -0.0564068 0.020778874 10979464
-0.05852494 -0.054862864 0.021105781 7105644
-0.05817334 -0.053320069 0.021432225 6974058
-0.057822011 -0.051778406 0.021758378 6908265
-0.057465654 -0.050237082 0.022104301 6842472
-0.057117511 -0.048698086 0.02241987 6776679
-0.056769624 -0.04716019 0.022735206 6776679
-0.056421984 -0.045623377 0.02305031 6710886
-0.056074597 -0.044087656 0.023365183 6710886
-0.055727433 -0.042553015 0.023679879 6710886
-0.055380523 -0.041019462 0.023994343 6645093
-0.055033866 -0.039486989 0.024308577 6645093
-0.054687601 -0.037955623 0.024621993 6579300
-0.054374769 -0.036428411 0.024808472 6645093
-0.054066017 -0.034902185 0.02497977 6710886
-0.053759381 -0.033376709 0.025143335 6645093
-0.053557061 -0.03185945 0.024907587 5000268
-0.053745843 -0.030367611 0.023170933 4342081
-0.054486278 -0.02890327 0.019311696 7105637
-0.044793826 -0.026862413 0.055557381 15137184
-0.044518832 -0.025391797 0.055635061 16711159
-0.044243902 -0.023921445 0.055712681 16774388
-0.043969009 -0.022451356 0.055790361 16776444
-0.043694172 -0.020981535 0.055867981 16777215
-0.04341938 -0.019511985 0.055945601 16777215
-0.043144632 -0.018042699 0.056023221 16773360
-0.042869948 -0.016573677 0.056100786 16763080
-0.042595312 -0.015104918 0.05617835 16766421
-0.042320706 -0.013636432 0.05625597 16776701
-0.042046156 -0.012168206 0.056333531 16777215
-0.041771669 -0.010700247 0.056411035 16777215
-0.041497223 -0.0092325564 0.0564886 16772589
-0.041222826 -0.0077651292 0.056566104 16764879
-0.040948492 -0.0062979679 0.056643549 16774388
-0.040674195 -0.0048310715 0.056721054 16774388
-0.040399939 -0.0033644426 0.056798559 16764879
-0.04012575 -0.0018980763 0.056876007 16764622
-0.039851598 -0.00043197718 0.056953453 16775416
-0.039577506 0.0010338563 0.057030838 12709539
-0.039303456 0.0024994262 0.057108287 9292125
-0.039029457 0.003964731 0.057185672 6801218
-0.038755525 0.0054297717 0.057263002 6474812
-0.038481642 0.0068945484 0.057340335 6868546
-0.038207795 0.0083590569 0.057417665 8572508
-0.037934002 0.0098233037 0.057494994 10534761
-0.03766026 0.011287285 0.057572264 10468709
-0.037386574 0.012751003 0.057649538 10337378
-0.037112933 0.014214455 0.057726808 10140512
-0.036839329 0.015677642 0.057804078 10009182
-0.036565781 0.017140565 0.057881352 7979852
-0.036292288 0.018603226 0.057958566 6076973
-0.036018845 0.020065622 0.05803578 6404149
-0.035745442 0.021527752 0.058112994 6796605
-0.035472102 0.022989621 0.058190148 6271283
-0.035198811 0.024451226 0.058267303 6204724
-0.034925565 0.025912566 0.058344461 5017892
-0.05271538 0.03095294 -0.014094517 5790801
-0.050723478 0.032189615 -0.0071956343 2631720
-0.048738316 0.033403203 -0.00030733255 2236705
-0.046627 0.034564588 0.0071057128 3617844
-0.044757947 0.035754498 0.013559286 4210495
-0.043897338 0.037157323 0.015955513 4737096
-0.043602835 0.038688108 0.016068431 6316128
-0.043413959 0.040244728 0.015754005 8092025
-0.043249741 0.04180878 0.015338863 8618112
-0.043074131 0.04337132 0.014968962 9012613
-0.042887412 0.044932187 0.014643314 10588561
-0.042690322 0.046491347 0.014359069 10325903
-0.042489197 0.048050381 0.014090521 10194831
-0.042277213 0.049607206 0.013865647 10129552
-0.042063646 0.05116437 0.013646705 10129552
-0.041840151 0.05271928 0.013467766 10720918
-0.041598346 0.054269079 0.013363379 10523539
-0.04135647 0.055819236 0.01325899 10589332
-0.041105822 0.057366882 0.013190364 10655382
-0.040848378 0.058912493 0.013149475 10655382
-0.040584363 0.060455989 0.013135509 10721175
-0.040316846 0.061998308 0.013135905 10721175
-0.040124472 0.063567594 0.01282654 10720404
-0.040361062 0.065295205 0.010745695 10321534
-0.041183554 0.067249507 0.0062382598 11179670
-0.059009463 -0.062873371 0.018335657 6118749
-0.058545843 -0.061302029 0.019082928 6908265
-0.058180422 -0.059751812 0.019460658 7894903
-0.057822119 -0.058204159 0.019812323 11370367
-0.057470445 -0.056658853 0.020139666 12023157
-0.057119031 -0.055114679 0.020466777 9734023
-0.056780573 -0.053573728 0.020745419 9340293
-0.056443132 -0.052033868 0.0210208 9143171
-0.056098446 -0.050493822 0.021324404 8880513
-0.055751115 -0.048954401 0.021638772 8683391
-0.055404041 -0.047416069 0.021952849 8486269
-0.055058312 -0.045878969 0.022262502 8288890
-0.054717444 -0.044343516 0.022554293 8157561
-0.0543768 -0.042809077 0.022845913 7894646
-0.054039586 -0.041276008 0.023125019 7763060
-0.053712457 -0.039744955 0.023366071 7565938
-0.053385507 -0.038214732 0.02360701 7434352
-0.053055853 -0.036685064 0.023858886 7237230
-0.052737277 -0.035157226 0.024068695 7105644
-0.052442547 -0.033632036 0.024187092 6842472
-0.052309554 -0.03211939 0.023681797 5263440
-0.052996498 -0.030661207 0.020008527 7170409
-0.052931685 -0.029143991 0.019233659 6316638
-0.043175697 -0.02708713 0.055973012 13631353
-0.042901158 -0.025618108 0.056050565 15597261
-0.04262666 -0.024149356 0.056128114 16775159
-0.042352229 -0.022680866 0.056205612 16776958
-0.042077824 -0.021212643 0.056283161 16777215
-0.041803498 -0.019744685 0.056360599 16777215
-0.041529186 -0.018276995 0.056438148 16776701
-0.041254953 -0.01680957 0.056515586 16644087
-0.040980745 -0.015342408 0.056593079 16708852
-0.040706605 -0.013875511 0.056670517 16777215
-0.040432505 -0.012408883 0.056747951 16777215
-0.040158458 -0.010942515 0.056825388 16777215
-0.039884463 -0.0094764177 0.056902763 16775673
-0.03961052 -0.0080105811 0.056980141 16761795
-0.039336625 -0.0065450105 0.057057522 16775673
-0.039062768 -0.0050797071 0.057134897 16776701
-0.038788978 -0.0036146666 0.057212219 16774131
-0.038515236 -0.0021498902 0.057289537 16770790
-0.038241535 -0.00068537821 0.057366859 16774902
-0.037967879 0.00077886658 0.057444174 13167783
-0.037694287 0.0022428487 0.057521436 10994026
-0.037420727 0.0037065663 0.057598758 8178260
-0.037147228 0.0051700198 0.057676021 6014004
-0.036873765 0.0066332072 0.05775328 5817135
-0.03660037 0.0080961324 0.057830483 7456585
-0.036327023 0.0095587932 0.057907686 8896856
-0.036053736 0.011021191 0.057984829 8634450
-0.035780493 0.012483326 0.058061976 8831572
-0.03550728 0.013945194 0.058139179 8896854
-0.035234146 0.0154068 0.058216266 8896597
-0.034961052 0.016868144 0.058293354 7520326
-0.034687996 0.01832922 0.058370497 5485347
-0.034414995 0.019790035 0.058447585 5419043
-0.034142043 0.021250587 0.058524672 6008876
-0.033869147 0.022710877 0.0586017 6861370
-0.033596285 0.024170898 0.058678787 8829787
-0.033323482 0.02563066 0.058755815 5809190
-0.033050727 0.027090158 0.058832843 7694926
-0.050670285 0.032226026 -0.01351735 8680564
-0.048657261 0.033443477 -0.0064740982 4144188
-0.046547044 0.034614511 0.00098052737 1973790
-0.043367125 0.035516072 0.012798905 5394512
-0.042702787 0.03696502 0.014413665 4342338
-0.042242989 0.038457625 0.015199336 5394769
-0.042007748 0.040003307 0.015071317 11307915
-0.041821778 0.041562069 0.014741861 11831689
-0.04162059 0.043118 0.014473788 11701645
-0.041419305 0.04467487 0.014205486 8881541
-0.041217916 0.046232671 0.013936949 7631988
-0.041005369 0.047788251 0.013713505 7566195
-0.0407896 0.049343694 0.013502746 7763574
-0.040546693 0.050891746 0.013403125 8618626
-0.040304791 0.052440468 0.013299078 11376278
-0.040062886 0.053989563 0.013194799 12550786
-0.039806034 0.05553421 0.013151966 12422027
-0.039542925 0.057076957 0.013134848 11769237
-0.03927565 0.058618348 0.013134955 11769494
-0.039008375 0.060159743 0.013135063 11441814
-0.038740776 0.061701022 0.013136507 11507350
-0.038557541 0.063272685 0.012787616 11506065
-0.038704157 0.06496691 0.011066356 10387841
-0.039595246 0.066946819 0.0062415875 12945287
-0.03926171 0.068475433 0.0065093483 10188149
-0.05760856 -0.063128345 0.017662684 8156276
-0.057124075 -0.061552204 0.018494138 9012356
-0.056766413 -0.060003199 0.018844854 7829110
-0.056424148 -0.05845822 0.019137699 9996167
-0.05608641 -0.056915026 0.01941395 11695991
-0.055749737 -0.055372931 0.019686766 10782599
-0.055415723 -0.053832192 0.019950034 10389383
