# .PCD v0.7 - Point Cloud Data file format
VERSION 0.7
FIELDS x y z rgb
SIZE 4 4 4 4
TYPE F F F U
COUNT 1 1 1 1
WIDTH 1044
HEIGHT 1
VIEWPOINT 0 0 0 1 0 0 0
POINTS 1044
DATA ascii
-0.10811953 -0.04213994 0.026374549 7960953
-0.10662901 -0.042036053 0.026470348 8487040
-0.10513841 -0.04193271 0.026569733 9406857
-0.10364816 -0.041829392 0.026669059 9472393
-0.10215823 -0.041726097 0.026768383 9472650
-0.10066962 -0.04162151 0.026858561 7434609
-0.09918274 -0.041515 0.026935223 7631988
-0.097696133 -0.04140849 0.027011828 9538443
-0.096209779 -0.041302018 0.027088432 9538443
-0.094723672 -0.041195568 0.027165094 9538186
-0.09323784 -0.041089121 0.027241699 9538443
-0.091752104 -0.040982928 0.027319795 9538443
-0.090267055 -0.040876128 0.02739365 9604236
-0.088784449 -0.040765937 0.027444003 9670029
-0.087302029 -0.040655743 0.027494302 10064273
-0.085819766 -0.040545583 0.027544655 10260881
-0.084337674 -0.040435433 0.02759501 10129552
-0.082855754 -0.040325295 0.027645303 10129552
-0.081374004 -0.040215172 0.027695656 10130066
-0.079892412 -0.040105063 0.027746011 8750469
-0.078411572 -0.039993957 0.027789429 8355711
-0.076931328 -0.039882027 0.027827168 8553090
-0.075451218 -0.0397701 0.027864845 11047313
-0.073971234 -0.039658189 0.027902585 10522768
-0.072491378 -0.039546277 0.027940203 10457489
-0.071011648 -0.039434385 0.027977942 8882055
-0.069532044 -0.039322499 0.028015619 9670286
-0.068060823 -0.03919334 0.02793574 9276556
-0.0665913 -0.03905993 0.027827162 8355454
-0.065119095 -0.03893159 0.027753267 8553090
-0.063652135 -0.038790803 0.027594998 8158332
-0.062191684 -0.038633592 0.027325878 8947334
-0.060736146 -0.038462404 0.026962517 9866637
-0.059283242 -0.038281612 0.026535003 9669515
-0.057831928 -0.038093019 0.026055465 9735051
-0.05638665 -0.037884317 0.025441155 9800587
-0.054939341 -0.037675343 0.024826003 7500402
-0.053504568 -0.037425574 0.023937179 7237230
-0.052069865 -0.037166737 0.022988919 7171437
-0.050634652 -0.036899656 0.021986967 6974058
-0.049198281 -0.036625464 0.020938972 7763574
-0.047764447 -0.036331605 0.019760866 8026489
-0.046342522 -0.035984721 0.018229261 6973801
-0.046704497 -0.029464247 -0.024669617 6321492
-0.045134004 -0.029357132 -0.024553372 7244889
-0.043563906 -0.029250048 -0.024437126 6516557
-0.040611792 -0.034559328 0.011877115 8413794
-0.039092526 -0.034502212 0.012294246 7037024
-0.037586577 -0.03439394 0.012369231 5131340
-0.036083534 -0.034273662 0.012364221 4210752
-0.03458048 -0.034153357 0.012358904 3684408
-0.033077415 -0.03403303 0.01235353 3618615
-0.031574327 -0.033912711 0.012348219 3618615
-0.030071223 -0.033792384 0.012342845 3618615
-0.028569056 -0.033666227 0.012298784 3618615
-0.02707682 -0.033474002 0.011816796 5394769
-0.025616055 -0.033047386 0.0097831646 5134152
-0.024753332 -0.027967121 -0.023044311 7510875
-0.023188327 -0.027860424 -0.022928121 5334341
-0.021077834 -0.032832075 0.010736301 5525070
-0.019562336 -0.032811388 0.011389969 7167325
-0.018057309 -0.032693695 0.011402832 5657427
-0.016552435 -0.032574493 0.011405772 5460048
-0.015047573 -0.032455292 0.011408711 7037024
-0.01354272 -0.03233609 0.01141165 7627876
-0.012037876 -0.032216907 0.011414646 6774366
-0.010533043 -0.032097708 0.011417585 4539460
-0.0090282196 -0.03197851 0.011420525 5197133
-0.0075234058 -0.031859331 0.01142352 8152678
-0.0060186028 -0.031740133 0.011426459 6314586
-0.004513809 -0.031620938 0.011429398 6051928
-0.0030090248 -0.031501763 0.011432394 6051928
-0.0015042515 -0.031382568 0.011435334 5065547
5.1167927e-07 -0.031263374 0.011438273 5000011
0.0015052612 -0.031144289 0.011441867 5000011
0.0030099975 -0.031025207 0.011445461 4934218
0.0045147194 -0.03090613 0.011449116 4934218
0.0060206144 -0.030774135 0.011368761 4934218
0.0075308434 -0.030602423 0.011030517 4473924
0.0090476582 -0.030382542 0.01038021 3421236
0.010574937 -0.030095847 0.0092977164 4408131
0.012127168 -0.029651007 0.0071922704 5723220
0.17241709 -0.02136476 0.036392279 5460819
0.17366689 -0.021421686 0.037416011 7368816
0.17504553 -0.021372026 0.037808746 6842472
0.17643836 -0.021310046 0.038128112 6381921
0.17782761 -0.021250147 0.038459256 6447714
0.1792163 -0.021189881 0.038787711 7368816
0.18056524 -0.021160036 0.039294768 4539717
0.18130912 -0.021600669 0.042568352 6184542
0.18254277 -0.021654462 0.043563206 7697781
0.18391804 -0.02159705 0.043903381 10589332
0.18526337 -0.021561759 0.044372763 11305345
0.18682691 -0.021359826 0.04386441 12289670
0.18890907 -0.020768307 0.041074149 11106167
-0.10949796 -0.043648712 0.025816467 7829367
-0.10800571 -0.043546412 0.025924636 7368816
-0.10651384 -0.043444123 0.02603275 8355454
-0.10502233 -0.043341842 0.026140805 9603722
-0.10353159 -0.043239098 0.026245266 9800844
-0.10204175 -0.043135643 0.026344646 9801101
-0.10055226 -0.04303221 0.026443966 7434609
-0.099063098 -0.042928804 0.026543286 7566195
-0.097574271 -0.042825438 0.0266426 9866637
-0.096086323 -0.042721324 0.026736595 9932173
-0.094600439 -0.042614743 0.026813181 9932173
-0.093114808 -0.0425082 0.026889825 10325646
-0.091629438 -0.042401671 0.026966408 11177357
-0.090143934 -0.042295758 0.02704718 10522511
-0.088658638 -0.042189959 0.027128613 9801101
-0.087173603 -0.042084184 0.027210105 9210249
-0.085688852 -0.041978445 0.027291533 8816005
-0.084204994 -0.0418717 0.027366027 8816005
-0.082723491 -0.04176151 0.027416348 9144713
-0.081242152 -0.041651331 0.02746667 9801615
-0.079760984 -0.041541167 0.027516991 9341835
-0.078279987 -0.04143101 0.027567251 8881798
-0.076799154 -0.041320875 0.027617633 8947334
-0.075319462 -0.041208964 0.027655631 10850962
-0.073839925 -0.041097026 0.027693328 9473164
-0.072360508 -0.040985096 0.027731026 9013384
-0.070881218 -0.040873181 0.027768722 8026746
-0.069402203 -0.040760968 0.027804388 8881798
-0.067926325 -0.040642522 0.027797034 9473421
-0.066457413 -0.040509176 0.027687384 8947334
-0.064986952 -0.040378373 0.027595378 8947334
-0.063527912 -0.040221248 0.027323063 8355454
-0.062070969 -0.040057093 0.027003003 8816005
-0.060618546 -0.039879579 0.026592068 10063502
-0.059165705 -0.039699614 0.026165161 10129038
-0.0577203 -0.03949723 0.025585817 11633796
-0.056275193 -0.03928886 0.024966752 10063759
-0.054828838 -0.039078094 0.02433243 7500402
-0.05339545 -0.038825493 0.023414113 7171437
-0.051960837 -0.03856732 0.022459604 7171437
-0.050525229 -0.038302325 0.021460405 7303023
-0.049088642 -0.038029775 0.020411732 7303023
-0.047648635 -0.037756588 0.019360542 7171437
-0.046210069 -0.037466701 0.01819808 7237230
-0.044775773 -0.037148483 0.016845671 7763574
-0.043350514 -0.036781408 0.015164877 8223097
-0.041947272 -0.036310885 0.012787358 9406600
-0.040450633 -0.036171805 0.012654314 10915213
-0.038948715 -0.036052361 0.012654082 11176329
-0.037446793 -0.035932917 0.01265385 10458003
-0.035944875 -0.035813473 0.012653618 7433838
-0.03444295 -0.035694033 0.012653447 5723991
-0.032941025 -0.035574619 0.012653455 4605510
-0.031439096 -0.035455201 0.012653402 4210752
-0.029943945 -0.035297338 0.012395205 4210752
-0.028443856 -0.035164092 0.012302603 3881787
-0.026952643 -0.034970917 0.011808391 3684408
-0.025497749 -0.03450999 0.0095215635 4542015
-0.024831984 -0.027944282 -0.033615969 7247962
-0.023249973 -0.027836392 -0.033497509 5006401
-0.020956641 -0.034331299 0.01072947 5459534
-0.019442666 -0.034302928 0.0113388 7495519
-0.017938485 -0.034183782 0.011341739 6051671
-0.016434314 -0.034064636 0.011344679 5065804
-0.014930151 -0.033945493 0.011347679 6774623
-0.013425999 -0.033826347 0.011350619 8939881
-0.011921857 -0.033707205 0.011353558 9398633
-0.010417725 -0.033588096 0.011356798 5657427
-0.0089136017 -0.033469047 0.011360398 4408131
-0.0074094902 -0.033350021 0.011364053 6248793
-0.0059053916 -0.033230975 0.011367652 4934218
-0.0044013048 -0.033111949 0.011371307 5328719
-0.0028972302 -0.032992903 0.011374906 7431268
-0.0013931685 -0.032873876 0.011378561 7102817
0.00011088175 -0.032754835 0.011382161 6971488
0.0016149208 -0.032635793 0.011385759 6971488
0.0031189464 -0.032516774 0.011389415 6971488
0.0046229609 -0.032397728 0.011392952 6971488
0.0061284113 -0.032263171 0.011294549 6971231
0.007638392 -0.032088336 0.010931716 5854549
0.0091552297 -0.031864543 0.010248155 3026478
0.010682842 -0.031573478 0.0091247596 4144959
0.012232151 -0.031151522 0.007145796 7365732
0.17253435 -0.022746874 0.035894953 6512479
0.17381619 -0.022776294 0.036764886 7303023
0.17520419 -0.022718711 0.037114456 6447714
0.17659734 -0.022656206 0.037434112 6447457
0.17798719 -0.022595534 0.037764177 7236973
0.17937627 -0.022534685 0.038092628 8814977
0.18027818 -0.02285167 0.040667105 4934475
0.18136808 -0.023017554 0.042339835 6644836
0.18266341 -0.023022125 0.043052245 9405829
0.18401736 -0.022980426 0.043489102 10388869
0.18540616 -0.022911401 0.043763228 11763069
0.18690144 -0.022761777 0.043559648 9929860
0.18865615 -0.022419082 0.04221382 11171446
-0.1093869 -0.04505194 0.025342511 7566195
-0.10789466 -0.044949453 0.02545068 7237230
-0.10640279 -0.044846978 0.025558855 7895160
-0.1049113 -0.04474454 0.025666963 8684162
-0.10342018 -0.044642117 0.025775013 8749955
-0.10192942 -0.044539716 0.025883004 8815748
-0.10043903 -0.044437326 0.025990937 8223868
-0.098949 -0.044334982 0.026098866 7434609
-0.097459391 -0.044232588 0.02620638 8947334
-0.095970526 -0.044129688 0.026310064 9012870
-0.094482027 -0.044026807 0.026413623 9078663
-0.0929939 -0.043923903 0.026516888 9735565
-0.09150666 -0.043820251 0.026614644 11243407
-0.090021573 -0.043713912 0.02669318 10129552
-0.088536471 -0.043608006 0.026774716 9407114
-0.087051652 -0.043502111 0.026856128 8750212
-0.085567117 -0.043396242 0.026937604 8289661
-0.084082842 -0.043290384 0.027019082 8092539
-0.082598858 -0.043184549 0.027100433 8421247
-0.081115134 -0.043078747 0.027181907 9472907
-0.079631694 -0.042972945 0.027263263 10063759
-0.078149036 -0.042866293 0.027338451 10063502
-0.07666862 -0.042756096 0.027388738 10456975
-0.075188376 -0.042645916 0.027439028 10195345
-0.073708683 -0.042535011 0.027484231 8618626
-0.072229713 -0.042423055 0.027521886 7829367
-0.07075087 -0.042311102 0.027559606 8224125
-0.069272637 -0.042198192 0.027590498 9604236
-0.067794569 -0.042085156 0.027620556 10326160
-0.066326119 -0.04195207 0.027511146 10129295
-0.064866655 -0.0417987 0.027261067 10325903
-0.063406855 -0.041644141 0.02700321 9078663
-0.061953288 -0.041473277 0.026632756 8421247
-0.060500979 -0.041296434 0.026221726 9078663
-0.059052087 -0.041107874 0.025730304 9341578
-0.057609487 -0.040899407 0.025102103 11242379
-0.056164838 -0.040690586 0.024472771 9801101
-0.054719761 -0.040477123 0.02381249 8749955
-0.053285986 -0.040226493 0.022897277 8815491
-0.051851179 -0.039969821 0.021942075 9012356
-0.050415762 -0.039705269 0.020934442 9340807
-0.048978958 -0.039434362 0.019885028 8223868
-0.047538735 -0.039162815 0.018833099 7237230
-0.04609469 -0.038891893 0.017787334 7237230
-0.044643637 -0.03863252 0.016822737 7697781
-0.043188836 -0.038374666 0.015870353 8158075
-0.041742362 -0.038073964 0.014626399 8355197
-0.04029898 -0.037744809 0.013190305 9800073
-0.038818166 -0.037547052 0.012654352 12484993
-0.037317052 -0.037427668 0.012654059 12420999
-0.035815936 -0.037308268 0.01265377 12097174
-0.034314822 -0.03718888 0.012653415 9473935
-0.032813687 -0.037069567 0.012653724 9408399
-0.031312559 -0.036950219 0.012653733 10262680
-0.029811434 -0.036830872 0.012653741 9999508
-0.028310308 -0.036711521 0.012653749 9802129
-0.026809184 -0.036592171 0.012653695 9999508
-0.02531101 -0.036452126 0.012513518 7828596
-0.024912363 -0.027920943 -0.044419933 7050329
-0.023312967 -0.027811864 -0.044298772 6254419
-0.020837465 -0.035811473 0.010604563 4538946
-0.019324312 -0.035780609 0.011203747 4999754
-0.017820362 -0.035665542 0.011233924 4539460
-0.016316514 -0.035550486 0.011264161 3158064
-0.014812809 -0.035434775 0.011289908 4407874
-0.01330936 -0.035315782 0.011293507 8021863
-0.011805921 -0.035196792 0.011297167 9070182
-0.010302494 -0.035077799 0.011300766 5328719
-0.0087990807 -0.034958806 0.011304365 3289650
-0.0072956788 -0.03483982 0.011308025 3552822
-0.0057922895 -0.034720831 0.011311624 3421236
-0.0042889114 -0.034601841 0.011315223 6905695
-0.002785546 -0.034482855 0.011318883 9202025
-0.001282194 -0.03436387 0.011322482 7496804
0.00022114869 -0.034244884 0.011326081 6839902
0.0017244769 -0.034125902 0.011329741 6905438
0.0032277936 -0.03400692 0.01133334 6905438
0.0047310963 -0.033887919 0.011336943 6905438
0.0062361248 -0.033750717 0.01121939 6905438
0.0077458504 -0.033572994 0.010832957 5591634
0.0092627183 -0.033345412 0.010116288 2697513
0.01079185 -0.033040915 0.0088910135 4539460
0.012342599 -0.032610696 0.0068350942 7628133
0.17269608 -0.024093386 0.035182107 8154477
0.17397639 -0.02412284 0.036061306 8617341
0.17536344 -0.024065709 0.036417283 7039851
0.17675638 -0.024003102 0.036739741 6908265
0.17814685 -0.023941664 0.037068788 8156276
0.17953628 -0.023880266 0.037397474 8022120
0.18028548 -0.024310615 0.040679168 8025461
0.18148731 -0.024387617 0.041834962 9142914
0.18279926 -0.024378417 0.042472035 10323333
0.18417792 -0.024317497 0.042798266 9733509
0.18555565 -0.024256554 0.043123782 10192518
0.18698558 -0.024156066 0.043212134 8091768
0.18860658 -0.023914276 0.042455845 12222078
-0.10927583 -0.046455182 0.024868552 8092282
-0.10778361 -0.046352509 0.024976783 7763574
-0.10629174 -0.046249878 0.025085008 7763317
-0.10480026 -0.046147238 0.02519306 7697781
-0.10330915 -0.046044637 0.025301106 7303023
-0.10181838 -0.045942079 0.025409337 7303023
-0.10032799 -0.045839541 0.025517384 9997709
-0.098837987 -0.045737006 0.025625311 7697781
-0.09734834 -0.045634486 0.025733246 7631988
-0.095859058 -0.045532003 0.025841113 7566195
-0.094370134 -0.045429558 0.025949042 7368816
-0.092881583 -0.045327131 0.026056908 8026489
-0.091393404 -0.045224722 0.026164781 9472907
-0.089905858 -0.045121945 0.026269652 8618626
-0.088418797 -0.045018986 0.026373152 9144199
-0.086932085 -0.044916071 0.026476707 9866380
-0.085447125 -0.044810966 0.026564576 9932173
-0.083962798 -0.044705376 0.026648665 9275528
-0.082478762 -0.044599775 0.026732702 8684162
-0.080995008 -0.044494212 0.026816735 9473164
-0.079511531 -0.04438867 0.026900768 9932430
-0.078028336 -0.044283152 0.0269848 9932430
-0.07654544 -0.044177644 0.02706871 11830147
-0.075062819 -0.044072151 0.027152687 10457232
-0.0735806 -0.043966465 0.027235042 9998223
-0.072099157 -0.043859869 0.027310871 7895160
-0.070621312 -0.043746799 0.02734082 9867408
-0.069146983 -0.043626949 0.027323045 12223106
-0.067674853 -0.043502506 0.027272861 11178128
-0.066211008 -0.043360371 0.027098412 10063759
-0.064751416 -0.043207817 0.026851077 11111307
-0.063293025 -0.04305071 0.0265723 9800587
-0.061837796 -0.042884242 0.026228365 7434609
-0.060387511 -0.042703498 0.025784945 7434609
-0.058941953 -0.042507712 0.025237268 8355711
-0.057499245 -0.042300209 0.024608493 9078663
-0.056054477 -0.042092383 0.023978766 9866123
-0.054610942 -0.041875608 0.023287646 9997452
-0.053176511 -0.041627642 0.022380328 9931402
-0.051741511 -0.041372482 0.021424556 9931402
-0.050306268 -0.041108429 0.02040872 9931402
-0.048869245 -0.040839165 0.019358566 9144199
-0.047428802 -0.040569279 0.018305954 7697781
-0.045982536 -0.040306482 0.017304549 7303023
-0.044530995 -0.040049832 0.016347643 7566195
-0.043066043 -0.039828692 0.015638562 7829367
-0.041600496 -0.039600808 0.014884081 8553090
-0.04012955 -0.039383654 0.014205181 9603208
-0.038659398 -0.039153978 0.013441059 12091777
-0.037184753 -0.038932178 0.012732632 11764611
-0.035687145 -0.038801443 0.012653648 12162453
-0.034186825 -0.038682129 0.012653477 10131094
-0.032686494 -0.038562872 0.012653664 9802900
-0.031186163 -0.038443636 0.012653908 10787482
-0.029685834 -0.038324364 0.0126541 11312541
-0.028185511 -0.03820508 0.012654108 11378077
-0.026685188 -0.038085788 0.012654055 11181212
-0.025190096 -0.037929986 0.012403845 8879485
-0.024994526 -0.027897075 -0.055463854 9604493
-0.023377361 -0.027786795 -0.055339936 7104359
-0.020732859 -0.037156943 0.0095673809 6839131
-0.019215979 -0.037154596 0.01036853 5459534
-0.017710635 -0.037048746 0.010462265 3815994
-0.016205609 -0.036942903 0.010555943 2763306
-0.014700897 -0.036837101 0.010649618 4802375
-0.013196503 -0.036731295 0.010743175 8151393
-0.011692517 -0.036623113 0.010820318 8478816
-0.010188836 -0.036513321 0.010886444 5393741
-0.0086853765 -0.036403552 0.010952632 3420979
-0.007182146 -0.036292855 0.011012411 2039583
-0.0056790956 -0.036179241 0.011052242 2105376
-0.0041761808 -0.036065623 0.011092078 5196619
-0.0026733996 -0.035952013 0.011131854 5656656
-0.0011707513 -0.035838429 0.011171686 4276288
0.00033176097 -0.035724841 0.01121146 4144702
0.0018341413 -0.035611261 0.011251235 4210752
0.0033365362 -0.035495654 0.011277359 4276545
0.0048391325 -0.035376728 0.011280958 4407874
0.0063437521 -0.035236824 0.011143579 4276545
0.0078532184 -0.035056397 0.010734241 3750201
0.0093704341 -0.034822524 0.0099670049 2171169
0.010900422 -0.034510449 0.0086768745 3815737
0.012454818 -0.034056526 0.0064388737 5525327
0.1728579 -0.025440669 0.034468811 7629161
0.17413497 -0.025471484 0.035365548 10256769
0.17552406 -0.025412446 0.035713751 8945021
0.17691554 -0.025350703 0.036045007 8879228
0.17830659 -0.025288515 0.036373034 9599353
0.17925166 -0.02556756 0.038772631 8022120
0.18030547 -0.025758304 0.040632565 9273729
0.18160658 -0.025757793 0.041329924 9799045
0.1829596 -0.025716715 0.041780483 10061960
0.18433863 -0.025655245 0.042106766 8552319
0.18571666 -0.025593782 0.042432632 8420990
0.18712333 -0.025510503 0.042626206 7171437
0.18865439 -0.025335876 0.042267837 11373708
-0.10916477 -0.047858421 0.024394531 9669515
-0.10767256 -0.047755577 0.024502818 9603979
-0.10618071 -0.047652759 0.024611043 9669515
-0.10468923 -0.047549967 0.024719208 9604236
-0.10319813 -0.047447179 0.024827255 7434609
-0.10170738 -0.047344428 0.024935424 7237230
-0.10021697 -0.047241744 0.025043705 11959934
-0.098726958 -0.047139045 0.025151752 9538186
-0.097237311 -0.047036372 0.025259798 9472650
-0.095748037 -0.046933707 0.025367728 9144199
-0.094259128 -0.046831071 0.025475657 7237230
-0.092770584 -0.046728477 0.02558358 7960696
-0.091282405 -0.046625897 0.025691448 9472907
-0.089794591 -0.046523359 0.025799371 8618626
-0.088307142 -0.046420816 0.025907183 9143942
-0.086820051 -0.046318334 0.026015045 9866123
-0.08533334 -0.046215843 0.026122795 9866123
-0.083847098 -0.046113227 0.026229342 9143942
-0.082361475 -0.046010204 0.026332838 8026746
-0.080877043 -0.045905825 0.026426323 7894903
-0.079393715 -0.045800161 0.026510337 7960953
-0.077910662 -0.045694511 0.026594417 8092539
-0.076427907 -0.045588873 0.026678374 9997709
-0.074945427 -0.045483269 0.026762454 10063502
-0.073463239 -0.045377675 0.026846351 11569031
-0.071981482 -0.04527181 0.026928211 9472907
-0.070503674 -0.045158911 0.02695974 10786197
-0.069031365 -0.045035422 0.026915707 10588047
-0.067564033 -0.044901572 0.026797846 9275785
-0.066097587 -0.044765022 0.026661051 8092282
-0.064641088 -0.044606343 0.026367268 10128524
-0.063183598 -0.044447575 0.026073361 10783627
-0.061728001 -0.044282272 0.025733612 8421247
-0.060277618 -0.044102211 0.025289902 7368816
-0.058831822 -0.043907605 0.024743965 7434609
-0.057388999 -0.043701086 0.02411486 7303023
-0.055944115 -0.043494262 0.02348467 9406600
-0.054502107 -0.043274276 0.022762742 9209735
-0.053067029 -0.043028932 0.021863332 8881027
-0.051631931 -0.042774994 0.020905016 8552576
-0.050196763 -0.042511743 0.019882884 8355454
-0.04875952 -0.04224414 0.018832047 7829367
-0.04731847 -0.0419771 0.017787144 7368816
-0.045870375 -0.041721106 0.016821818 7368816
-0.044413492 -0.04148338 0.015986461 7895160
-0.042947978 -0.041265711 0.015293174 8816005
-0.041476037 -0.041062716 0.014704034 9079177
-0.039999273 -0.040870368 0.014190516 9539471
-0.038516358 -0.0406955 0.013800074 11376792
-0.037031841 -0.040521719 0.013418024 11443099
-0.035544902 -0.040352855 0.013070968 11443613
-0.034057707 -0.040179648 0.012694248 10590874
-0.032559436 -0.040054612 0.012653688 9933972
-0.031059906 -0.039935421 0.012653937 10721689
-0.029560376 -0.039816234 0.012654185 11049883
-0.028060846 -0.039697044 0.012654434 11180955
-0.026561324 -0.039577819 0.01265438 11246748
-0.025073987 -0.039373979 0.012067879 8222840
-0.025078537 -0.027872683 -0.066755839 9209734
-0.0234432 -0.027761173 -0.066628978 9599867
-0.02061855 -0.038592134 0.0091373213 9795961
-0.01911322 -0.038471308 0.0091294786 9994625
-0.017607864 -0.038350467 0.0091216406 6710629
-0.016102482 -0.038229637 0.0091137979 4342081
-0.014597071 -0.038108807 0.0091059553 6315357
-0.013095307 -0.037915029 0.0085962741 9990770
-0.011586565 -0.037857015 0.0090207644 10383729
-0.010079867 -0.037776377 0.0092890384 8021606
-0.0085741654 -0.037689842 0.009516513 5722706
-0.0070692711 -0.037593033 0.0096729733 2236962
-0.0055649122 -0.037497539 0.0098382458 1513239
-0.0040611373 -0.037403587 0.010013702 2697256
-0.0025579531 -0.037309662 0.01018904 2829099
-0.0010548715 -0.037204143 0.010284924 1973790
0.00044791828 -0.03709811 0.01037709 1973790
0.0019503965 -0.036992088 0.0104692 1907997
0.003452566 -0.036886085 0.010561248 1973790
0.004954427 -0.036780123 0.010653353 1973790
0.006458709 -0.036646552 0.010557669 1973790
0.0079667866 -0.036481485 0.010248123 1776411
0.009483357 -0.036255073 0.0095227789 1447446
0.011010256 -0.035969134 0.0083951242 2763306
0.012568245 -0.035493571 0.005984975 2960685
0.17301984 -0.02678871 0.033755075 5592148
0.17429362 -0.02682087 0.034669481 9142657
0.17568475 -0.026759911 0.035009786 9863553
0.17707478 -0.026699021 0.035349846 10974838
0.17846644 -0.026636081 0.035676848 9138288
0.17920132 -0.027070841 0.039056785 8551034
0.18042846 -0.027126962 0.040109966 8552062
0.18173972 -0.02711774 0.040761326 8946306
0.18312006 -0.027055737 0.04108844 9340550
0.18449946 -0.026993683 0.041414842 7763317
0.1858778 -0.02693169 0.041741002 7039851
0.1872631 -0.02686392 0.042031389 7434609
0.18873025 -0.026736276 0.041956015 8880513
-0.10905372 -0.049261689 0.023920562 10390668
-0.10756151 -0.049158674 0.024028843 10652555
-0.10606966 -0.049055669 0.02413713 11436674
-0.10457818 -0.048952706 0.024245352 11569031
-0.10308709 -0.048849735 0.024353459 9275785
-0.10159636 -0.048746809 0.024461562 9078663
-0.10010596 -0.048643943 0.024569906 11373451
-0.098615944 -0.04854108 0.024678132 10587790
-0.097126298 -0.048438244 0.024786295 9800330
-0.095637023 -0.048335426 0.024894338 10129038
-0.094148114 -0.048232619 0.025002323 7894903
-0.092659578 -0.048129842 0.025110308 8421247
-0.091171406 -0.048027091 0.025218232 11047570
-0.0896836 -0.047924366 0.025326157 9932430
-0.088196158 -0.047821667 0.025434019 9275528
-0.086709075 -0.047719002 0.025541943 9144199
-0.085222371 -0.04761634 0.025649749 9538443
-0.083736017 -0.047513731 0.025757613 9144456
-0.082250036 -0.047411121 0.025865357 7895160
-0.08076442 -0.047308549 0.025973164 7368816
-0.079279162 -0.047206014 0.026080903 7368816
-0.077794269 -0.047103494 0.026188647 7368816
-0.076310396 -0.046999872 0.02628818 8355454
-0.074828066 -0.046894126 0.026372183 8618369
-0.073346011 -0.046788406 0.026456188 10783884
-0.071865067 -0.046681188 0.026529096 9931916
-0.070387527 -0.046567969 0.026558664 9867408
-0.068920583 -0.046434298 0.026440501 8618626
-0.06745325 -0.046300579 0.026322283 7960696
-0.06598796 -0.046161834 0.02616803 7434609
-0.064531565 -0.046003215 0.02587115 9931916
-0.063073993 -0.045844924 0.025577083 11764868
-0.061618198 -0.045680393 0.025238834 9341321
-0.060168382 -0.045499515 0.024783975 8223868
-0.058721684 -0.045307573 0.024250699 7368816
-0.057278752 -0.045102037 0.023621075 7303023
-0.055834271 -0.044894889 0.022981141 7500402
-0.054393262 -0.044673096 0.022237726 7303023
-0.052957527 -0.044430383 0.021346344 7237230
-0.051522482 -0.044177283 0.020382663 7368816
-0.05008724 -0.043915238 0.019356987 7697781
-0.04864978 -0.043649297 0.018305467 8026489
-0.047206812 -0.043389108 0.017296938 7829367
-0.045757003 -0.043139637 0.01636653 7434609
-0.044295337 -0.042918831 0.015641402 8289918
-0.042828973 -0.042705659 0.01497173 9670543
-0.041354634 -0.042512935 0.014448161 8881798
-0.039877459 -0.042324118 0.013953375 8355711
-0.038388271 -0.042176086 0.013747923 8750212
-0.036897447 -0.04203191 0.013570108 8947848
-0.035406031 -0.041887663 0.013392176 9868179
-0.033917256 -0.041728422 0.013108722 10591131
-0.032422569 -0.041593339 0.012996139 10656924
-0.030926088 -0.041465566 0.012935176 10197401
-0.029430257 -0.041333035 0.012840876 8882055
-0.027934106 -0.041200515 0.012746818 9408142
-0.02643724 -0.041070513 0.012670563 9868436
-0.024942622 -0.040923174 0.012472966 6316128
-0.023452904 -0.040733881 0.011981714 8092282
-0.021954842 -0.040599808 0.011877944 10127239
-0.020454619 -0.040482316 0.011890364 10912900
-0.018954901 -0.040360074 0.011869506 9536387
-0.017458709 -0.040195696 0.011554578 7237230
-0.015983518 -0.039731357 0.0091484161 6447457
-0.014478914 -0.039611481 0.0091466848 8881541
-0.012974331 -0.03949108 0.009141298 10917012
-0.011469727 -0.039370738 0.0091363294 10982548
-0.0099651022 -0.039250545 0.0091323797 10917012
-0.0084604649 -0.039130334 0.0091284337 9867408
-0.0069558127 -0.039010163 0.0091246022 7895160
-0.0054511493 -0.038889952 0.0091206562 7763574
-0.0039464715 -0.038769756 0.0091167064 7895160
-0.0024417809 -0.038649566 0.0091128787 7697524
-0.00093707605 -0.038529366 0.009108928 6513507
0.00056764111 -0.038409173 0.0091050398 5789784
0.0020723708 -0.03828897 0.0091010891 5592405
0.0035771141 -0.038168773 0.0090971999 4473924
0.0050826799 -0.038039505 0.0090309633 4473924
0.0065929419 -0.037865926 0.0086599784 2631720
0.0080993576 -0.037737571 0.0086003905 2631720
0.0096115498 -0.037564155 0.0082316864 3158064
0.011136046 -0.037308838 0.0073018768 3618358
0.012703706 -0.036780264 0.004501278 6578529
0.17318185 -0.028137529 0.033040952 6512736
0.1744525 -0.028170858 0.033972394 7434352
0.17584555 -0.028108122 0.034305383 8222840
0.17723407 -0.028048074 0.034654438 9797246
0.17822285 -0.02828957 0.036873862 6838874
0.1792388 -0.028505657 0.03893207 7631731
0.18054779 -0.028498562 0.039604392 7105644
0.18189992 -0.028458018 0.040068682 7763317
0.18328065 -0.028395429 0.040395793 9143428
0.18466033 -0.028332854 0.040722549 9472136
0.18603899 -0.028270347 0.041049123 7368816
0.1874166 -0.028207883 0.041375395 9274757
0.18885289 -0.028102685 0.041437816 9669258
-0.10894266 -0.050664969 0.023446526 8881284
-0.10745046 -0.050561771 0.023554871 9406600
-0.10595862 -0.05045861 0.023663208 11830147
-0.10446715 -0.050355446 0.023771435 12287871
-0.10297606 -0.050252318 0.023879593 11176329
-0.10148533 -0.050149206 0.023987759 10980749
-0.099994957 -0.050046146 0.02409604 10457489
-0.098504923 -0.049943142 0.024204502 10391696
-0.097015277 -0.049840137 0.024312722 9669258
-0.09552601 -0.049737155 0.024420882 9209735
-0.094037108 -0.049634177 0.024528924 8815748
-0.092548579 -0.049531233 0.024636965 9407114
-0.091060407 -0.049428295 0.02474495 12093319
-0.089572608 -0.049325407 0.024852993 11308686
-0.088085175 -0.049222533 0.024960849 10325903
-0.086598098 -0.049119677 0.025068775 9604236
-0.085111387 -0.049016871 0.025176754 10195088
-0.083625056 -0.048914067 0.025284557 10063502
-0.082139067 -0.048811298 0.02539248 8749955
-0.080653459 -0.048708551 0.025500281 7895160
-0.079168215 -0.048605833 0.025608083 7434609
-0.07768333 -0.048503138 0.025715822 7303023
-0.076198809 -0.048400477 0.025823625 7303023
-0.074714653 -0.048297822 0.025931308 7368816
-0.073231712 -0.048193682 0.026027894 8881284
-0.071752839 -0.04808268 0.026074031 9078406
-0.070276804 -0.047966614 0.026083035 8289918
-0.068809837 -0.04783313 0.025964811 7303023
-0.067342401 -0.047699735 0.02584755 7303023
-0.065878242 -0.04755887 0.025675936 7434609
-0.064422034 -0.047400184 0.025374938 9932173
-0.06296438 -0.047242336 0.025080658 11373708
-0.061508391 -0.047078595 0.024744026 9866894
-0.060059384 -0.046896361 0.024273934 10391696
-0.058611542 -0.046707619 0.023757342 8552833
-0.057168491 -0.046503082 0.023127384 8749955
-0.055724666 -0.046295036 0.022473253 8815748
-0.054284394 -0.046072118 0.021712765 8947077
-0.052848019 -0.045831967 0.020829249 9144456
-0.051413011 -0.04557975 0.019860314 9407114
-0.049977701 -0.04531892 0.018831028 9801358
-0.048539627 -0.045055777 0.017787233 10195345
-0.047094874 -0.044801991 0.016812718 9210249
-0.045639277 -0.044571847 0.016010121 7697781
-0.044177219 -0.044353865 0.01529636 8158075
-0.042707767 -0.044152796 0.014705452 8947591
-0.04123316 -0.043962911 0.014195823 8684676
-0.039752256 -0.043790024 0.013808985 9407885
-0.038262606 -0.043646254 0.013631256 9276556
-0.036772359 -0.043502416 0.01345347 9210763
-0.035281517 -0.043358523 0.013275561 10656410
-0.033788145 -0.043223433 0.013160755 11901337
-0.032291077 -0.04310438 0.013160584 11901594
-0.030794004 -0.042985346 0.01316053 10459545
-0.029296933 -0.042866297 0.013160421 8289918
-0.02779986 -0.042747263 0.013160306 9999508
-0.026303081 -0.042626347 0.013147002 10984347
-0.024806662 -0.04250266 0.013113959 9145227
-0.023309736 -0.042381939 0.013101969 9144970
-0.021812702 -0.042261764 0.013093815 9933972
-0.02031564 -0.042141575 0.013085728 10131094
-0.018818792 -0.042018928 0.013060181 9408142
-0.017323216 -0.041880354 0.012922224 8684676
-0.015833927 -0.041649938 0.012136483 7960953
-0.014361277 -0.041106213 0.009143576 6842472
-0.012857465 -0.040986381 0.0091417888 7763574
-0.011353645 -0.040866561 0.0091399355 7829367
-0.0098498203 -0.040746737 0.0091380822 8750469
-0.0083459886 -0.040626921 0.0091362903 9933715
-0.0068421513 -0.040507082 0.0091344416 9276556
-0.0053383079 -0.040387262 0.0091326497 9276556
-0.0038344474 -0.040266961 0.0091274371 9868179
-0.0023305686 -0.040146586 0.0091218706 10459802
-0.00082667026 -0.040026218 0.009116238 9079177
0.00067724026 -0.039905962 0.0091114491 7960953
0.00218116 -0.039785817 0.0091074379 7960953
0.0036850912 -0.039665699 0.0091035441 7960953
0.0051895394 -0.039540052 0.0090612639 7895160
0.0067089098 -0.039270788 0.0080198068 5329233
0.0083178421 -0.038249698 0.0017542187 3684151
0.0097945929 -0.038442411 0.0039297161 6773081
0.011324372 -0.038197238 0.0030630564 7495262
0.17334397 -0.029487135 0.032326374 8022634
0.17461146 -0.029521581 0.03327493 6908265
0.17600463 -0.029458452 0.033609182 6710629
0.1773936 -0.029397735 0.033957943 7629932
0.17815217 -0.029808039 0.037259303 7694954
0.1793645 -0.029873747 0.038396392 8683391
0.18067823 -0.029862111 0.039047483 7894903
0.18206026 -0.029798977 0.039375432 9209221
0.18344133 -0.029735843 0.039702777 10979207
0.18482132 -0.029672746 0.040029887 10718605
0.18620029 -0.029609712 0.040356752 9931916
0.18757822 -0.029546715 0.040683381 11240837
0.18897946 -0.02946651 0.040902216 10587533
-0.1088333 -0.052066345 0.022957902 7631988
-0.1073394 -0.051964875 0.02308083 8158075
-0.10584757 -0.051861547 0.023189224 10260110
-0.10435612 -0.051758211 0.023297507 10718862
-0.10286503 -0.05165492 0.023405785 12089464
-0.10137431 -0.05155164 0.023514006 12221564
-0.099883944 -0.051448386 0.023622226 10391953
-0.098393917 -0.051345211 0.023730744 10326417
-0.09690427 -0.051242039 0.023839083 9932687
-0.095415004 -0.051138874 0.023947304 7763317
-0.093926102 -0.051035736 0.024055524 10195345
-0.092437565 -0.050932623 0.024163684 10653840
-0.090949401 -0.050829533 0.024271721 12092805
-0.08946161 -0.050726455 0.024379762 11765639
-0.087974183 -0.050623417 0.024487738 11569288
-0.086487114 -0.050520394 0.024595719 11047313
-0.085000411 -0.050417397 0.0247037 11374993
-0.083514079 -0.050314423 0.024811557 11504009
-0.082028106 -0.050211485 0.024919538 10522768
-0.080542497 -0.050108567 0.025027396 9341578
-0.079057261 -0.050005678 0.025135253 8026746
-0.077572376 -0.049902804 0.025243117 7500402
-0.07608787 -0.049799971 0.025350913 7500402
-0.074603714 -0.04969715 0.025458714 7500402
-0.073120974 -0.049592506 0.025552709 7434609
-0.071642287 -0.049481075 0.025596291 7500402
-0.070166096 -0.049365271 0.02560734 7368816
-0.068699099 -0.049231961 0.025488995 7303023
-0.067231268 -0.049099486 0.025377072 7434609
-0.065768525 -0.048955984 0.025183881 7631988
-0.064312309 -0.048797622 0.024881642 9670029
-0.062854767 -0.048639849 0.024584264 9472907
-0.061398577 -0.04847686 0.024249135 9932944
-0.059950378 -0.048293345 0.023763783 12419457
-0.058502119 -0.048106067 0.023251722 10720404
-0.057058226 -0.047904193 0.02263361 10851219
-0.055615041 -0.047695313 0.021965323 10982034
-0.054175518 -0.047471303 0.021187626 11178128
-0.052738499 -0.047233708 0.020312103 11373965
-0.051303532 -0.046982378 0.019337846 11635338
-0.049868159 -0.046722755 0.018305017 11896454
-0.048428111 -0.046466339 0.017297573 12223877
-0.046980117 -0.046223409 0.016390359 10654354
-0.045521587 -0.046003688 0.015653772 8289918
-0.044058468 -0.045790661 0.0149673 7895160
-0.042586163 -0.045600809 0.014450621 8092539
-0.041110776 -0.045415603 0.013968567 9342092
-0.039626122 -0.045258656 0.013692375 11115419
-0.038137041 -0.045115225 0.013514673 10918554
-0.036647368 -0.044971742 0.013336911 10590103
-0.035156291 -0.044831697 0.013184293 10983833
-0.033660773 -0.044709459 0.013160594 11114391
-0.032164499 -0.044590492 0.013160541 11246234
-0.030668225 -0.044471506 0.013160431 10065301
-0.029171951 -0.04435252 0.013160321 8421504
-0.027675675 -0.044233546 0.013160206 10589846
-0.026179399 -0.044114579 0.013160153 12031381
-0.024683123 -0.043995593 0.013160044 9736850
-0.023186846 -0.043876626 0.013159991 8421504
-0.021690572 -0.04375764 0.013159881 8224125
-0.020194294 -0.043638673 0.013159828 8289918
-0.018698009 -0.043519773 0.013160316 8158332
-0.017201757 -0.043400496 0.013158105 8158332
-0.015709709 -0.043223877 0.012746392 7960953
-0.014233091 -0.042773243 0.010380874 5723991
-0.012740747 -0.042479604 0.0091387024 7500402
-0.011237724 -0.042359844 0.00913685 7631988
-0.0097346939 -0.042240091 0.0091350572 9538957
-0.0082316576 -0.042120337 0.0091332654 11833745
-0.0067286156 -0.042000577 0.009131413 11702673
-0.0052255671 -0.041880816 0.0091295596 11702930
-0.0037225136 -0.041761059 0.0091277678 11899538
-0.0022194535 -0.041641302 0.009125975 12030867
-0.00071638776 -0.041521542 0.0091241831 10590103
0.0007866844 -0.041401785 0.0091223912 9144970
0.0022897639 -0.041282002 0.009120482 8881798
0.0037928503 -0.041162256 0.0091186855 8816262
0.0052992832 -0.041006636 0.0088642212 7237230
0.0068221935 -0.040702134 0.0075622126 7302766
0.17350616 -0.03083751 0.03161148 9529705
0.17477064 -0.030872926 0.032576505 7631731
0.17616379 -0.030809503 0.032912612 7105130
0.1771917 -0.031017715 0.034970794 7234917
0.17818439 -0.031247452 0.037161853 9470851
0.17948702 -0.031244434 0.037875645 10323847
0.1808383 -0.031204347 0.038353689 8617855
0.1822207 -0.031140648 0.03868169 9800073
0.18360206 -0.031076979 0.039009396 10258825
0.18498239 -0.03101336 0.03933686 9472393
0.18636167 -0.030949805 0.039664079 10521997
0.18773988 -0.030886292 0.039991122 10651784
0.18911707 -0.030822819 0.040317804 9143685
-0.10873669 -0.05345346 0.022359129 7500145
-0.1072299 -0.053366251 0.022593332 8355197
-0.10573652 -0.053264502 0.022715298 7368816
-0.10424508 -0.053160992 0.022823576 7171180
-0.10275399 -0.053057536 0.022931971 11504266
-0.10126327 -0.052954085 0.023040248 11830918
-0.099772923 -0.052850641 0.02314847 11961733
-0.098282926 -0.052747268 0.023256803 12027269
-0.096793264 -0.052643944 0.023365444 11505037
-0.095303997 -0.052540626 0.023473777 8026746
-0.093815096 -0.052437317 0.023582054 12094604
-0.092326567 -0.052334037 0.02369027 12092291
-0.090838403 -0.052230768 0.023798492 11373965
-0.089350611 -0.052127536 0.023906585 9735565
-0.087863185 -0.05202432 0.024014683 10718862
-0.086376131 -0.051921122 0.024122659 10981006
-0.084889427 -0.051817954 0.024230696 9866894
-0.083403103 -0.051714797 0.024338614 11112849
-0.081917144 -0.051611684 0.02444659 12027269
-0.080431536 -0.051508598 0.024554504 11896454
-0.078946307 -0.051405527 0.024662424 10261138
-0.077461429 -0.051302496 0.024770338 8749955
-0.075976923 -0.051199477 0.024878196 8487040
-0.074492775 -0.051096488 0.024986055 8487040
-0.073010243 -0.050991334 0.025077395 8421504
-0.071532175 -0.050878696 0.025112411 9342092
-0.070055373 -0.050763957 0.025131635 7434609
-0.068588279 -0.050630979 0.025014307 7368816
-0.06712012 -0.050499257 0.02490665 8421247
-0.065658808 -0.050353162 0.02469174 9539214
-0.06420251 -0.050195288 0.024389338 8552833
-0.062745139 -0.050037462 0.024087897 7566195
-0.061288755 -0.049875215 0.023754215 9933201
-0.059841361 -0.049690455 0.02325359 12289156
-0.058392975 -0.049503982 0.022741195 12028040
-0.056947995 -0.049305275 0.022139091 11701131
-0.055505414 -0.049095701 0.021457355 11373965
-0.054066632 -0.048870657 0.020662431 10718348
-0.052628964 -0.048635591 0.019794907 10325646
-0.051194038 -0.048385166 0.018815389 9800844
-0.049758185 -0.048127908 0.017787352 9209735
-0.04831659 -0.047876962 0.016807895 8749955
-0.046862364 -0.047653653 0.016034288 8552833
-0.045403838 -0.047435425 0.01529953 8750212
-0.043936871 -0.047236294 0.014706851 8421504
-0.042464174 -0.047049597 0.01420683 8684676
-0.040985897 -0.046876509 0.01380769 11179413
-0.039500084 -0.0467261 0.013575849 12618121
-0.038011577 -0.046583023 0.013398171 12552328
-0.036521599 -0.046443466 0.013246614 12225933
-0.035029005 -0.046312846 0.01316075 10130323
-0.033533532 -0.04619392 0.013160579 8421504
-0.032038052 -0.046075027 0.013160648 8553090
-0.030542577 -0.045956094 0.013160416 9079177
-0.0290471 -0.045837179 0.01316024 8816005
-0.027551621 -0.04571826 0.013160191 10852247
-0.026056141 -0.045599356 0.013160138 12552071
-0.02456066 -0.045480449 0.013160024 10655896
-0.023065181 -0.045361526 0.013159915 8882055
-0.021569701 -0.045242622 0.013159862 8553090
-0.020074215 -0.04512376 0.013160171 8487297
-0.018578738 -0.045004804 0.013159821 8355711
-0.017085249 -0.044862617 0.012991328 8026746
-0.015593443 -0.044689734 0.012601437 7829110
-0.014126378 -0.044090897 0.0091371965 8024947
-0.012624155 -0.043971207 0.0091354046 9867151
-0.011121926 -0.04385151 0.0091335513 8816005
-0.0096196905 -0.04373182 0.0091317594 9144713
-0.0081174476 -0.043612141 0.0091299629 10458260
-0.0066152005 -0.043492444 0.0091281096 10458517
-0.0051129474 -0.04337275 0.0091263177 10392981
-0.0036106876 -0.043253057 0.0091245258 10392981
-0.0021084216 -0.043133359 0.0091226725 10524310
-0.00060610817 -0.043012809 0.0091147544 11049369
0.0008969038 -0.042880964 0.0090259453 10851990
0.0024008723 -0.042739846 0.008871207 10128267
0.003906036 -0.042590588 0.0086586401 9535616
0.0054166927 -0.042391077 0.0080881799 6972773
0.17366846 -0.032188669 0.030896131 9333097
0.17493065 -0.032224435 0.031874105 9471879
0.17632309 -0.032161266 0.032215551 8287091
0.17710088 -0.032550775 0.035458222 9140601
0.17829593 -0.03262753 0.036692243 9471879
0.17961478 -0.032611519 0.037330512 10193032
0.18099852 -0.032547258 0.037659228 8683648
0.18238124 -0.032483019 0.037987527 8815234
0.18376291 -0.032418836 0.038315646 9340807
0.18514353 -0.032354694 0.038643464 8683905
0.18652312 -0.032290608 0.03897104 9931916
0.18790166 -0.032226566 0.039298374 8881027
0.18927914 -0.032162596 0.039625529 7894903
-0.10865282 -0.054826837 0.02164997 7565424
-0.10713463 -0.054751657 0.021980964 9930374
-0.10562689 -0.05466586 0.022228809 7631988
-0.10413403 -0.054563791 0.0223497 7039851
-0.10264295 -0.054460146 0.022458095 8881284
-0.10115224 -0.054356523 0.02256643 8026489
-0.099661894 -0.054252934 0.022674764 8092282
-0.09817192 -0.054149363 0.022783035 8158075
-0.096682265 -0.054045867 0.022891672 8223868
-0.095192984 -0.05394239 0.023000246 8223868
-0.09370409 -0.053838901 0.023108585 8289404
-0.092215568 -0.05373545 0.023216857 8355197
-0.090727411 -0.053632013 0.023325134 8223868
-0.089239605 -0.053528618 0.023433406 7829110
-0.087752193 -0.053425226 0.023541501 8092282
-0.086265139 -0.053321861 0.023649594 8223868
-0.08477845 -0.053218529 0.023757687 7895160
-0.083292119 -0.053115204 0.023865724 8355454
-0.081806168 -0.053011924 0.023973756 9669258
-0.080320567 -0.052908652 0.024081731 11438473
-0.078835338 -0.052805405 0.024189647 11701388
-0.077350475 -0.052702192 0.024297623 11112335
-0.075865977 -0.052598998 0.024405476 10981263
-0.074381836 -0.052495837 0.02451339 10915727
-0.07289958 -0.052390076 0.024601234 10915984
-0.071422078 -0.052276347 0.02462846 11309457
-0.06994468 -0.052162621 0.024655687 8223868
-0.068477154 -0.052030575 0.024543881 7368816
-0.067008972 -0.051899035 0.024436163 9407114
-0.065549083 -0.051750425 0.024199571 11506065
-0.064092703 -0.051593028 0.023897009 9341321
-0.062635325 -0.051435523 0.023594268 7303023
-0.061179165 -0.051273163 0.023255538 7895160
-0.059732333 -0.051087711 0.022743411 8289661
-0.058283813 -0.050902031 0.022230687 7960953
-0.056838498 -0.050704736 0.021631561 7631731
-0.055395827 -0.050496072 0.020948388 7237230
-0.053957727 -0.0502702 0.020137234 7237230
-0.052519608 -0.050037146 0.019274058 7105644
-0.051084533 -0.049788106 0.018292818 7105644
-0.049646791 -0.049537089 0.017298659 7171437
-0.048201147 -0.049298801 0.016401714 8618369
-0.046744641 -0.049083531 0.015678341 10523282
-0.04528534 -0.048869178 0.014963383 11178642
-0.043814711 -0.048683226 0.014461411 10589332
-0.042341422 -0.048500404 0.013983773 9210506
-0.040861107 -0.048336383 0.013646905 8881798
-0.039374147 -0.048192378 0.013459397 9144970
-0.037885264 -0.048053294 0.013308845 9867922
-0.036395069 -0.047917403 0.013182262 10786968
-0.034901109 -0.047795668 0.013160697 9539471
-0.033406429 -0.047676802 0.013160464 9079434
-0.031911738 -0.047557998 0.013160713 10786711
-0.030417062 -0.04743911 0.013160424 11900566
-0.028922383 -0.047320239 0.013160192 9736593
-0.027427698 -0.047201399 0.013160139 11049112
-0.025933014 -0.047082555 0.013160025 10195859
-0.024438331 -0.046963695 0.013159915 11048855
-0.022943646 -0.046844851 0.013159862 11834773
-0.021448957 -0.046726044 0.013160049 11768980
-0.019954275 -0.046607155 0.01315976 11703187
-0.018462582 -0.046457786 0.012935963 11636109
-0.016971389 -0.046293758 0.012605282 11503238
-0.015484601 -0.046054374 0.011724138 10382958
-0.014009112 -0.045580901 0.0091342842 10255741
-0.012507683 -0.045461286 0.0091324262 11963532
-0.011006248 -0.045341648 0.0091305124 10261138
-0.0095048081 -0.045221992 0.0091285408 9078920
-0.0080033606 -0.04510235 0.0091266269 9079177
-0.0065019052 -0.044982735 0.0091248294 8487040
-0.0050003645 -0.044856627 0.0090759955 7895160
-0.0034985291 -0.044725254 0.0089889439 7500402
-0.00199572 -0.044575393 0.0087679699 6513507
-0.00049221283 -0.044426322 0.0085532498 8419448
0.001013796 -0.044248007 0.0081273429 9270902
0.0025232933 -0.044041455 0.0074980604 8022891
0.0040515861 -0.04363887 0.0054541002 6774109
0.005624427 -0.042847995 0.00061239739 6577758
0.17383085 -0.033540588 0.030180341 9072752
0.17509075 -0.033576697 0.031171329 11240323
0.17607231 -0.033815175 0.033472989 6840673
0.17713358 -0.033990487 0.035361409 8880256
0.17842169 -0.03399732 0.036155812 8355197
0.17977473 -0.033955719 0.036635507 8749441
0.18115884 -0.033890892 0.036964402 8881027
0.18254186 -0.033826131 0.03729305 8289404
0.18392384 -0.033761427 0.037621524 9537929
0.18530479 -0.033696763 0.037949696 9997195
0.18668465 -0.033632159 0.038277686 9866637
0.1880635 -0.033567589 0.038605381 7565938
0.18944132 -0.03350307 0.038932767 9603979
-0.10897964 -0.055750716 0.017385511 7957098
-0.10706414 -0.056109849 0.021150293 8874088
-0.10553276 -0.056049731 0.021604037 9929603
-0.10403129 -0.055957071 0.021800674 7829110
-0.10253462 -0.055859633 0.021959383 10390411
-0.10104121 -0.055758994 0.022092601 10062731
-0.099550873 -0.055655219 0.022200996 7171437
-0.098060898 -0.055551484 0.022309387 7368816
-0.096571274 -0.055447783 0.022417838 10128524
-0.095081985 -0.055344149 0.022526592 10062474
-0.093593083 -0.055240508 0.022635043 7697781
-0.092104577 -0.055136871 0.022743378 7894903
-0.090616412 -0.055033281 0.022851767 9472393
-0.089128628 -0.0549297 0.022960041 8026489
-0.087641202 -0.054826148 0.023068313 7105644
-0.086154148 -0.054722618 0.023176525 7105644
-0.084667467 -0.054619096 0.023284618 7105644
-0.083181143 -0.054515619 0.023392767 7105644
-0.081695184 -0.054412156 0.023500862 7960953
-0.080209613 -0.054308709 0.023608832 9406857
-0.078724384 -0.054205298 0.023716863 9997452
-0.077239528 -0.05410191 0.023824835 10063245
-0.07575503 -0.053998552 0.023932805 10128781
-0.074270897 -0.053895224 0.024040777 10260110
-0.072788879 -0.053788885 0.024125427 10325646
-0.071311444 -0.053674981 0.024151644 10391439
-0.069834106 -0.05356108 0.024177862 8158332
-0.068366073 -0.053430095 0.024072791 7368816
-0.066897877 -0.053298723 0.023965016 8749955
-0.065438882 -0.053148679 0.023714349 10129295
-0.063982449 -0.052991733 0.023411447 8618626
-0.062525019 -0.052834671 0.023108305 7303023
-0.061069708 -0.0526709 0.022754487 7303023
-0.05962269 -0.05248639 0.02224311 7303023
-0.058174003 -0.052301653 0.021731073 7303023
-0.056728389 -0.052105706 0.021134695 8026746
-0.055286344 -0.051896326 0.02043739 10980235
-0.053847943 -0.051672034 0.019628216 7829367
-0.052410364 -0.051438551 0.018750746 7105644
-0.05097409 -0.051193651 0.017788645 7303023
-0.04953526 -0.050946679 0.01681265 7697781
-0.048083801 -0.050725847 0.0160366 9735822
-0.046627209 -0.050512247 0.015316689 11113106
-0.045163047 -0.050314169 0.014715506 10850962
-0.04369254 -0.050129645 0.014217837 10064530
-0.042216249 -0.049958646 0.013823017 8618883
-0.040735085 -0.049799796 0.013520535 8026746
-0.039247286 -0.049661197 0.013371041 8092539
-0.037758615 -0.049523979 0.01323225 8684676
-0.036267228 -0.049395703 0.013160843 9210763
-0.034773346 -0.0492769 0.013160611 8684676
-0.033279464 -0.049158093 0.013160379 8816005
-0.031785563 -0.049039375 0.013160745 9867922
-0.03029168 -0.048920553 0.013160456 10327702
-0.028797796 -0.048801742 0.013160163 8882055
-0.027303908 -0.048682958 0.013160048 9670800
-0.02581002 -0.048564166 0.01316 10392981
-0.024316128 -0.048445385 0.013159885 10393238
-0.022822239 -0.048326608 0.013159832 10393238
-0.021328349 -0.048207816 0.013159784 10261395
-0.019838622 -0.048051458 0.012880622 9801358
-0.018348446 -0.04789006 0.012564738 8748927
-0.016867362 -0.047610156 0.011371076 5854549
-0.015392605 -0.047188822 0.0091325846 7303023
-0.013891975 -0.047069259 0.0091307927 9670800
-0.012391338 -0.046949711 0.0091289962 11768723
-0.010890695 -0.046830155 0.0091271382 12486535
-0.0093900459 -0.046710584 0.0091252849 12291212
-0.0078894496 -0.046585739 0.0090845367 12290441
-0.0063886503 -0.046409454 0.0086652562 8288633
-0.0048866193 -0.046245914 0.008340409 5131854
-0.0033831084 -0.046067223 0.0079049561 4144702
-0.001875626 -0.045822661 0.0069869757 4408131
-0.00034852122 -0.045250032 0.0036653639 5921113
0.0011898396 -0.044674676 0.00033035016 7498346
0.0027392881 -0.044099763 -0.002994989 8220270
0.0043001813 -0.043520596 -0.0063449121 8352627
0.17399332 -0.034893304 0.029464219 5394769
0.17525093 -0.034929685 0.030468119 6315100
0.17604747 -0.035299059 0.033653405 6907751
0.1772254 -0.035386294 0.034985043 6645093
0.17854939 -0.03536598 0.035610344 6842472
0.17993483 -0.03530059 0.035939895 7829110
0.18131922 -0.035235263 0.036269199 9735308
0.18270257 -0.035169967 0.036598209 10260367
0.18408485 -0.03510474 0.036927037 11436931
0.18546611 -0.035039544 0.037255563 12022386
0.1868463 -0.034974419 0.037583906 11765896
0.18822546 -0.034909315 0.037911896 8026489
0.18960358 -0.034844283 0.038239699 11111307
-0.10795127 -0.056415029 0.011894934 7038566
-0.10563198 -0.057217795 0.019252392 8151393
-0.10402317 -0.057243019 0.020393778 5854549
-0.10250022 -0.057173789 0.020780155 7432553
-0.1009786 -0.057104591 0.021166179 8747899
-0.099458314 -0.057035461 0.021551838 5921370
-0.097958863 -0.05694269 0.021748943 6645093
-0.096464477 -0.056844521 0.021902801 10456204
-0.094970994 -0.056745913 0.022052811 11633025
-0.093482077 -0.05664213 0.02216156 9209478
