# .PCD v0.7 - Point Cloud Data file format
VERSION 0.7
FIELDS x y z rgb
SIZE 4 4 4 4
TYPE F F F U
COUNT 1 1 1 1
WIDTH 1043
HEIGHT 1
VIEWPOINT 0 0 0 1 0 0 0
POINTS 1043
DATA ascii
-0.037354704 0.05587047 0.013170277 12423312
-0.037094165 0.057415348 0.013170043 12227732
-0.036833603 0.058960237 0.013169865 12162453
-0.03657271 0.060505036 0.013171088 12162453
-0.036334842 0.062058475 0.013073361 12161425
-0.036317687 0.063696645 0.012025882 9597297
-0.037394959 0.06576553 0.006261644 10985375
-0.03713239 0.067322358 0.0062614647 10590617
-0.036460679 0.068713196 0.0080279671 8747128
-0.036077973 0.070217147 0.0085493354 11308686
-0.054921776 -0.063042633 0.016718315 6842215
-0.054532319 -0.061481077 0.017231386 7171180
-0.054210626 -0.059934039 0.017478546 8026232
-0.0538891 -0.058387816 0.017725585 8289147
-0.053572875 -0.05684334 0.017952232 7960439
-0.053259518 -0.055300064 0.018168073 10585734
-0.052937347 -0.053756051 0.018419249 11044486
-0.052615337 -0.052212872 0.018670363 10846336
-0.052293554 -0.050670534 0.018921122 10845051
-0.051972821 -0.049129166 0.019168256 8814720
-0.051652245 -0.04758862 0.019415328 7368559
-0.051331844 -0.046048895 0.019662281 8289147
-0.051011603 -0.044509996 0.019909112 8683134
-0.050695173 -0.042972341 0.020141277 8748927
-0.050379243 -0.041435495 0.020371979 8880256
-0.050063472 -0.039899424 0.020602562 8683134
-0.049747832 -0.038364109 0.02083314 8617598
-0.049432311 -0.036829561 0.021063777 8748927
-0.049155038 -0.035298955 0.021141378 8683134
-0.049077608 -0.033783901 0.02041612 7431782
-0.05038796 -0.032363325 0.014106115 6840930
-0.052610088 -0.030978916 0.0041091 2039326
-0.054880966 -0.029563421 -0.006107715 8548434
-0.040420376 -0.027286282 0.05119732 15260574
-0.040168226 -0.025808463 0.051208925 16767963
-0.039916076 -0.024330663 0.051220525 16767706
-0.039663929 -0.022852875 0.051232129 16775416
-0.039411776 -0.021375109 0.05124373 16777215
-0.039159637 -0.019897355 0.051255334 16777215
-0.038907483 -0.01841962 0.051266998 16776958
-0.038655348 -0.016941903 0.051278599 16777215
-0.038403232 -0.015464198 0.051290147 16777215
-0.0381511 -0.013986514 0.051301748 16777215
-0.037898961 -0.012508844 0.051313411 16777215
-0.037646838 -0.011031194 0.051325012 16777215
-0.037394714 -0.0095535573 0.051336616 16777215
-0.037142597 -0.0080759404 0.051348221 16777215
-0.036890481 -0.0065983394 0.051359821 16776958
-0.036638368 -0.0051207547 0.051371425 16776444
-0.036386233 -0.0036431884 0.051383145 16776701
-0.036134124 -0.002165637 0.051394746 16776958
-0.035882007 -0.00068810483 0.05140641 16711410
-0.035629876 0.00078941003 0.051418129 10149499
-0.035377778 0.0022669118 0.05142973 8046163
-0.035125669 0.0037443927 0.05144139 6601537
-0.034873564 0.0052218586 0.05145305 8442969
-0.034621459 0.0066993064 0.05146471 8574806
-0.034369349 0.0081767375 0.051476371 8575829
-0.034117267 0.0096541541 0.051487971 7918921
-0.033865172 0.011131551 0.051499631 7656517
-0.033613078 0.012608932 0.051511291 8707924
-0.033360977 0.014086293 0.051523011 10416491
-0.03310889 0.01556364 0.051534671 9693537
-0.032856807 0.01704097 0.051546331 9167703
-0.032604739 0.018518286 0.051557932 9035346
-0.03235266 0.019995581 0.051569592 8968527
-0.032100588 0.02147286 0.051581252 9163859
-0.031848516 0.022950122 0.051592913 7256892
-0.031596445 0.024427367 0.051604573 7975248
-0.03134438 0.025904596 0.051616233 9145687
-0.04061402 0.031032154 0.010358233 8025204
-0.039973088 0.032493196 0.011964071 4408131
-0.039654389 0.034025043 0.012209468 3223857
-0.039285727 0.035543803 0.012667272 5066061
-0.039025355 0.037088297 0.012666564 8289661
-0.03869338 0.038614199 0.012970102 6316128
-0.038275592 0.040116083 0.013639479 7039851
-0.038027197 0.041662212 0.013588841 10129809
-0.037794381 0.043212954 0.013471649 11768980
-0.037554812 0.044762179 0.013383009 11376021
-0.037315197 0.046311732 0.013294313 9604750
-0.037075523 0.047861613 0.013205616 9999508
-0.036821984 0.049407493 0.013176122 11049369
-0.03656267 0.050951649 0.013171324 11244949
-0.036302287 0.052495494 0.013171078 11443356
-0.036041889 0.054039359 0.013170892 11573143
-0.035781492 0.055583254 0.013170708 11637651
-0.035521094 0.05712717 0.013170462 10655896
-0.035260685 0.058671109 0.013170277 10524824
-0.034999527 0.060214799 0.013173302 10525081
-0.034801383 0.061782189 0.012903524 10064273
-0.034881175 0.063457221 0.011428352 6841444
-0.035810933 0.065470472 0.0062606842 9671057
-0.035548527 0.067026347 0.006260437 10590360
-0.035286088 0.068582229 0.0062603066 7892847
-0.034365389 0.06986472 0.0091276877 11376535
-0.034318462 0.071506649 0.0081911236 10586505
-0.053604238 -0.06330841 0.015693592 5987163
-0.053159542 -0.061734822 0.016428564 6908265
-0.052851934 -0.060189936 0.016621223 9405829
-0.052545372 -0.058645856 0.016810136 10651527
-0.052233759 -0.057101473 0.017019564 10192261
-0.051921051 -0.055557568 0.017233843 10911615
-0.051608473 -0.054014381 0.017448056 9339522
-0.051296044 -0.052471898 0.017662151 8486526
-0.050983764 -0.050930131 0.017876124 8552062
-0.05066596 -0.049388248 0.018112654 7763060
-0.050349522 -0.047847323 0.018344274 6579043
-0.050033238 -0.046307161 0.018575771 6250335
-0.049717128 -0.044767771 0.018807091 7565424
-0.049401168 -0.043229152 0.019038349 7565424
-0.049085364 -0.041691303 0.019269485 8683134
-0.048769716 -0.040154219 0.019500501 7302766
-0.048454229 -0.038617905 0.019731397 6513250
-0.048138827 -0.037082344 0.019962465 8025975
-0.047902189 -0.035554238 0.019875716 8813949
-0.047985718 -0.034050863 0.018493058 4539460
-0.049890563 -0.032672837 0.0097281029 3421236
-0.052116811 -0.031285957 -0.000361007 1052688
-0.054397725 -0.029868122 -0.010695709 4736062
-0.038900096 -0.027511444 0.051228032 14283411
-0.038648129 -0.026034586 0.051239572 16636634
-0.038396135 -0.024557741 0.051251233 16767449
-0.038144175 -0.023080917 0.051262777 16776444
-0.0378922 -0.021604111 0.051274382 16777215
-0.037640221 -0.020127317 0.051286042 16777215
-0.037388269 -0.018650539 0.051297586 16777215
-0.03713629 -0.017173784 0.051309247 16777215
-0.036884341 -0.01569704 0.051320791 16777215
-0.036632366 -0.014220316 0.051332448 16777215
-0.036380425 -0.012743605 0.051343992 16777215
-0.036128458 -0.011266915 0.051355653 16777215
-0.03587652 -0.0097902417 0.051367197 16774645
-0.035624556 -0.0083135823 0.051378854 16775930
-0.035372626 -0.0068369396 0.051390398 16776701
-0.035120685 -0.005360316 0.051401999 16774902
-0.034868736 -0.0038837071 0.051413663 16776444
-0.034616817 -0.0024071161 0.051425204 16776701
-0.034364868 -0.00093054125 0.051436864 16777215
-0.034112923 0.00054601335 0.051448524 10939276
-0.033860978 0.0020225532 0.05146018 6668857
-0.03360904 0.0034990767 0.051471841 5552689
-0.033357117 0.0049755825 0.051483441 6407739
-0.033105183 0.006452071 0.051495101 8116049
-0.032853253 0.0079285437 0.051506758 8904794
-0.032601327 0.0094049983 0.051518418 9627746
-0.032349408 0.010881438 0.051530078 10613356
-0.032097485 0.012357858 0.051541738 11664760
-0.031845566 0.013834262 0.051553395 11665015
-0.031593662 0.015310651 0.051564995 8905043
-0.03134175 0.01678702 0.051576655 7853634
-0.031089839 0.018263374 0.051588312 6341164
-0.030837946 0.019739714 0.051599912 5354272
-0.030586027 0.021216029 0.051611628 4761625
-0.030334137 0.022692336 0.051623229 4563479
-0.030082246 0.024168622 0.051634889 6072372
-0.02983035 0.025644889 0.051646546 8494937
-0.039349761 0.030829683 0.0090213697 5394512
-0.038416062 0.032224536 0.011885352 4079166
-0.038044423 0.033742916 0.012358915 3618615
-0.037771448 0.035283849 0.012412299 4999754
-0.037451576 0.036812752 0.012666304 8946563
-0.037191238 0.038356289 0.012666053 9670543
-0.036832012 0.039873324 0.013089648 7039851
-0.036504395 0.041397594 0.013378635 10785169
-0.036250036 0.04294163 0.013353492 11375764
-0.036010429 0.04449008 0.01326485 10851990
-0.035769306 0.046038419 0.013182458 9013384
-0.035511419 0.047581933 0.013172153 8750212
-0.035251182 0.049124774 0.013171959 9802129
-0.03499094 0.05066764 0.013171764 10655382
-0.03473071 0.052210532 0.013171511 10196373
-0.034470465 0.053753447 0.013171316 10064787
-0.034210198 0.05529638 0.01317118 10064787
-0.033949941 0.056839343 0.013170986 9013384
-0.033689693 0.058382336 0.013170733 8881798
-0.033443883 0.059930686 0.013107566 8750212
-0.033336706 0.061531592 0.012439516 7434609
-0.034056589 0.063453518 0.008157677 5460819
-0.034228854 0.065175779 0.0062597129 9473935
-0.033966582 0.066730686 0.0062595145 10917012
-0.033704292 0.068285622 0.0062593743 8023405
-0.032781411 0.069565035 0.0091588898 10392981
-0.032650944 0.071170755 0.0085830176 8814977
-0.05221042 -0.063558936 0.014966398 6579300
-0.051787402 -0.061988991 0.015619765 6842472
-0.051480964 -0.0604438 0.015808737 8026232
-0.051179674 -0.058900174 0.015977528 9274757
-0.050878502 -0.05735711 0.016146261 9274500
-0.050577447 -0.055814594 0.016314873 9274757
-0.050276484 -0.054272633 0.016483482 7434609
-0.04997563 -0.052731231 0.016652031 6513507
-0.049667399 -0.051189221 0.016850637 6513507
-0.049355317 -0.049647279 0.017065207 8354683
-0.049043063 -0.048106007 0.017280942 9667716
-0.048730627 -0.046565399 0.017497905 7631474
-0.048418328 -0.045025516 0.017714804 8485241
-0.048105553 -0.043486279 0.017934097 8551034
-0.04778989 -0.041947417 0.018165611 7631474
-0.047474369 -0.040409327 0.018397061 7236973
-0.047159027 -0.038872004 0.018628335 6184542
-0.046850465 -0.037336074 0.018832525 7499888
-0.046659764 -0.035811011 0.01855742 7038566
-0.04698335 -0.034326054 0.016185623 4605510
-0.049388945 -0.032984979 0.0053128768 1315860
-0.051620129 -0.031595696 -0.0048729386 2302498
-0.053905036 -0.030175181 -0.015302447 7038306
-0.037381805 -0.027736314 0.051258676 13827954
-0.037129994 -0.026260413 0.051270276 16641766
-0.036878183 -0.02478453 0.051281877 16642031
-0.036626384 -0.023308661 0.051293481 16776701
-0.036374595 -0.021832813 0.051305022 16776701
-0.036122795 -0.020356981 0.051316623 16382455
-0.035870999 -0.018881164 0.051328223 16776701
-0.035619203 -0.017405363 0.051339824 16776701
-0.035367418 -0.015929578 0.051351424 16776701
-0.035115641 -0.014453814 0.051362965 16776958
-0.034863856 -0.012978064 0.051374566 16777215
-0.034612056 -0.01150233 0.051386222 16776958
-0.034360282 -0.010026612 0.051397827 16770533
-0.03410852 -0.008550914 0.051409367 16774131
-0.033856742 -0.0070752315 0.051420968 16775930
-0.033604972 -0.0055995653 0.051432565 16774645
-0.033353202 -0.0041239159 0.051444165 16776187
-0.033101439 -0.0026482821 0.051455766 16776187
-0.032849677 -0.0011726676 0.051467367 16776958
-0.032597914 0.00030293228 0.051478967 11990173
-0.032346159 0.0017785138 0.051490564 6472499
-0.032094393 0.003254079 0.051502224 5553197
-0.031842642 0.0047296276 0.051513825 7196230
-0.031590879 0.0062051588 0.051525481 10153069
-0.031339116 0.0076806713 0.051537137 10414708
-0.03108738 0.0091561703 0.051548738 9494119
-0.030835625 0.01063165 0.051560398 9034334
-0.030583872 0.012107112 0.051572055 8048720
-0.030332122 0.013582558 0.051583711 7063106
-0.030080397 0.015057989 0.051595312 6865981
-0.029828653 0.016533401 0.051606968 6668344
-0.029576913 0.018008796 0.051618624 6404916
-0.029325189 0.019484177 0.051630221 6140978
-0.029073447 0.020959536 0.051641941 6074417
-0.028821727 0.022434883 0.051653538 5942064
-0.028570013 0.023910211 0.051665135 5875502
-0.028318273 0.025385519 0.051676851 7317581
-0.02806657 0.026860816 0.051688451 8949635
-0.039149437 0.030864701 0.0031121136 5460562
-0.0368817 0.031961009 0.01171649 4933704
-0.036473945 0.033470038 0.01234923 5789013
-0.036201354 0.035010088 0.012401997 6314072
-0.035879619 0.036537513 0.012666554 9142657
-0.035619371 0.038080085 0.012666527 10195345
-0.035357442 0.039622232 0.012673751 8289661
-0.035002302 0.041138586 0.013084033 10588561
-0.034707185 0.04267057 0.013235464 9998737
-0.034461502 0.044216476 0.013172945 9473421
-0.034201413 0.045758314 0.013172801 8289661
-0.033941329 0.047300179 0.013172596 7960953
-0.033681255 0.048842072 0.013172333 8618883
-0.033421155 0.050383985 0.01317219 9407885
-0.033161059 0.05192592 0.013171986 9210506
-0.032900959 0.053467885 0.013171781 9605007
-0.032640852 0.055009868 0.013171577 9276299
-0.032380752 0.056551885 0.013171376 8092539
-0.0321205 0.058093872 0.013171755 8026746
-0.031894278 0.059648495 0.013022795 7566195
-0.031872321 0.061281044 0.011975624 4342338
-0.032910828 0.063327514 0.0062589967 7631731
-0.032648724 0.064881444 0.0062587298 10327702
-0.032386497 0.066435359 0.0062589911 11635595
-0.032124385 0.067989342 0.0062587247 9599096
-0.031215232 0.069272324 0.0091203852 9473421
-0.031119384 0.070892118 0.0083873942 5921370
-0.050781596 -0.063802339 0.014377343 8748927
-0.050395176 -0.062239379 0.014888074 9077892
-0.050108727 -0.060697719 0.014997687 8223611
-0.049808633 -0.059153806 0.015162545 7368816
-0.049507566 -0.057610232 0.015331671 7368816
-0.049206603 -0.056067217 0.015500735 7303023
-0.048905768 -0.054524764 0.015669681 6908265
-0.048605006 -0.052982856 0.015838679 6645093
-0.048304372 -0.051441498 0.016007561 6579300
-0.048003845 -0.049900707 0.016176382 8552062
-0.04770343 -0.04836046 0.016345141 9471108
-0.047406126 -0.046821173 0.016501611 8092025
-0.047101807 -0.045281485 0.016686983 8157561
-0.046789911 -0.043741465 0.016903659 8157561
-0.046478171 -0.042202156 0.01712022 6776679
-0.046166573 -0.040663566 0.017336657 6645093
-0.045855112 -0.039125692 0.017553031 6052956
-0.045589026 -0.037592847 0.017584084 6381921
-0.045431554 -0.036069669 0.017169895 5394769
-0.046472598 -0.034642681 0.011835098 2763306
-0.048864905 -0.033298433 0.00093451119 2499620
-0.05112011 -0.031908173 -0.0094277561 6511194
-0.052498899 -0.030429762 -0.016204344 9863810
-0.035865493 -0.027960893 0.051289253 12116582
-0.035613857 -0.026485948 0.051300853 16186834
-0.035362218 -0.025011022 0.05131245 16645372
-0.035110578 -0.023536112 0.051324051 16774645
-0.034858953 -0.022061219 0.051335651 16763594
-0.034607336 -0.020586342 0.051347192 16763594
-0.034355715 -0.019111486 0.051358793 16763851
-0.034104086 -0.017636642 0.05137039 16763594
-0.033852465 -0.016161814 0.05138199 16764365
-0.033600852 -0.014687006 0.051393591 16772846
-0.033349235 -0.013212213 0.051405188 16777215
-0.033097636 -0.01173744 0.051416729 16777215
-0.03284603 -0.010262678 0.051428329 16776701
-0.032594424 -0.0087879365 0.051439926 16776958
-0.032342818 -0.0073132138 0.051451523 16777215
-0.032091234 -0.0058385031 0.051463068 16777215
-0.031839635 -0.0043638111 0.051474664 16777215
-0.031588037 -0.0028891359 0.051486261 16777215
-0.031336464 -0.0014144767 0.051497802 16777215
-0.031084873 6.0165723e-05 0.051509399 13959105
-0.030833291 0.001534791 0.051521 7589449
-0.03058172 0.003009401 0.05153254 5816109
-0.030330136 0.0044839922 0.051544137 6014006
-0.030078549 0.0059585669 0.051555794 5948724
-0.029826958 0.007433122 0.05156745 10468970
-0.029575383 0.0089076627 0.051579047 11185507
-0.029323805 0.010382187 0.051590703 11185248
-0.029072221 0.011856691 0.05160236 11053917
-0.028820649 0.01333118 0.051614016 10922332
-0.028569086 0.014805654 0.051625613 10922332
-0.028317511 0.016280109 0.05163727 10856538
-0.028065948 0.017754547 0.051648926 10790489
-0.027814392 0.019228971 0.051660523 10789978
-0.027562834 0.020703375 0.051672179 10789724
-0.027311286 0.022177765 0.051683776 10332254
-0.027059739 0.023652138 0.051695373 8303443
-0.026808189 0.025126493 0.051707029 8826462
-0.026556635 0.026600828 0.051718686 11110771
-0.038940728 0.030898789 -0.0028412212 5920342
-0.035348676 0.031697713 0.0115477 5130312
-0.034907874 0.033198092 0.012328695 7628647
-0.034633145 0.034736659 0.01239172 6445401
-0.034309503 0.036262594 0.012667195 8617084
-0.034049429 0.03780422 0.012667043 9736079
-0.033789415 0.03934589 0.012666659 8816005
-0.03349058 0.040876817 0.012835377 9341835
-0.03315299 0.04239611 0.013173543 8289918
-0.032893054 0.043936972 0.013173389 7895160
-0.032633107 0.045477856 0.013173233 7960953
-0.032373179 0.04701877 0.013173021 7960953
-0.032113224 0.048559707 0.013172866 7960953
-0.031853285 0.050100669 0.013172654 8026746
-0.031593341 0.051641658 0.013172443 9144713
-0.031333387 0.053182673 0.013172229 10392467
-0.031073438 0.05472371 0.013172018 9342092
-0.030813469 0.056264766 0.013171866 8158332
-0.030564385 0.057809815 0.013123575 7960953
-0.030385887 0.059381332 0.012762967 7105644
-0.030407211 0.061030157 0.011516408 3486772
-0.031332433 0.063034475 0.0062582428 8750469
-0.031070322 0.064587392 0.0062586688 9407885
-0.030808361 0.066140391 0.0062583927 9536387
-0.029895572 0.067424946 0.0091553396 11896711
-0.029681826 0.068992987 0.0089438558 9406857
-0.029711103 0.070666037 0.007647207 8682620
-0.049346298 -0.064044409 0.01381395 9208450
-0.04894679 -0.062478453 0.014381208 9997452
-0.048662733 -0.060937282 0.014481924 9538186
-0.048378713 -0.059396423 0.014582698 8486783
-0.048093989 -0.057855751 0.014686575 8486783
-0.047805961 -0.056314804 0.014804093 8420990
-0.047517993 -0.05477424 0.014921607 8289404
-0.047224894 -0.05323318 0.01506032 7368816
-0.046924435 -0.051691402 0.01522936 6842472
-0.046624076 -0.050150175 0.0153984 7697524
-0.046326224 -0.048609849 0.01555754 9078149
-0.046029363 -0.047070168 0.015712988 8815234
-0.045732606 -0.045530993 0.015868379 8617855
-0.045435917 -0.043992314 0.016023822 8486526
-0.045139354 -0.042454157 0.016179089 7171437
-0.04484288 -0.040916499 0.016334353 6447714
-0.044533484 -0.039377999 0.016543191 6381921
-0.044277865 -0.037845388 0.0165307 6052956
-0.044197947 -0.036328524 0.015792644 3947580
-0.045959041 -0.03496211 0.0074414997 3091757
-0.048296295 -0.033611469 -0.0033144064 5523785
-0.050613072 -0.032223176 -0.01401107 6776165
-0.050893549 -0.030672196 -0.016284436 7762546
-0.034351144 -0.028185176 0.051319819 10531696
-0.034099676 -0.026711188 0.051331416 14743729
-0.033848207 -0.025237219 0.051343016 16573411
-0.033596747 -0.023763265 0.051354613 16767449
-0.033345297 -0.022289332 0.051366154 16767706
-0.03309384 -0.020815412 0.051377751 16768220
-0.032842394 -0.019341506 0.051389292 16765907
-0.032590948 -0.017867623 0.051400889 16773360
-0.03233948 -0.016393753 0.051412545 16770276
-0.032088049 -0.014919898 0.051424086 16766164
-0.031836603 -0.013446063 0.051435683 16775930
-0.031585179 -0.011972242 0.051447224 16777215
-0.031333737 -0.010498439 0.051458817 16777215
-0.031082312 -0.0090246545 0.051470358 16777215
-0.030830868 -0.0075508845 0.051482014 16777215
-0.03057945 -0.0060771322 0.051493552 16777215
-0.030328039 -0.0046033938 0.051505093 16777215
-0.030076612 -0.003129676 0.051516686 16777215
-0.029825194 -0.0016559733 0.051528286 16776958
-0.029573787 -0.00018228745 0.051539823 15332048
-0.029322375 0.0012913822 0.05155142 10866295
-0.029070958 0.0027650341 0.051563017 9683554
-0.028819565 0.0042386716 0.051574558 9486949
-0.028568169 0.0057122912 0.051586095 9289824
-0.028316753 0.0071858931 0.051597752 11052122
-0.028065348 0.0086594783 0.051609345 9224799
-0.027813939 0.010133046 0.051621001 9093724
-0.02756254 0.011606596 0.051632598 9159515
-0.02731115 0.013080132 0.051644195 9093467
-0.027059743 0.014553647 0.051655848 9027931
-0.026808344 0.016027147 0.051667504 9027164
-0.026556963 0.017500633 0.051679101 9157469
-0.026305564 0.018974097 0.051690754 9484385
-0.026054189 0.020447548 0.05170235 10858089
-0.02580281 0.021920983 0.051713947 9941602
-0.025551427 0.023394398 0.051725604 8304979
-0.025300052 0.024867797 0.051737197 9548640
-0.025048675 0.026341179 0.051748853 11046509
-0.038734056 0.030934293 -0.0088848211 6576473
-0.03397961 0.031472303 0.010670395 4473153
-0.033353407 0.032928802 0.012265621 5985878
-0.033066809 0.034463555 0.012381529 4144959
-0.032741275 0.035987999 0.012667992 6052956
-0.032481439 0.037528701 0.012667483 7895160
-0.032221556 0.039069418 0.012667148 9473421
-0.03195012 0.040606942 0.012717498 8487297
-0.031601794 0.042122323 0.013105965 8026746
-0.031326544 0.043657813 0.013173753 7895160
-0.031066753 0.045197751 0.01317359 7960953
-0.03080697 0.046737716 0.013173369 7960953
-0.030547168 0.048277702 0.013173206 7960953
-0.030287378 0.049817719 0.013172985 8026746
-0.030027568 0.051357754 0.013172823 9276042
-0.029767768 0.052897818 0.013172601 11178385
-0.029507952 0.054437902 0.013172439 10851733
-0.029248143 0.055978015 0.013172219 8881798
-0.029041685 0.05753766 0.012934449 7434609
-0.028990431 0.059156172 0.012004301 5658198
-0.029367926 0.060941745 0.0091581354 5526098
-0.0291069 0.062488779 0.0091581214 7565938
-0.028845897 0.064035848 0.009157991 8223354
-0.028585112 0.065583028 0.0091568651 9932944
-0.028333142 0.067133896 0.0091161812 11897996
-0.028209858 0.068739295 0.0084973164 9140087
-0.031205546 0.071690232 -0.0061516846 9209992
-0.04789453 -0.064282954 0.013317524 8223354
-0.047498573 -0.062717497 0.013874343 9275528
-0.047214665 -0.061176378 0.013975175 9735308
-0.046930823 -0.059635587 0.014075948 9735051
-0.046647046 -0.058095109 0.014176658 9669515
-0.046363316 -0.056554951 0.014277427 9669515
-0.046079669 -0.055015117 0.014378079 10128781
-0.045792554 -0.053475015 0.014493139 8815491
-0.045504902 -0.051935181 0.014610722 7894903
-0.045217421 -0.050395746 0.014727832 7763574
-0.044931453 -0.048856892 0.014838962 9735051
-0.044643514 -0.047318112 0.014958471 9931659
-0.044349477 -0.045778893 0.015103466 9603208
-0.04405275 -0.044239793 0.015259882 9734280
-0.04375612 -0.042701207 0.015416236 8749441
-0.043459579 -0.041163128 0.01557259 7303023
-0.043163143 -0.039625559 0.015728882 7171437
-0.042930305 -0.038094763 0.015621293 6381921
-0.043047395 -0.03659568 0.014057995 6447714
-0.045549326 -0.03529343 0.0025598484 6050386
-0.047715321 -0.033926424 -0.0075652758 3947323
-0.049791891 -0.032519013 -0.01734136 5921370
-0.03258745 -0.026936138 0.051361967 14154148
-0.032336157 -0.025463123 0.051373564 16770779
-0.032084879 -0.023990126 0.051385105 16771047
-0.031833585 -0.022517147 0.051396701 16774645
-0.0315823 -0.021044178 0.051408298 16774645
-0.031331021 -0.019571232 0.051419836 16773617
-0.031079758 -0.018098302 0.051431373 16776701
-0.03082848 -0.016625386 0.05144297 16774902
-0.0305772 -0.015152489 0.051454566 16769762
-0.030325942 -0.013679607 0.051466104 16775930
-0.030074667 -0.012206743 0.0514777 16777215
-0.029823415 -0.010733895 0.051489238 16777215
-0.029572167 -0.0092610624 0.051500779 16776701
-0.029320899 -0.0077882484 0.051512372 16776444
-0.029069657 -0.0063154493 0.051523909 16776187
-0.028818388 -0.0048426678 0.051535565 15989469
-0.028567143 -0.0033699046 0.051547103 15006410
-0.028315894 -0.0018971557 0.051558699 13365672
-0.028064657 -0.00042442538 0.051570233 11848059
-0.027813412 0.0010482905 0.05158183 11448419
-0.027562186 0.0025209889 0.051593371 10665316
-0.027310943 0.0039936686 0.051604964 10141034
-0.027059723 0.0054663359 0.051616501 10075494
-0.026808498 0.0069389832 0.051628035 10008928
-0.026557269 0.0084116152 0.051639631 6996294
-0.026306042 0.0098842299 0.051651228 6929477
-0.026054813 0.011356826 0.051662821 7059526
-0.025803592 0.012829407 0.051674418 7058503
-0.02555236 0.014301969 0.051686071 6795331
-0.02530114 0.015774515 0.051697664 6992965
-0.025049914 0.017247044 0.05170932 7322435
-0.024798704 0.018719556 0.051720913 8110922
-0.024547476 0.020192049 0.051732566 9093464
-0.024296274 0.02166453 0.051744163 8373068
-0.024045059 0.02313699 0.051755816 6928692
-0.023793856 0.024609435 0.051767409 8041288
-0.023542661 0.026081866 0.051779006 7771210
-0.033216238 0.031387478 0.0071291812 3618358
-0.031808216 0.032661624 0.012169301 5920342
-0.031502362 0.034190781 0.012371367 5262926
-0.031174997 0.035713751 0.012668714 5920856
-0.03091535 0.037253514 0.012668019 8618369
-0.030655617 0.038793281 0.012667676 11047313
-0.030395815 0.040333055 0.012667626 9473421
-0.030062556 0.041851781 0.012992898 9079177
-0.029761966 0.043378998 0.013174097 9144713
-0.029502319 0.04491799 0.013173925 8553090
-0.029242691 0.046457008 0.013173697 7960953
-0.028983036 0.047996044 0.013173524 7960953
-0.028723378 0.049535111 0.013173352 8026746
-0.028463723 0.051074196 0.013173182 8881798
-0.028204057 0.052613307 0.01317301 10523796
-0.027944414 0.054152455 0.013172721 11375250
-0.02772242 0.055705138 0.013003722 9932687
-0.027592055 0.057292081 0.01242323 7631731
-0.027756756 0.058991827 0.01051574 7960182
-0.027798664 0.060651463 0.0091556273 10591388
-0.027537743 0.062197529 0.0091557791 10394009
-0.027276969 0.063743681 0.0091552883 8947848
-0.027016938 0.065290168 0.009151401 10130066
-0.02681225 0.066859715 0.0088973036 9733509
-0.026849223 0.06853275 0.0075484375 6774880
-0.046428308 -0.064518303 0.012881142 6579300
-0.046011701 -0.062948361 0.013526832 7631988
-0.045733828 -0.061408751 0.013603802 8684162
-0.045461576 -0.059870485 0.013657724 9735051
-0.045183059 -0.058331177 0.013737621 9669258
-0.04490459 -0.056792121 0.013817518 9669001
-0.044626147 -0.055253312 0.013897409 11241865
-0.044347763 -0.053714748 0.013977243 10719119
-0.04406558 -0.052175816 0.014073024 9866894
-0.043780167 -0.05063666 0.014182406 9866894
-0.043494307 -0.049097788 0.014293834 11700617
-0.043208741 -0.047559306 0.014404325 11307144
-0.04292326 -0.046021175 0.014514698 9931145
-0.042636044 -0.044483166 0.014632574 10848135
-0.042348839 -0.042945527 0.01475062 10979978
-0.042061698 -0.041408267 0.014868665 9669515
-0.041771054 -0.039871007 0.015001661 9472393
-0.041577917 -0.038343955 0.014726928 8682620
-0.041676972 -0.03684327 0.01322733 9208450
-0.04155479 -0.035318412 0.012652114 6182486
-0.047129661 -0.034243908 -0.011850209 4736582
-0.041706249 -0.032291465 0.0098331664 7105644
-0.031077199 -0.027160797 0.051392447 13893021
-0.030826073 -0.025688736 0.051404044 16448486
-0.030574966 -0.024216691 0.051415581 16776444
-0.030323854 -0.022744663 0.051427115 16776958
-0.030072737 -0.021272654 0.051438712 16776958
-0.029821638 -0.019800659 0.051450249 16776701
-0.029570527 -0.01832868 0.051461846 16777215
-0.029319426 -0.016856719 0.051473379 16776958
-0.029068321 -0.015384775 0.051484976 16776187
-0.028817233 -0.013912846 0.051496513 16776958
-0.028566133 -0.012440936 0.05150811 16449514
-0.02831503 -0.010969045 0.051519703 14810057
-0.028063951 -0.0094971657 0.05153124 13886631
-0.027812874 -0.0080253035 0.051542778 12637323
-0.027561793 -0.006553459 0.051554311 12437376
-0.027310707 -0.0050816308 0.051565908 12370298
-0.027059624 -0.003609821 0.051577501 12305017
-0.026808558 -0.0021380249 0.051589038 10801012
-0.02655749 -0.0006662485 0.051600572 9684064
-0.026306415 0.0008055137 0.051612169 10662496
-0.026055358 0.0022772583 0.051623702 8832345
-0.025804291 0.0037489855 0.051635299 8503647
-0.025553232 0.0052206977 0.051646832 8569182
-0.025302183 0.0066923928 0.05165837 8700771
-0.025051123 0.0081640705 0.051669963 6797637
-0.024800081 0.0096357334 0.0516815 5878577
-0.024549019 0.011107376 0.051693089 5550377
-0.024297982 0.012579005 0.051704627 5485092
-0.024046933 0.014050616 0.05171622 5420317
-0.023795888 0.01552221 0.051727816 5552157
-0.023544824 0.016993783 0.051739465 5946399
-0.023293797 0.018465346 0.051750999 6800169
-0.023042746 0.019936888 0.051762652 7323961
-0.022791712 0.021408414 0.051774248 6798383
-0.022540666 0.022879921 0.051785897 5877789
-0.022289637 0.024351414 0.051797494 6006309
-0.022038605 0.025822889 0.051809084 5212193
-0.032747217 0.031371687 0.0022401216 3815480
-0.030270549 0.032396145 0.012046707 6051414
-0.029939789 0.033918332 0.012361288 6708830
-0.029668115 0.035454549 0.012414265 6576987
-0.029351188 0.036978662 0.012668534 9931916
-0.029091606 0.038517483 0.012668183 12286843
-0.028832022 0.040056329 0.012667832 10917269
-0.02852614 0.04158188 0.012874041 10392467
-0.028199317 0.043100528 0.013174422 10721175
-0.027939817 0.04463857 0.01317424 9276556
-0.027680313 0.046176638 0.013174058 8224125
-0.027420821 0.047714733 0.013173881 8224125
-0.027161309 0.049252849 0.013173699 8421504
-0.026901813 0.050790995 0.013173462 8618883
-0.026642315 0.052329168 0.013173224 9605007
-0.026400974 0.053873755 0.013091069 11112592
-0.02621039 0.055436958 0.01277945 10782599
-0.026227023 0.057077646 0.011530136 8022634
-0.026491243 0.058816113 0.0091567617 11509149
-0.026231281 0.060361516 0.009153273 11509149
-0.02597052 0.061906647 0.0091533558 10787482
-0.02570994 0.063451871 0.0091526834 8684676
-0.025458135 0.06500072 0.0091119884 8487297
-0.025352551 0.066610828 0.0084049217 5592148
-0.027385473 0.069134876 -0.0020616716 8421504
-0.04495015 -0.064750873 0.012495837 6118749
-0.044506241 -0.063175023 0.013259188 7763574
-0.044226628 -0.061635479 0.013344176 7960953
-0.04395568 -0.060097925 0.013393435 8092539
-0.043684743 -0.058560517 0.013442687 8158075
-0.043413844 -0.05702325 0.013491944 8092539
-0.043142967 -0.05548612 0.013541201 9669772
-0.042868689 -0.053948555 0.01360471 10850191
-0.042590529 -0.052410532 0.013684588 10981263
-0.042312395 -0.050872758 0.013764462 10981263
-0.042035818 -0.049335454 0.013838062 11373708
-0.04175964 -0.047798429 0.013910132 11244692
-0.041483507 -0.046261635 0.013982142 10129809
-0.041201044 -0.044724226 0.014080903 10982291
-0.040915854 -0.043186788 0.014191337 11111564
-0.040629171 -0.04164952 0.014308278 10784141
-0.04035363 -0.04011384 0.014378521 10718348
-0.040212695 -0.03859213 0.013881652 10322562
-0.040224463 -0.037083279 0.012739007 8812407
-0.039985716 -0.035548493 0.01265218 9007987
-0.039866596 -0.034023091 0.012059017 6906466
-0.039647412 -0.032488279 0.011888194 7038309
-0.039784074 -0.030976649 0.010207894 9533560
-0.029568899 -0.027385164 0.051422913 13434508
-0.029317943 -0.025914053 0.051434506 15990746
-0.029067004 -0.024442963 0.051446043 16777215
-0.028816046 -0.022971885 0.051457636 16777215
-0.028565127 -0.021500828 0.051469114 16776444
-0.028314183 -0.020029787 0.051480707 16775159
-0.028063241 -0.018558763 0.0514923 16382436
-0.02781233 -0.017087754 0.051503778 14614216
-0.027561394 -0.015616763 0.051515374 12319134
-0.027310476 -0.014145785 0.051526908 11332493
-0.027059538 -0.012674829 0.051538501 10214007
-0.026808623 -0.011203888 0.051550034 10474102
-0.026557714 -0.0097329607 0.051561572 11319401
-0.026306804 -0.0082620522 0.051573105 10272097
-0.026055885 -0.0067911595 0.051584698 8962904
-0.025804983 -0.005320284 0.051596235 9028700
-0.02555407 -0.0038494261 0.051607829 9421923
-0.025303166 -0.002378585 0.051619362 8307035
-0.025052259 -0.00090776011 0.051630955 8175196
-0.024801366 0.00056305091 0.051642489 8371548
-0.024550479 0.0020338437 0.051654022 8242263
-0.024299579 0.003504619 0.051665615 10080111
-0.024048697 0.0049753785 0.051677153 10278513
-0.023797816 0.0064461217 0.051688686 9559651
-0.023546932 0.0079168472 0.05170022 10739572
-0.023296045 0.0093875555 0.051711809 7782984
-0.023045173 0.010858249 0.051723346 7585348
-0.022794304 0.012328926 0.05173488 7584833
-0.02254344 0.013799586 0.051746413 7715648
-0.022292577 0.01527023 0.051757947 7650112
-0.022041703 0.016740855 0.05176954 7454523
-0.021790817 0.01821146 0.051781192 7258163
-0.021539954 0.019682053 0.051792722 7454776
-0.021289077 0.021152625 0.051804371 6666285
-0.021038214 0.022623183 0.051815964 6402088
-0.020787353 0.024093725 0.051827557 6858295
-0.020536495 0.025564248 0.05183915 6919995
-0.020285629 0.027034752 0.051850799 6778962
-0.032273728 0.031355746 -0.0026957053 5328719
-0.028733354 0.032130685 0.011928626 5919314
-0.028393023 0.033649672 0.012288958 6641752
-0.028142061 0.035190344 0.012250189 8019550
-0.027788948 0.036704153 0.012669026 10651270
-0.027529506 0.038242023 0.012668727 12350323
-0.027270075 0.039779924 0.012668305 12356491
-0.026991228 0.041312248 0.012755255 11308943
-0.026643457 0.042823847 0.013152731 11962761
-0.026379224 0.044359494 0.013174591 9867665
-0.026119867 0.045896616 0.013174399 9013641
-0.025860528 0.047433767 0.013174152 9144970
-0.025601182 0.048970945 0.013173905 10130837
-0.025341827 0.050508142 0.013173719 9933715
-0.025082419 0.052045349 0.013173706 9210763
-0.024893418 0.053607464 0.012853677 9406857
-0.024836233 0.055218425 0.011932977 9467253
-0.025185846 0.056983199 0.0091560129 8353398
-0.024925247 0.058527324 0.0091561526 10853275
-0.024665833 0.060071938 0.0091508366 10919068
-0.024405267 0.061616134 0.0091507388 10131094
-0.024145365 0.063160628 0.0091475295 8158332
-0.023949478 0.064731494 0.0088507719 6513507
-0.024052978 0.066429101 0.0071780575 5131597
-0.043473523 -0.064983584 0.012106503 5263440
-0.042972405 -0.06339521 0.013113881 7763574
-0.042687677 -0.061855238 0.013221215 7895160
-0.042424213 -0.060319874 0.013240029 7960953
-0.042160746 -0.058784544 0.013258903 7895160
-0.041892972 -0.057248455 0.013295794 7895160
-0.04162427 -0.055712286 0.01333668 8552833
-0.041355599 -0.054176237 0.013377505 9210506
-0.041086949 -0.052640304 0.01341833 9341835
-0.040818308 -0.051104482 0.013459214 9341835
-0.040547129 -0.049568392 0.013510838 9801101
-0.04027148 -0.048031785 0.013581421 11048855
-0.039995898 -0.046495404 0.013651887 11310485
-0.03972033 -0.044959236 0.013722408 10129809
-0.039444823 -0.043423288 0.013792871 9407114
-0.03916933 -0.041887555 0.013863389 9341578
-0.038914904 -0.040354371 0.013844751 9275528
-0.038781241 -0.03883367 0.01331323 7960439
-0.038677789 -0.037314098 0.012652006 8552833
-0.038418561 -0.035778292 0.012652219 6710629
-0.03822678 -0.03424805 0.012364947 8612458
-0.037987661 -0.032713238 0.012278941 9400432
-0.037962019 -0.031192722 0.011280729 9334382
-0.028062547 -0.027609237 0.051453359 12509831
-0.027811773 -0.026139079 0.051464893 14745021
-0.027561003 -0.024668941 0.05147643 16121310
-0.027310222 -0.023198817 0.051488023 15137741
-0.027059471 -0.021728709 0.051499497 13694641
-0.026808696 -0.02025862 0.05151109 12707997
-0.026557935 -0.018788544 0.051522624 12507280
-0.026307173 -0.017318489 0.051534157 10607999
-0.02605642 -0.01584845 0.051545691 8705634
-0.025805661 -0.014378423 0.051557284 8703584
-0.025554907 -0.012908419 0.051568817 8767326
-0.025304163 -0.011438427 0.051580351 8177241
-0.025053419 -0.0099684522 0.051591884 9683305
-0.024802666 -0.0084984945 0.051603477 8831330
-0.02455193 -0.0070285546 0.051615011 7585106
-0.024301196 -0.0055586295 0.051626544 8568156
-0.024050465 -0.0040887208 0.051638078 11254900
-0.023799738 -0.0026188302 0.051649611 12171894
-0.023548998 -0.0011489554 0.051661201 12235629
-0.023298275 0.00032090189 0.051672734 10210910
-0.023047555 0.0017907445 0.051684268 10872692
-0.022796839 0.0032605687 0.051695801 12314763
-0.022546124 0.0047303783 0.051707335 12447632
-0.022295399 0.0062001687 0.051718924 10676334
-0.02204469 0.0076699434 0.051730458 12708750
-0.021793986 0.0091397027 0.051741991 8437581
-0.021543283 0.010609445 0.051753525 8568658
-0.021292569 0.012079168 0.051765114 9028182
-0.021041872 0.013548878 0.051776648 8962132
-0.020791177 0.015018571 0.051788181 8502348
-0.020540485 0.016488247 0.051799711 7715646
-0.020289797 0.017957905 0.051811244 7388471
-0.020039096 0.019427547 0.051822834 8044612
-0.019788414 0.020897172 0.051834367 7846720
-0.019537706 0.022366777 0.051846016 8370246
-0.019287014 0.023836367 0.051857606 7774789
-0.019036327 0.02530594 0.051869199 7312705
-0.018785641 0.026775498 0.051880788 7569240
-0.031861406 0.03135499 -0.007974158 5920856
-0.027279427 0.03188521 0.011442846 3158064
-0.026956128 0.03340828 0.011729223 3552565
-0.026707953 0.034949683 0.011677581 3881530
-0.026228625 0.036429979 0.012669558 7631474
-0.025969338 0.037966907 0.012669187 11960705
-0.025718296 0.039506182 0.012631441 9997195
-0.025481623 0.041049775 0.012528517 8486526
-0.025106978 0.04255271 0.013051494 11636880
-0.02482054 0.04408076 0.013174914 10983062
-0.024561364 0.045616947 0.013174662 9473678
-0.02430217 0.047153153 0.013174406 10786711
-0.024042951 0.04868938 0.013174205 11769751
-0.023783714 0.050225623 0.013174126 11245977
-0.023577334 0.051780213 0.012932215 9078663
-0.023448363 0.053363156 0.012335074 5855577
-0.023763424 0.055109482 0.0096995244 5526612
-0.023621637 0.056695715 0.0091553964 8618883
-0.023360733 0.058238726 0.0091575766 8553090
-0.023102285 0.059782702 0.0091484347 8750469
-0.022841925 0.061325986 0.0091480324 8487297
-0.022594322 0.062874451 0.0090887304 7829367
-0.02250381 0.064488053 0.0083029838 4671303
-0.024889521 0.067148298 -0.0039486852 9930888
-0.041997775 -0.065216273 0.011715969 8155762
-0.041437034 -0.063614592 0.012980872 7829367
-0.04113641 -0.062071878 0.01315629 8355711
-0.040877573 -0.060538251 0.013156311 8355711
-0.040615492 -0.059003964 0.013169956 8355711
-0.040352203 -0.057469461 0.013188777 8553090
-0.040088907 -0.055935007 0.013207591 8421504
-0.039825633 -0.054400589 0.01322641 8026746
-0.039558914 -0.052865624 0.013259794 7895160
-0.039290451 -0.05133047 0.013300636 7829367
-0.039022006 -0.04979543 0.013341477 9604750
-0.03875358 -0.048260503 0.013382318 11179927
-0.03848004 -0.04672496 0.013445009 11310485
-0.03820467 -0.045189366 0.013515563 8816005
-0.037929371 -0.043653987 0.013586067 8092539
-0.037654102 -0.042118829 0.013656503 7960953
-0.037421085 -0.040588651 0.013546635 7960953
-0.037332539 -0.039073393 0.012818444 7171180
-0.037112407 -0.037542675 0.012652026 8289918
-0.036853317 -0.03600781 0.012652291 6908265
-0.036659554 -0.034478445 0.012372061 8022120
-0.036416039 -0.032944269 0.012304899 7826026
-0.03638456 -0.031424694 0.011325038 6905695
-0.026558148 -0.027833022 0.051483728 11187589
-0.026307544 -0.026363816 0.051495261 13825446
-0.026056942 -0.024894627 0.051506795 12841633
-0.025806351 -0.023425452 0.051518332 11855248
-0.025555754 -0.021956299 0.051529862 10345848
-0.025305161 -0.020487158 0.051541395 10081908
-0.02505457 -0.019018032 0.051552929 11388023
-0.024803981 -0.017548924 0.051564462 10340211
-0.024553398 -0.016079836 0.051575992 9421931
-0.024302799 -0.01461076 0.051587585 8634720
-0.024052221 -0.013141704 0.051599115 8504416
-0.023801643 -0.011672663 0.051610649 7127879
-0.023551071 -0.010203638 0.051622182 8375386
-0.023300499 -0.0087346314 0.051633712 7522889
-0.023049925 -0.0072656395 0.051645305 6472502
-0.022799358 -0.0057966639 0.051656839 9878357
-0.02254881 -0.0043277065 0.051668312 15709074
-0.022298237 -0.0028587652 0.051679902 16559254
-0.02204768 -0.0013898414 0.051691432 15904402
-0.021797126 7.9067613e-05 0.051702965 12500848
-0.021546574 0.0015479584 0.051714495 11922309
-0.021296026 0.0030168344 0.051726028 12117897
-0.02104548 0.0044856938 0.051737558 11198588
-0.020794937 0.0059545347 0.051749088 9360985
-0.020544397 0.0074233604 0.051760621 9818467
-0.020293852 0.0088921692 0.051772214 8898135
-0.020043332 0.010360963 0.051783685 10735989
-0.019792788 0.011829738 0.051795274 11655811
-0.019542273 0.013298498 0.051806748 10868086
-0.019291732 0.014767239 0.051818337 8699984
-0.019041209 0.016235964 0.051829867 7190581
-0.018790688 0.017704675 0.051841397 7717180
-0.018540172 0.019173367 0.05185293 8700242
-0.018289642 0.020642042 0.051864516 8368716
-0.018039145 0.022110704 0.05187599 8760143
-0.017788623 0.023579344 0.051887579 7248704
-0.017538108 0.025047969 0.051899169 6524984
-0.017287591 0.026516577 0.051910758 6322745
-0.026092321 0.031704251 0.0097485324 1907997
-0.025732843 0.033220261 0.010199893 3223600
-0.025499059 0.034767114 0.010081055 1513239
-0.024845693 0.036202814 0.01187144 2960685
-0.024817977 0.037803642 0.010815427 6708316
-0.024730871 0.039391495 0.01002767 8021606
-0.024050053 0.040809825 0.011950403 6842472
-0.023558032 0.042277664 0.013014389 10064273
-0.023263799 0.043802377 0.01317516 10458774
-0.023004755 0.045337617 0.013174893 9276556
-0.022745701 0.046872877 0.013174688 10589846
-0.022486635 0.048408162 0.013174544 10982805
-0.022255523 0.049952962 0.013045598 10326931
-0.022070449 0.051514268 0.012703962 7697524
-0.022194104 0.053186778 0.010936005 4342338
-0.022319639 0.054866374 0.0091546308 8487297
-0.022059666 0.056408703 0.0091532245 8553090
-0.021800106 0.057951231 0.0091498177 8487297
-0.021540638 0.059493821 0.0091460664 9473935
-0.021280864 0.061036333 0.0091435984 9736850
-0.021096811 0.062609658 0.0087887514 8552576
-0.02148585 0.064422071 0.0057620793 6249564
-0.041730385 -0.065723427 0.006227321 7758177
-0.03994384 -0.063842736 0.01267582 8355454
-0.039578345 -0.062286481 0.013127222 9144970
-0.039312713 -0.06075231 0.013156622 9210763
-0.039054032 -0.059219599 0.013156638 9210763
-0.038795337 -0.057686869 0.01315665 10065558
-0.038536634 -0.05615411 0.013156661 9473678
-0.03827792 -0.054621328 0.013156733 8289918
-0.038019214 -0.053088527 0.013156746 8026746
-0.037756216 -0.051554993 0.013175099 7960953
-0.03749311 -0.050021477 0.01319392 12096660
-0.037227407 -0.048487619 0.013223846 11640221
-0.036959179 -0.046953462 0.013264644 8224125
-0.036690187 -0.045419328 0.013308853 7960953
-0.036415089 -0.043884516 0.01337933 9013384
-0.036140032 -0.042349927 0.013449806 9013384
-0.035918549 -0.040821705 0.01328979 9013384
-0.035806 -0.039304666 0.01266 9408142
-0.03554897 -0.037770975 0.012651963 9276299
-0.035290003 -0.03623705 0.012652274 7171437
-0.03509425 -0.034708548 0.012379212 5262926
-0.034848012 -0.033175126 0.012324053 3421236
-0.034803104 -0.031655926 0.011395705 3749944
-0.024805274 -0.026588265 0.051525556 13694110
-0.024554826 -0.025120022 0.051537145 11986578
-0.024304403 -0.023651797 0.051548678 10213495
-0.024053967 -0.02218359 0.051560204 8244313
-0.023803571 -0.020715397 0.051571686 7718221
-0.023553133 -0.019247221 0.051583275 9161318
-0.023302708 -0.017779065 0.051594801 9619559
-0.023052305 -0.016310923 0.051606275 9555044
-0.022801889 -0.014842795 0.051617868 7523651
-0.022551471 -0.013374687 0.051629398 6933819
-0.022301078 -0.011906597 0.051640868 7262531
-0.022050658 -0.010438521 0.051652458 9035866
-0.02180027 -0.0089704618 0.051663928 9166427
-0.021549869 -0.0075024171 0.051675525 6801209
-0.021299465 -0.0060343929 0.051687051 9810771
-0.021049077 -0.0045663835 0.051698584 15115653
-0.0207987 -0.0030983887 0.051710054 15503991
-0.020548297 -0.0016304139 0.051721644 13349502
-0.020297926 -0.0001624541 0.051733114 10732909
-0.020047529 0.0013054876 0.051744703 10474867
-0.019797156 0.0027734146 0.051756237 9490528
-0.019546771 0.004241325 0.051767763 9424226
-0.019296402 0.0057092179 0.051779296 10674029
-0.019046046 0.0071770968 0.051790766 11790461
-0.018795662 0.0086449552 0.051802356 11526782
-0.018545303 0.0101128 0.051813886 13100442
-0.018294932 0.011580626 0.051825412 12445072
-0.018044585 0.013048438 0.051836882 9752413
-0.017794227 0.014516233 0.051848475 8175424
-0.017543865 0.015984008 0.051860001 5942808
-0.01729352 0.017451771 0.051871534 8111672
-0.017043164 0.018919514 0.05188306 8830794
-0.016792832 0.020387243 0.051894531 8761679
-0.016542494 0.021854956 0.051906064 7316030
-0.01629216 0.023322653 0.051917594 5212703
-0.016041815 0.02479033 0.05192912 4948760
-0.015791466 0.026257988 0.051940706 6193959
-0.025803249 0.031741221 0.0039332313 4736068
-0.025307328 0.033232309 0.0050053759 4735554
-0.025284221 0.034841869 0.0039144405 5589835
-0.024786029 0.036328629 0.0049997256 4999754
-0.024817675 0.03795718 0.0036543831 4933961
-0.024685958 0.039544307 0.0030567544 5786957
-0.022532053 0.040544719 0.011769893 7367788
-0.022010885 0.042002946 0.012977215 6908265
-0.021708967 0.043524336 0.013175378 8092539
-0.021450061 0.04505863 0.013175162 8289918
-0.021191154 0.046592951 0.013174947 8224125
-0.020935658 0.04812843 0.013158872 8092282
-0.020758722 0.049690768 0.012778073 7171437
-0.020776467 0.051322475 0.011491386 4605510
-0.021019196 0.053039279 0.0091540916 8618883
-0.020759095 0.054580536 0.0091540301 8618883
-0.020498656 0.056121696 0.0091554299 9079177
-0.020241061 0.057663962 0.0091435583 9671057
-0.019980952 0.059205316 0.0091434363 11115419
-0.019742418 0.060755316 0.0090421662 11376535
-0.019673754 0.062375057 0.0081435936 9073266
-0.02238949 0.065158464 -0.0058387876 9932430
-0.040412653 -0.067478769 0.0062397998 8881284
-0.040153936 -0.065935783 0.0062322109 10781571
-0.038461987 -0.064073101 0.01232614 9795447
-0.038027935 -0.062502086 0.013073336 11374736
-0.037749242 -0.060965993 0.0131592 11637651
-0.037491232 -0.059434328 0.013156972 11703187
-0.037232682 -0.057902541 0.013156974 11965074
-0.03697414 -0.056370724 0.013156981 11768209
-0.036715578 -0.054838885 0.013156983 9276556
-0.036457006 -0.053307015 0.013157046 8158332
-0.036198456 -0.051775131 0.013157054 8026746
-0.035939876 -0.050243221 0.013157117 12359318
-0.035681318 -0.048711281 0.013157064 12357005
-0.035422731 -0.047179326 0.013157127 9802129
-0.035163157 -0.045647204 0.013161488 8158332
-0.034898449 -0.044114403 0.013187951 10064787
-0.034627113 -0.042580847 0.013243233 11636109
-0.034410406 -0.041053832 0.013061711 11767438
-0.034246281 -0.039531961 0.012651448 11899538
-0.033987477 -0.037998997 0.012651755 10786711
-0.033728629 -0.036466014 0.012652174 7895160
-0.03353088 -0.034938373 0.012386341 8611430
-0.033284672 -0.033405915 0.012331318 3355443
-0.033187296 -0.031884164 0.011625837 4144702
-0.02330493 -0.026812416 0.051555887 14089865
-0.023054663 -0.025345124 0.051567417 11202946
-0.022804422 -0.023877848 0.051578887 8442964
-0.022554155 -0.022410586 0.05159048 7523905
-0.022303905 -0.020943344 0.051601946 7392568
-0.022053642 -0.019476114 0.051613536 7523393
-0.0218034 -0.018008905 0.051625006 7851589
-0.021553142 -0.01654171 0.051636595 9557089
-0.021302918 -0.015074532 0.051648069 9295710
-0.021052675 -0.013607372 0.051659599 9164640
-0.020802435 -0.012140227 0.051671125 10872446
-0.020552197 -0.010673099 0.051682655 13106844
-0.020301962 -0.0092059886 0.051694185 12647569
-0.020051751 -0.007738892 0.051705658 11595909
-0.019801514 -0.0062718126 0.051717248 8900442
-0.019551288 -0.0048047523 0.051728774 10472816
-0.019301072 -0.0033377071 0.051740244 12504453
-0.019050865 -0.0018706756 0.051751778 12901010
-0.018800648 -0.00040366486 0.051763304 11523452
-0.018550431 0.0010633311 0.051774833 13364640
-0.018300241 0.0025303126 0.051786304 10540397
-0.018050032 0.0039972747 0.051797833 10145897
-0.017799804 0.0054642176 0.051809415 11460985
-0.017549613 0.0069311489 0.051820949 12906127
-0.017299412 0.0083980616 0.051832478 11985287
-0.017049214 0.009864958 0.051844005 10996597
-0.01679904 0.01133184 0.051855478 8437323
-0.016548848 0.012798703 0.051867004 7321137
-0.016298657 0.01426555 0.051878534 8503106
-0.016048471 0.01573238 0.05189006 7319845
-0.015798286 0.017199194 0.051901586 10930494
-0.015548104 0.01866599 0.051913116 11783247
-0.01529794 0.020132773 0.051924646 10796636
-0.015047763 0.021599537 0.051936176 10137439
-0.014797598 0.023066286 0.051947642 10728038
-0.014621863 0.024549289 0.051617753 10331745
-0.014662533 0.026082536 0.050293021 11382893
-0.025703076 0.03182533 -0.0028352533 5853264
-0.025305251 0.033351883 -0.0022152064 6181201
-0.025279878 0.03497282 -0.0033132304 5392456
-0.02478735 0.036472749 -0.0022543273 4473410
-0.024820261 0.038113765 -0.0036251948 5065547
-0.021804176 0.038894206 0.0091343969 8940138
-0.021015318 0.040279835 0.011589488 10385785
-0.020465469 0.041728526 0.012940199 7697524
-0.020156004 0.043246623 0.013175679 9539471
-0.019897265 0.044779982 0.013175399 10787482
-0.019638406 0.046313331 0.013175647 10196116
-0.019441338 0.047867324 0.012887121 9932430
-0.019319201 0.049448006 0.012247169 7105387
-0.019720379 0.051214445 0.0091535486 5723991
-0.019460442 0.052754741 0.0091533558 9276556
-0.019200675 0.054295126 0.0091523407 9342349
-0.018939445 0.05583499 0.0091582024 10262423
-0.018683083 0.057376731 0.0091411443 11378077
-0.01842339 0.058917247 0.0091397185 12616322
-0.018257231 0.060495347 0.0086964294 10780029
-0.019010775 0.062452171 0.0039018665 9398376
-0.038869847 -0.069175981 0.0072211563 5000268
-0.03883921 -0.067690186 0.0062396289 8026746
-0.038578328 -0.066147611 0.0062418529 10327702
-0.037143055 -0.064339973 0.011280797 8809837
-0.036548778 -0.062732674 0.012720825 9800330
-0.036198024 -0.061181605 0.013117383 10589332
-0.035930365 -0.059648808 0.013157217 10720918
-0.035671949 -0.058117948 0.01315727 10720918
-0.035413552 -0.056587074 0.013157268 12486021
-0.035155129 -0.05505617 0.013157321 10917269
