# .PCD v0.7 - Point Cloud Data file format
VERSION 0.7
FIELDS x y z rgb
SIZE 4 4 4 4
TYPE F F F U
COUNT 1 1 1 1
WIDTH 1044
HEIGHT 1
VIEWPOINT 0 0 0 1 0 0 0
POINTS 1044
DATA ascii
-0.012875323 -0.0049991682 0.040873259 6261616
-0.013038034 -0.0037097195 0.040843539 8298373
-0.013200805 -0.0024197213 0.040813804 8562312
-0.013363636 -0.0011291757 0.04078405 12176843
-0.013526527 0.00016191765 0.040754296 9090202
-0.013689538 0.0014535593 0.040724516 6330474
-0.013852667 0.0027457476 0.040694714 9284749
-0.014015738 0.004038488 0.040664926 12240317
-0.014178929 0.005331777 0.040635113 10729635
-0.014342238 0.0066256151 0.040605273 7118711
-0.014505548 0.0079200044 0.040575441 6001765
-0.014668979 0.0092149442 0.040545586 4162116
-0.014832469 0.010510434 0.040515721 5870435
-0.014996018 0.011806476 0.040485837 13293010
-0.015159569 0.01310307 0.040455956 12034443
-0.015323298 0.014400214 0.040426046 9930078
-0.015487088 0.015697911 0.040396128 7639902
-0.015650937 0.016996162 0.040366195 5673809
-0.015814787 0.018294964 0.040336262 5149002
-0.015978755 0.019594321 0.0403063 4164670
-0.016142786 0.020894231 0.040276341 4690245
-0.016306875 0.022194697 0.040246364 7575390
-0.016471025 0.023495713 0.040216371 9079902
-0.016635293 0.024797289 0.040186364 8491103
-0.016799623 0.026099417 0.040156346 8621663
-0.016964011 0.027402101 0.040126309 9472358
-0.034267068 -0.029578511 0.035359949 5670482
-0.01492434 -0.027118098 0.039140914 5077338
-0.010236726 -0.025554681 0.040058546 4952650
-0.010398349 -0.024273945 0.040028743 4491330
-0.010560031 -0.022992663 0.03999893 6987365
-0.010721774 -0.021710843 0.039969105 8695681
-0.010883577 -0.020428479 0.039939277 7119982
-0.011045499 -0.019145574 0.039909419 5280856
-0.011207422 -0.017862121 0.039879564 3835729
-0.011369464 -0.016578129 0.03984968 5740412
-0.011531507 -0.015293589 0.039819807 9814476
-0.011693669 -0.014008507 0.039789908 12969471
-0.011855892 -0.01272288 0.039759997 12574719
-0.012018233 -0.01143671 0.039730065 12179704
-0.012180516 -0.010149989 0.039700139 11521770
-0.012342977 -0.0088627292 0.039670181 9680066
-0.012505499 -0.0075749205 0.039640218 5603696
-0.012668081 -0.0062865666 0.039610241 4421723
-0.012830722 -0.0049976651 0.039580248 4356184
-0.012993365 -0.003708214 0.039550263 5933671
-0.013156186 -0.0024182193 0.039520241 8819828
-0.013319007 -0.0011276752 0.039490223 11971999
-0.013481949 0.00016341645 0.039460175 9220760
-0.01364495 0.0014550575 0.039430123 9221277
-0.013807951 0.002747247 0.039400067 7841411
-0.013971131 0.0040399851 0.039369978 8301197
-0.014134312 0.0053332723 0.039339889 4950609
-0.014297495 0.0066271122 0.0393098 2651179
-0.014460854 0.0079214992 0.039279677 2322724
-0.014624216 0.009216438 0.039249562 4687686
-0.014787696 0.010511927 0.039219413 5541201
-0.014951237 0.011807968 0.039189264 12174261
-0.015114837 0.01310456 0.039159097 13025202
-0.015278557 0.014401704 0.039128903 9282683
-0.015442278 0.0156994 0.039098721 4426304
-0.015606118 0.016997648 0.039068513 2916909
-0.015769958 0.01829645 0.039038301 2654505
-0.01593392 0.019595807 0.039008074 2194722
-0.016097939 0.020895716 0.038977832 2589224
-0.016262079 0.022196179 0.03894756 5477709
-0.016426219 0.023497196 0.038917299 7641699
-0.016590478 0.02479877 0.038887013 6591576
-0.016754737 0.026100896 0.038856726 6000978
-0.016919177 0.02740358 0.038826402 7508324
-0.034258366 -0.029579174 0.034022991 5801300
-0.014914981 -0.027118633 0.037837304 4880216
-0.010192273 -0.025553159 0.038769908 4362049
-0.010353887 -0.024272421 0.038739838 2586917
-0.010515502 -0.022991141 0.038709763 4557893
-0.010677294 -0.021709323 0.038679656 6003548
-0.010839088 -0.020426963 0.038649552 5477973
-0.011001 -0.019144056 0.038619418 3441722
-0.011162914 -0.017860608 0.038589295 3836239
-0.011324947 -0.016576616 0.038559143 5215088
-0.01148698 -0.015292075 0.038528986 8105644
-0.011649134 -0.014006995 0.038498819 12641023
-0.011811346 -0.012721369 0.038468629 12640255
-0.011973678 -0.011435201 0.038438424 12179961
-0.012136011 -0.010148484 0.038408216 11653613
-0.012298404 -0.0088612214 0.038377997 10140879
-0.012460916 -0.0075734141 0.038347755 5209967
-0.01262343 -0.0062850579 0.03831752 4356443
-0.012786062 -0.0049961582 0.038287256 4291162
-0.012948754 -0.0037067104 0.03825698 4620380
-0.013111507 -0.0024167155 0.038226694 6525801
-0.013274378 -0.0011261728 0.038196389 7577726
-0.013437251 0.00016491913 0.038166083 10009516
-0.013600302 0.0014565567 0.038135745 9484195
-0.013763295 0.0027487457 0.038105413 8039046
-0.013926406 0.0040414832 0.038075056 7118452
-0.014089578 0.0053347698 0.038044695 4030783
-0.01425281 0.0066286069 0.038014319 2191648
-0.014416161 0.007922993 0.03798392 1863194
-0.014579572 0.009217931 0.037953515 8557412
-0.014743043 0.010513419 0.037923098 8360033
-0.014906515 0.011809459 0.037892681 8958862
-0.015070106 0.01310605 0.037862238 12835282
-0.015233757 0.014403193 0.03783178 8302724
-0.015397587 0.015700888 0.037801296 2325283
-0.015561359 0.016999137 0.037770826 2128928
-0.01572519 0.018297937 0.037740335 2260771
-0.01588914 0.019597292 0.037709832 2457892
-0.016053211 0.0208972 0.037679296 2523428
-0.01621728 0.022197662 0.037648767 3639861
-0.016381413 0.023498679 0.037618231 4624452
-0.016545663 0.02480025 0.037587658 3835961
-0.016709972 0.026102377 0.037557088 3374896
-0.016874284 0.027405059 0.037526511 4816194
-0.034249663 -0.029579835 0.032685898 5932372
-0.014905619 -0.027119167 0.036533587 5339997
-0.010147821 -0.025551639 0.037481278 5412684
-0.010309425 -0.024270903 0.037450936 2915367
-0.01047103 -0.022989625 0.037420589 3440945
-0.010632814 -0.021707807 0.037390206 5346639
-0.010794599 -0.020425446 0.037359834 6266720
-0.010956502 -0.01914254 0.037329424 3113523
-0.011118406 -0.017859092 0.037299026 4296276
-0.01128043 -0.016575102 0.037268601 8170126
-0.011442513 -0.015290566 0.037238166 9877936
-0.011604598 -0.014005483 0.03720773 13163244
-0.011766802 -0.012719858 0.037177272 13754101
-0.011929065 -0.011433688 0.037146803 13622000
-0.012091448 -0.010146975 0.037116308 13358313
-0.012253832 -0.0088597136 0.037085816 12634585
-0.012416335 -0.0075719077 0.037055302 9740959
-0.012578839 -0.0062835533 0.037024785 8755335
-0.012741521 -0.004994655 0.036994237 9544338
-0.012904145 -0.003705207 0.036963701 8956053
-0.013066888 -0.0024152116 0.036933139 9416601
-0.01322975 -0.0011246706 0.036902558 12106931
-0.013392672 0.00016641793 0.036871962 12433581
-0.013555596 0.0014580569 0.036841374 10593672
-0.013718638 0.0027502442 0.036810759 10264446
-0.01388174 0.0040429812 0.036780126 12104095
-0.014044902 0.005336266 0.036749497 8498570
-0.014208185 0.0066301017 0.03671883 4885579
-0.014371467 0.0079244878 0.036688164 3637301
-0.014534868 0.0092194239 0.036657482 4885574
-0.014698271 0.010514912 0.036626797 4229182
-0.014861852 0.01181095 0.036596082 5018194
-0.015025374 0.01310754 0.036565382 12114384
-0.015189076 0.014404682 0.036534645 8238216
-0.015352778 0.015702376 0.036503896 3311153
-0.01551654 0.017000625 0.036473144 3114542
-0.015680421 0.018299423 0.036442373 3377714
-0.015844362 0.019598778 0.036411587 3771701
-0.016008364 0.020898685 0.036380801 4034360
-0.016172484 0.022199146 0.036349978 4230970
-0.016336605 0.023500161 0.036319159 4296251
-0.016500846 0.024801731 0.036288321 4427070
-0.016665088 0.026103856 0.036257468 4491582
-0.016829448 0.027406538 0.036226612 4027702
-0.034240894 -0.029580494 0.031348702 6129237
-0.014896253 -0.027119702 0.03522975 5208668
-0.010103369 -0.025550118 0.036192656 3246381
-0.010264964 -0.024269383 0.03616203 3178794
-0.01042656 -0.022988105 0.036131423 5346381
-0.010588334 -0.021706292 0.036100764 7382896
-0.010750109 -0.02042393 0.036070108 7711609
-0.010912003 -0.019141028 0.036039431 5017680
-0.011073899 -0.017857578 0.036008757 7777417
-0.011235912 -0.016573589 0.035978064 12034709
-0.011397928 -0.015289051 0.035947371 11118491
-0.011560122 -0.014003974 0.035916626 13156295
-0.011722256 -0.012718348 0.035885915 14405343
-0.01188457 -0.011432181 0.035855155 14274272
-0.012046885 -0.010145467 0.035824396 14011357
-0.012209319 -0.0088582095 0.035793632 13485525
-0.012371752 -0.0075704018 0.035762854 11908023
-0.012534306 -0.0062820506 0.035732042 9933699
-0.01269686 -0.0049931495 0.035701245 10786697
-0.012859594 -0.0037037055 0.035670415 11123377
-0.013022268 -0.0024137096 0.035639588 11519421
-0.013185121 -0.0011231703 0.035608739 10657154
-0.013347975 0.00016791873 0.035577875 10397063
-0.013510948 0.001459557 0.035546996 12107695
-0.013673982 0.0027517427 0.035516113 11188124
-0.013837074 0.0040444778 0.035485197 9414783
-0.014000228 0.0053377626 0.035454281 9747108
-0.0141635 0.0066315974 0.03542335 11061435
-0.014326773 0.0079259817 0.035392415 9353625
-0.014490166 0.0092209177 0.035361465 9745290
-0.014653618 0.010516404 0.035330482 5477712
-0.014817071 0.011812442 0.035299513 5083983
-0.014980644 0.013109031 0.03526853 13294804
-0.015144335 0.014406172 0.03523751 12039836
-0.015307969 0.015703866 0.035206508 9279849
-0.015471781 0.017002111 0.035175458 9148004
-0.015635652 0.01830091 0.035144418 9344611
-0.015799584 0.019600263 0.03511335 9672293
-0.015963577 0.020900169 0.035082281 9999973
-0.016127627 0.022200629 0.035051193 10130532
-0.016291799 0.023501644 0.035020091 9933668
-0.01645603 0.024803214 0.03498897 9802340
-0.016620321 0.026105339 0.034957845 9867107
-0.016784614 0.027408019 0.034926709 6129232
-0.054941166 -0.032192469 0.02582106 7636079
-0.034232244 -0.029581159 0.030011367 6391383
-0.014886883 -0.027120238 0.033925794 5208412
-0.010058917 -0.0255486 0.034904025 3312426
-0.010220503 -0.024267865 0.034873132 6002766
-0.010382089 -0.022986587 0.034842242 10067313
-0.010543854 -0.021704772 0.034811318 11247742
-0.01070562 -0.020422414 0.034780391 11640704
-0.010867505 -0.019139512 0.034749448 10524019
-0.011029391 -0.017856061 0.034718502 11838097
-0.011191396 -0.016572075 0.034687527 11773849
-0.011353401 -0.015287538 0.034656551 8432533
-0.011515526 -0.01400246 0.034625556 10798534
-0.011677712 -0.012716837 0.034594562 13296117
-0.011839957 -0.011430671 0.034563534 13427194
-0.012002321 -0.010143958 0.034532502 13032693
-0.012164687 -0.0088566989 0.034501459 12572139
-0.012327171 -0.0075688954 0.034470394 11322835
-0.012489656 -0.0062805419 0.034439333 9151897
-0.01265232 -0.0049916469 0.034408238 10399394
-0.012814984 -0.0037022019 0.034377139 8956825
-0.012977649 -0.0024122077 0.034346044 7576448
-0.013140493 -0.0011216679 0.034314912 9348482
-0.013303338 0.00016941945 0.03428378 9351311
-0.013466301 0.0014610562 0.034252629 11586239
-0.013629325 0.0027532415 0.034221463 11126707
-0.013792409 0.0040459749 0.034190282 11190181
-0.013955552 0.0053392588 0.034159083 9220229
-0.014118756 0.0066330936 0.034127884 9943707
-0.014282079 0.0079274774 0.034096666 11193788
-0.014445404 0.0092224116 0.034065448 12045495
-0.014608846 0.010517897 0.0340342 8300916
-0.01477235 0.011813933 0.034002945 8761214
-0.014935913 0.013110521 0.033971678 13949652
-0.015099536 0.014407662 0.033940393 11974041
-0.015263278 0.015705355 0.03390909 8625508
-0.015427081 0.0170036 0.033877771 7381342
-0.015590884 0.018302398 0.033846453 7446879
-0.015754806 0.019601747 0.033815116 7447390
-0.015918789 0.020901654 0.033783779 7447645
-0.016082831 0.022202112 0.033752408 7381852
-0.016246993 0.023503127 0.033721019 7184475
-0.016411155 0.024804695 0.033689648 7052889
-0.016575439 0.026106818 0.03365824 8949853
-0.01673978 0.027409498 0.033626817 8948066
-0.053637557 -0.034841452 0.024708346 10591388
-0.053297017 -0.033455666 0.024779698 10460059
-0.053376317 -0.032097008 0.024765417 7043686
-0.034223527 -0.029581821 0.028673902 6587993
-0.014877508 -0.027120773 0.032621719 6783847
-0.010014465 -0.025547078 0.03361541 8430949
-0.010176041 -0.024266345 0.033584248 8233572
-0.010337618 -0.022985067 0.033553075 9479023
-0.010499374 -0.021703256 0.033521883 11771773
-0.010661131 -0.020420894 0.033490688 9811081
-0.010822947 -0.019137992 0.033459477 7905645
-0.010984883 -0.017854549 0.033428233 8563080
-0.011146879 -0.016570562 0.033396989 8103305
-0.011308875 -0.015286027 0.033365745 5279597
-0.011470991 -0.01400095 0.033334482 7448473
-0.011633167 -0.012715328 0.033303205 11983343
-0.011795403 -0.011429161 0.033271909 12574717
-0.011957699 -0.010142448 0.033240613 12245496
-0.012120114 -0.0088551911 0.033209283 11719149
-0.01228253 -0.0075673871 0.033177957 10929629
-0.012445064 -0.0062790373 0.033146609 7839126
-0.01260766 -0.0049901395 0.033115245 6919035
-0.012770315 -0.0037006964 0.033083878 5868138
-0.012933031 -0.0024107057 0.033052497 5868137
-0.013095805 -0.0011201656 0.0330211 7511924
-0.013258699 0.00017092018 0.032989684 7052395
-0.013421654 0.0014625554 0.03295825 10403501
-0.013584669 0.002754739 0.032926816 9024400
-0.013747742 0.004047473 0.032895353 10003834
-0.013910878 0.0053407555 0.0328639 9804910
-0.014074072 0.0066345884 0.032832418 8626025
-0.014237327 0.0079289721 0.032800935 5937744
-0.0144007 0.0092239045 0.032769416 6594649
-0.014564134 0.010519389 0.0327379 7511903
-0.014727628 0.011815424 0.032706365 11387300
-0.014891182 0.013112012 0.032674827 13557719
-0.015054795 0.014409151 0.032643259 9681547
-0.015218469 0.015706843 0.03261169 6069069
-0.015382262 0.017005086 0.032580104 4691516
-0.015546115 0.018303884 0.032548498 4757308
-0.015710028 0.019603234 0.032516893 4757563
-0.015874002 0.020903138 0.032485258 4757305
-0.016038034 0.022203596 0.032453619 5741638
-0.016202187 0.023504609 0.032421965 6725457
-0.01636634 0.024806175 0.032390308 6790481
-0.016530612 0.026108298 0.03235862 7313238
-0.016694946 0.027410977 0.032326929 7769439
-0.054617304 0.03064655 0.024599575 7368559
-0.053695314 0.031995062 0.024789428 6579300
-0.053336669 0.03335176 0.024864433 8553090
-0.053737484 0.034723818 0.024784626 11509663
-0.051983215 -0.034734964 0.023675893 11771293
-0.051973499 -0.033372942 0.02367978 11640735
-0.052497953 -0.032043993 0.023573799 6911587
-0.034214862 -0.029582487 0.027336314 6850394
-0.01486813 -0.027121305 0.031317525 7242857
-0.0099700131 -0.025545558 0.032326795 8955496
-0.01013158 -0.024264827 0.03229535 7250265
-0.010293207 -0.022983551 0.032263909 7447393
-0.010454895 -0.021701736 0.032232448 9351295
-0.010616641 -0.020419378 0.03220097 8696448
-0.010778449 -0.019136479 0.032169491 7380579
-0.010940376 -0.017853035 0.032137983 6986091
-0.011102363 -0.016569048 0.03210647 5542249
-0.011264349 -0.015284514 0.032074943 6921340
-0.011426456 -0.013999438 0.032043412 8301462
-0.011588623 -0.012713818 0.032011848 12178658
-0.011750908 -0.011427654 0.031980269 13295607
-0.011913195 -0.010140941 0.031948704 13229558
-0.012075542 -0.0088536832 0.03191711 12900333
-0.012237948 -0.0075658807 0.031885512 12243175
-0.012400533 -0.0062775342 0.031853881 8825255
-0.012563059 -0.0049886364 0.031822249 6590327
-0.012725705 -0.003699193 0.031790618 6196591
-0.012888411 -0.0024092037 0.031758953 8496272
-0.013051236 -0.0011186652 0.031727269 9481362
-0.013214062 0.0001724209 0.031695589 9021054
-0.013377007 0.0014640546 0.031663887 11518385
-0.013540013 0.0027562375 0.03163217 8563844
-0.013703077 0.0040489701 0.031600438 10853496
-0.013866143 0.005342253 0.031568721 10008207
-0.014029387 0.0066360841 0.031536952 8103789
-0.014192632 0.0079304669 0.031505186 3835945
-0.014355998 0.0092253983 0.031473398 3639333
-0.014519421 0.010520881 0.031441599 6660957
-0.014682847 0.011816916 0.031409811 12836047
-0.014846451 0.013113502 0.031377975 11129011
-0.015010055 0.01441064 0.031346139 6989921
-0.015173779 0.015708331 0.031314287 4363059
-0.015337504 0.017006574 0.031282432 3115297
-0.015501346 0.018305371 0.031250548 3247137
-0.01566525 0.019604718 0.031218657 3247136
-0.015829215 0.020904623 0.031186754 3771942
-0.015993239 0.022205079 0.031154847 6331722
-0.016157381 0.023506092 0.031122908 7577173
-0.016321525 0.024807658 0.031090971 7838807
-0.016485788 0.026109779 0.031059014 6263883
-0.016650053 0.027412456 0.031027043 5406789
-0.054087576 0.030640028 0.023334213 7894646
-0.05263833 0.031977996 0.023634037 7171437
-0.052266374 0.033332702 0.023712398 8553090
-0.05208626 0.034690317 0.023751324 10525595
-0.05084946 -0.034662437 0.022540977 12228246
-0.051145006 -0.033321671 0.022481579 10982291
-0.051827066 -0.032003801 0.022342006 8029298
-0.034206137 -0.029583149 0.025998611 7178590
-0.014858866 -0.027121847 0.030013178 6652518
-0.009925561 -0.025544036 0.031038178 7252315
-0.010087119 -0.024263307 0.031006468 6134860
-0.010248736 -0.022982037 0.03097474 5806411
-0.010410415 -0.02170022 0.030943012 6200405
-0.010572153 -0.020417862 0.030911269 6988131
-0.010733951 -0.019134961 0.030879507 6985819
-0.010895868 -0.017851518 0.030847728 6658147
-0.011057845 -0.016567536 0.030815931 4490323
-0.011219824 -0.015283001 0.030784152 7313526
-0.011381921 -0.013997925 0.030752338 7773313
-0.011544079 -0.012712307 0.030720508 11059908
-0.011706295 -0.011426141 0.030688662 13294317
-0.011868573 -0.010139431 0.030656815 13557236
-0.012030969 -0.0088521754 0.03062495 13228269
-0.012193366 -0.0075643747 0.030593069 12637163
-0.012355883 -0.0062760259 0.030561171 10074303
-0.01251846 -0.0049871313 0.030529272 7640965
-0.012681096 -0.0036976894 0.03049734 8429451
-0.012843792 -0.0024077001 0.030465407 10465444
-0.013006608 -0.0011171649 0.030433457 9611664
-0.013169425 0.00017392161 0.030401507 9809550
-0.01333236 0.0014655546 0.030369524 11847096
-0.013495356 0.002757736 0.030337524 8300926
-0.013658353 0.004050469 0.03030554 7905125
-0.013821527 0.0053437483 0.030273505 10404779
-0.013984703 0.0066375798 0.030241486 8960140
-0.01414794 0.0079319607 0.030209452 5083964
-0.014311294 0.0092268912 0.030177383 5216065
-0.014474651 0.010522375 0.03014533 9683612
-0.014638185 0.011818407 0.030113228 12443346
-0.014801719 0.013114993 0.030081125 8435324
-0.014965315 0.014412129 0.03004902 6857044
-0.01512897 0.015709819 0.030016901 4822840
-0.015292744 0.017008061 0.029984763 3377954
-0.015456519 0.018306855 0.02995261 3312671
-0.015620414 0.019606205 0.029920453 3378207
-0.015784428 0.020906106 0.02988825 4231979
-0.015948443 0.022206562 0.02985606 7381333
-0.016112516 0.023507573 0.029823856 8298329
-0.01627671 0.024809139 0.029791633 9082458
-0.016440963 0.026111258 0.029759392 6460235
-0.016605278 0.027413936 0.029727152 4422459
-0.053804804 0.030637635 0.022019317 9338237
-0.052061535 0.031969775 0.022382598 8683391
-0.051261351 0.033314947 0.022550369 6908265
-0.05100869 0.03466934 0.022604633 8750469
-0.049650278 -0.03458564 0.021423493 9145227
-0.050219908 -0.033264257 0.021306267 8355197
-0.051468663 -0.031982932 0.021047011 10193785
-0.034197468 -0.029583814 0.02466077 7244382
-0.014849479 -0.02712238 0.028708745 6192738
-0.009881109 -0.025542518 0.029749563 7120986
-0.010042657 -0.024261789 0.02971757 7577690
-0.010204267 -0.022980517 0.029685589 7251039
-0.010365935 -0.021698704 0.029653577 7712113
-0.010527665 -0.020416345 0.029621566 9025159
-0.010689453 -0.019133445 0.029589536 6724187
-0.010851361 -0.017850006 0.029557474 6526814
-0.011013329 -0.016566021 0.02952541 4359760
-0.011175297 -0.01528149 0.029493347 6855801
-0.011337386 -0.013996416 0.029461266 7315584
-0.011499534 -0.012710797 0.029429168 10008749
-0.011661742 -0.011424632 0.029397054 12769512
-0.011824069 -0.010137926 0.029364906 13165051
-0.011986397 -0.0088506695 0.029332774 12770293
-0.012148784 -0.0075628683 0.029300626 12178671
-0.012311292 -0.0062745209 0.02926846 10798036
-0.012473859 -0.0049856282 0.029236278 8233622
-0.012636545 -0.0036961879 0.029204061 7968896
-0.012799174 -0.0024061981 0.029171878 7837305
-0.012961921 -0.0011156625 0.02913966 7116661
-0.013124787 0.00017542233 0.02910741 10009002
-0.013287714 0.0014670538 0.029075159 11126202
-0.0134507 0.0027592347 0.029042892 8563324
-0.013613688 0.0040519661 0.029010624 4556335
-0.013776794 0.0053452454 0.028978338 4886078
-0.01394002 0.0066390745 0.02894602 4492596
-0.014103246 0.0079334546 0.028913703 5938511
-0.014266592 0.0092283851 0.028881365 10012065
-0.014429998 0.010523866 0.028849028 12771802
-0.014593463 0.011819899 0.028816659 8633221
-0.014756989 0.013116483 0.028784288 6463824
-0.014920516 0.014413619 0.028751919 8231766
-0.015084221 0.015711308 0.028719513 7250004
-0.015247926 0.017009549 0.028687093 4363312
-0.015411751 0.018308342 0.028654672 3444257
-0.015575636 0.019607689 0.028622217 3575328
-0.015739581 0.02090759 0.028589763 3837729
-0.015903587 0.022208046 0.028557304 5610301
-0.016067712 0.023509055 0.028524816 7119185
-0.016231835 0.02481062 0.028492311 8886362
-0.016396079 0.026112739 0.028459802 7902550
-0.016560385 0.027415413 0.028427279 5277003
-0.053800575 0.0306399 0.020647008 10190205
-0.051746026 0.031966366 0.021078356 9730939
-0.05035764 0.033299226 0.021370446 6184542
-0.049987618 0.034649592 0.021449676 9079177
-0.048783936 -0.034530554 0.020239806 6447714
-0.049661778 -0.033230159 0.0200566 7368559
-0.050787721 -0.031942118 0.019821106 8291957
-0.034188733 -0.029584475 0.023322813 6981980
-0.01484009 -0.027122913 0.027404208 6127201
-0.009836657 -0.025540994 0.028460948 8037983
-0.0099981967 -0.024260269 0.028428687 9996115
-0.010159796 -0.022978997 0.028396422 9346150
-0.010321456 -0.021697186 0.028364144 9352068
-0.010483176 -0.020414829 0.028331863 9681036
-0.010644955 -0.019131932 0.028299551 5542989
-0.010806854 -0.017848492 0.028267235 6264407
-0.010968813 -0.016564509 0.028234888 3637312
-0.011130773 -0.015279977 0.028202558 4227668
-0.011292851 -0.013994903 0.028170193 5213796
-0.011454989 -0.012709286 0.028137812 9088667
-0.011617247 -0.011423125 0.028105414 11784669
-0.011779447 -0.010136414 0.028073031 12508668
-0.011941765 -0.0088491598 0.028040633 12179703
-0.012104204 -0.00756136 0.028008198 11719408
-0.012266701 -0.0062730163 0.027975749 10929886
-0.012429259 -0.0049841232 0.027943283 9088173
-0.012591877 -0.0036946824 0.027910816 8955798
-0.012754555 -0.0024046961 0.027878333 9022100
-0.012917293 -0.0011141603 0.027845848 7051124
-0.01308015 0.00017692118 0.02781333 6854248
-0.013243008 0.0014685539 0.027780812 6920546
-0.013406045 0.0027607332 0.027748259 8559459
-0.013569081 0.0040534618 0.027715707 6197830
-0.013732179 0.0053467411 0.027683139 7119197
-0.013895336 0.0066405702 0.027650569 9550990
-0.014058553 0.0079349494 0.027617969 11982789
-0.01422189 0.0092298789 0.027585363 11589314
-0.014385226 0.010525359 0.027552744 7647345
-0.014548683 0.011821391 0.027520107 4099627
-0.0147122 0.013117974 0.02748747 4428079
-0.014875835 0.014415109 0.027454782 6725197
-0.015039471 0.015712796 0.027422111 8363096
-0.015203227 0.017011035 0.027389422 7184722
-0.015366983 0.018309828 0.027356718 6201674
-0.015530859 0.019609176 0.027323997 6464075
-0.015694853 0.020909075 0.027291255 6660940
-0.01585885 0.022209529 0.027258515 5610556
-0.016022906 0.023510538 0.027225761 5806656
-0.016187022 0.0248121 0.027192988 7248719
-0.016351257 0.02611422 0.027160197 6918732
-0.016515551 0.027416894 0.027127391 5210691
-0.053882975 0.029279044 0.019254396 9340807
-0.05284413 0.030626234 0.019475242 10587276
-0.05139685 0.031962335 0.019782139 8946820
-0.049869385 0.033291873 0.020105928 6579300
-0.048883814 0.03462803 0.020315517 7894903
-0.04802053 -0.034482185 0.01903704 6579300
-0.049392466 -0.033214416 0.018747307 6184542
-0.05032929 -0.031915061 0.01855007 5989459
-0.034180056 -0.02958514 0.021984736 6719577
-0.014830695 -0.027123446 0.026099537 5536348
-0.0097922059 -0.025539476 0.027172333 5874762
-0.0099537354 -0.024258748 0.027139802 7380309
-0.010115326 -0.022977479 0.02710727 7445592
-0.010276917 -0.021695666 0.027074726 7380318
-0.010438687 -0.020413313 0.02704216 7774568
-0.010600457 -0.019130416 0.02700958 5082949
-0.010762347 -0.017846975 0.026976982 6067023
-0.010924296 -0.016562995 0.026944367 3308085
-0.011086247 -0.015278463 0.026911767 3964495
-0.011248316 -0.013993393 0.026879121 5410919
-0.011410445 -0.012707775 0.026846472 8628622
-0.011572635 -0.011421614 0.026813822 10930123
-0.011734884 -0.010134905 0.026781155 12246264
-0.011897253 -0.0088476539 0.026748454 12245752
-0.012059622 -0.0075598541 0.026715755 11785202
-0.01222211 -0.0062715099 0.026683038 11258597
-0.01238466 -0.0049826181 0.026650304 9548732
-0.012547268 -0.003693179 0.026617555 9285029
-0.012709936 -0.0024031941 0.026584802 10664111
-0.012872724 -0.0011126599 0.026552018 10597285
-0.013035513 0.00017842189 0.026519248 10465947
-0.013198362 0.0014700531 0.026486449 10597270
-0.013361389 0.0027622317 0.026453627 12491910
-0.013524357 0.0040549608 0.026420809 11909538
-0.013687445 0.0053482382 0.026387973 12240565
-0.013850593 0.0066420664 0.026355119 12831162
-0.014013859 0.0079364432 0.026322234 10471073
-0.014177128 0.0092313727 0.026289364 6727516
-0.014340574 0.010526851 0.026256442 5019704
-0.014503961 0.011822882 0.026223555 5150518
-0.014667468 0.013119464 0.026190618 4953655
-0.014831095 0.014416598 0.026157679 5478975
-0.014994722 0.015714284 0.026124725 7512148
-0.015158468 0.017012523 0.026091753 8560475
-0.015322215 0.018311314 0.02605878 8234076
-0.015486082 0.01961066 0.026025791 8299612
-0.015650008 0.020910559 0.025992768 8037720
-0.015813995 0.022211011 0.02595976 5676348
-0.0159781 0.023512021 0.025926705 4428073
-0.016142206 0.024813581 0.025893664 4886831
-0.016306432 0.026115701 0.025860591 5935427
-0.016470658 0.027418373 0.025827533 6589267
-0.052062057 0.029253941 0.018267633 7631731
-0.051269356 0.030602215 0.018437957 11176329
-0.050478309 0.031947803 0.018607924 7039594
-0.049582865 0.033288583 0.018800061 6513507
-0.048164196 0.034614857 0.019103369 7303023
-0.047496628 -0.034449436 0.017785421 8486269
-0.049368039 -0.03321423 0.017386297 6250335
-0.050329145 -0.031916343 0.017182255 7172706
-0.034171373 -0.029585805 0.020646524 6457173
-0.014821415 -0.027123988 0.024794728 5274202
-0.0097477539 -0.025537955 0.025883732 4365110
-0.009909275 -0.024257228 0.025850933 4822843
-0.010070857 -0.022975963 0.025818119 4952892
-0.010232438 -0.021694146 0.025785306 6528600
-0.010394198 -0.020411797 0.025752457 6856033
-0.010555959 -0.0191289 0.025719609 3571499
-0.01071784 -0.017845463 0.025686743 3768879
-0.01087978 -0.016561482 0.02565386 3308849
-0.011041721 -0.015276954 0.025620978 3898698
-0.011203781 -0.013991881 0.025588062 4556122
-0.011365901 -0.012706265 0.025555145 5673835
-0.011528081 -0.011420105 0.025522212 9157556
-0.01169038 -0.0101334 0.025489246 11786222
-0.011852681 -0.0088461461 0.025456294 12377340
-0.012015041 -0.0075583477 0.025423327 11982581
-0.01217752 -0.0062700049 0.025390327 11456491
-0.01234006 -0.004981115 0.025357325 9746371
-0.012502659 -0.0036916754 0.025324307 7904401
-0.012665318 -0.0024016902 0.025291273 9283222
-0.012828097 -0.0011111596 0.025258221 11056554
-0.012990816 0.00017992452 0.025225185 11908522
-0.013153774 0.0014715513 0.025192082 12302250
-0.013316674 0.0027637312 0.025159013 13148049
-0.013479692 0.0040564579 0.02512591 13019545
-0.01364283 0.0053497339 0.025092773 11252375
-0.013805909 0.0066435621 0.025059653 11704695
-0.013969167 0.0079379389 0.025026515 8168548
-0.014132425 0.0092328656 0.024993362 5741119
-0.014295802 0.010528344 0.024960175 6134852
-0.0144593 0.011824373 0.024926985 7840856
-0.014622739 0.013120954 0.024893796 7381845
-0.014786355 0.014418087 0.024860559 5413693
-0.014949973 0.015715772 0.024827337 5544765
-0.01511365 0.01701401 0.024794098 7053647
-0.015277447 0.018312801 0.024760842 7053904
-0.015441304 0.019612147 0.024727568 6988622
-0.015605221 0.020912044 0.024694279 6792264
-0.015769199 0.022212496 0.024660988 5151023
-0.015933294 0.023513503 0.024627665 3968287
-0.016097331 0.024815064 0.024594357 3835678
-0.016261548 0.02611718 0.024561001 6657356
-0.016425883 0.027419852 0.024527641 8687203
-0.052060459 0.029256169 0.016897308 4013373
-0.051267806 0.030604517 0.017068988 9466225
-0.050476626 0.031950179 0.017240344 7104359
-0.049591359 0.033291232 0.017431853 7170409
-0.047568824 0.034604397 0.017866915 8025718
-0.047215678 -0.034432549 0.016482966 10516343
-0.049364984 -0.033215404 0.016020607 11430249
-0.051346708 -0.031980559 0.015594456 9138016
-0.034162685 -0.02958647 0.019308176 6063184
-0.014812012 -0.02712452 0.023489818 5274970
-0.0097033028 -0.025536435 0.02459513 3774508
-0.0098648146 -0.02425571 0.02456205 3444002
-0.010026386 -0.022974443 0.024528967 3573797
-0.010187959 -0.02169263 0.024495887 6463062
-0.01034971 -0.020410281 0.024462769 7905899
-0.010511462 -0.019127384 0.024429638 4819771
-0.010673333 -0.017843949 0.024396503 4688443
-0.010835264 -0.016559968 0.024363339 5082438
-0.010997196 -0.015275439 0.024330188 5869920
-0.011159246 -0.013990371 0.024297005 6856315
-0.011321357 -0.012704754 0.024263805 6658678
-0.011483528 -0.011418594 0.024230603 8630172
-0.011645818 -0.010131892 0.02419737 11850718
-0.011808109 -0.0088446401 0.024164135 13362429
-0.011970519 -0.0075568431 0.024130883 12967414
-0.01213293 -0.0062684985 0.024097631 12376047
-0.012295459 -0.00497961 0.024064347 10600914
-0.01245805 -0.0036901738 0.024031045 7181962
-0.0126207 -0.0024001885 0.023997743 4881747
-0.012783409 -0.0011096554 0.023964424 5276243
-0.012946239 0.00018142331 0.023931086 5407828
-0.013109128 0.0014730514 0.023897734 5211974
-0.013272018 0.002765229 0.023864381 9935209
-0.013435028 0.0040579559 0.02383101 8166750
-0.013598096 0.005351231 0.023797607 4490540
-0.013761285 0.0066450569 0.023764201 8756060
-0.013924474 0.0079394327 0.023730781 10196577
-0.014087782 0.0092343586 0.023697343 5741116
-0.014251092 0.010529837 0.023663905 8889183
-0.014414519 0.011825864 0.023630433 10065759
-0.014578008 0.013122445 0.023596961 9215583
-0.014741556 0.014419577 0.023563473 5872962
-0.014905224 0.015717261 0.023529965 3771935
-0.015068892 0.017015498 0.023496443 3771679
-0.015232679 0.018314287 0.023462903 3903264
-0.015396527 0.019613631 0.023429362 4231971
-0.015560434 0.020913528 0.02339579 4954409
-0.015724402 0.022213979 0.023362216 5151020
-0.01588849 0.023514984 0.023328625 4624681
-0.016052576 0.024816545 0.023295017 4032544
-0.016216783 0.02611866 0.023261392 6394696
-0.01638105 0.027421331 0.023227766 8360288
-0.05378237 0.030648939 0.015156636 6051671
-0.051679745 0.031974778 0.015612498 7891048
-0.04959055 0.033293698 0.01606545 6973030
-0.047320232 0.034601517 0.016557496 8877686
-0.047201436 -0.034433059 0.015123263 8747385
-0.049365833 -0.033216823 0.014653922 7039337
-0.051344719 -0.031981729 0.014224974 5001794
-0.034153935 -0.029587131 0.017969728 5997390
-0.014802665 -0.027125057 0.022184787 5406810
-0.0096588517 -0.025534913 0.02330653 3840299
-0.0098203542 -0.02425419 0.023273181 3509794
-0.0099819163 -0.022972925 0.023239831 3771175
-0.010143479 -0.021691114 0.023206467 7710566
-0.010305221 -0.020408764 0.023173068 10066797
-0.010466964 -0.019125869 0.023139684 7904351
-0.010628826 -0.017842432 0.023106266 7772252
-0.010790748 -0.016558455 0.023072831 7903842
-0.01095267 -0.015273926 0.023039399 8099695
-0.011114712 -0.013988858 0.023005947 8624767
-0.011276813 -0.012703244 0.022972479 8953474
-0.011438975 -0.011417085 0.022938995 10465181
-0.011601255 -0.010130383 0.022905491 12764874
-0.011763537 -0.0088431323 0.02287199 14210793
-0.011925938 -0.0075553372 0.022838455 13749985
-0.012088339 -0.0062669939 0.02280492 13030120
-0.012250801 -0.0049781031 0.022771385 11389920
-0.012413382 -0.0036886684 0.022737816 8694186
-0.012576082 -0.0023986865 0.022704227 6261357
-0.012738782 -0.001108155 0.022670627 6656873
-0.012901543 0.00018292408 0.022637023 5013838
-0.013064423 0.0014745515 0.022603402 4028980
-0.013227362 0.0027667275 0.022569763 6459464
-0.013390362 0.0040594526 0.022536108 9212506
-0.013553422 0.0053527276 0.022502439 6132807
-0.013716601 0.0066465517 0.022468749 5411127
-0.013879781 0.0079409266 0.022435062 5477430
-0.01404308 0.0092358524 0.02240134 4362019
-0.01420638 0.010531329 0.022367619 4822059
-0.014369799 0.011827356 0.022333879 4822060
-0.014533278 0.013123935 0.022300124 4624425
-0.014696817 0.014421066 0.022266367 4360484
-0.014860416 0.015718749 0.022232594 4490785
-0.015024134 0.017016985 0.022198789 4753186
-0.015187912 0.018315773 0.02216498 5081380
-0.01535175 0.019615117 0.022131141 6000689
-0.015515648 0.020915013 0.022097301 7512652
-0.015679605 0.022215463 0.022063458 7841877
-0.015843624 0.023516467 0.022029586 6725705
-0.016007762 0.024818027 0.02199571 4689195
-0.016171901 0.026120139 0.021961819 3504666
-0.016336158 0.02742281 0.02192791 4947254
-0.053777587 0.030651197 0.013783734 7498860
-0.051675379 0.031977106 0.014243131 5395026
-0.049589444 0.03329616 0.01469897 5855320
-0.047284741 0.03460329 0.015202409 7433581
-0.047199678 -0.034434389 0.013760692 5789784
-0.04936691 -0.033218261 0.013287005 5855577
-0.051342841 -0.031982906 0.01285531 5396809
-0.03414524 -0.029587796 0.016631143 6128719
-0.014793255 -0.02712559 0.020879656 5537882
-0.0096144006 -0.025533395 0.02201793 3971370
-0.0097758938 -0.024252672 0.021984313 3641121
-0.0099374466 -0.022971405 0.021950681 4296751
-0.010099 -0.021689594 0.021917047 8301938
-0.010260733 -0.020407248 0.02188338 11115380
-0.010422466 -0.019124353 0.021849712 10128992
-0.010584319 -0.01784092 0.021816026 10125395
-0.010746231 -0.016556941 0.021782324 9277793
-0.010908145 -0.015272416 0.021748623 9344364
-0.011070177 -0.013987347 0.021714889 9738623
-0.011232269 -0.012701735 0.021681137 9739393
-0.011394422 -0.011415576 0.021647386 10262915
-0.011556693 -0.010128875 0.021613615 12625826
-0.011718965 -0.0088416245 0.02157983 14012383
-0.011881357 -0.0075538307 0.021546027 14013929
-0.012043749 -0.0062654889 0.021512223 13228013
-0.01220626 -0.0049766018 0.021478388 11718375
-0.012368832 -0.0036871668 0.021444552 9943234
-0.012531463 -0.0023971845 0.021410698 8758682
-0.012694214 -0.0011066546 0.021376826 9414798
-0.012856965 0.0001844247 0.021342939 8692098
-0.013019776 0.0014760507 0.021309052 7314546
-0.013182707 0.002768226 0.021275131 9809542
-0.013345698 0.0040609506 0.021241209 11703926
-0.013508748 0.0053542238 0.021207269 11909541
-0.013671858 0.0066480483 0.021173315 9221771
-0.013835087 0.0079424214 0.021139327 5411896
-0.013998318 0.0092373462 0.021105355 7906134
-0.014161668 0.010532822 0.021071348 6135105
-0.014325078 0.011828847 0.021037342 6922827
-0.014488547 0.013125425 0.021003304 7571008
-0.014652077 0.014422555 0.020969264 9457712
-0.014815726 0.015720237 0.020935206 10895924
-0.014979376 0.017018473 0.020901132 11224890
-0.015143144 0.01831726 0.020867042 11950672
-0.015306913 0.019616602 0.020832952 13069927
-0.015470803 0.020916497 0.020798843 12614243
-0.015634811 0.022216946 0.020764701 10718810
-0.01579882 0.02351795 0.020730561 10195802
-0.015962947 0.024819508 0.020696387 6396228
-0.016127076 0.026121622 0.020662228 3570457
-0.016291324 0.027424291 0.020628035 8558437
-0.053773329 0.030653464 0.012410576 7630960
-0.051671125 0.031979438 0.012873581 5658198
-0.049584188 0.033298533 0.013333241 5197647
-0.047279261 0.034605727 0.013840683 5395026
-0.047196615 -0.03443563 0.012398268 5395026
-0.049367569 -0.033219673 0.011920042 5526612
-0.051340781 -0.031984072 0.011485547 5397065
-0.034136541 -0.029588459 0.01529244 6260305
-0.0147839 -0.027126124 0.019574387 5537882
-0.0095699485 -0.025531871 0.020729329 4103209
-0.0097314334 -0.024251152 0.020695444 3706913
-0.0098929768 -0.02296989 0.020661544 4296494
-0.010054581 -0.021688083 0.020627625 6200915
-0.010216244 -0.020405732 0.020593692 6397524
-0.010377969 -0.019122837 0.020559756 6198861
-0.010539812 -0.017839406 0.020525787 9540450
-0.010701716 -0.016555429 0.020491818 3571495
-0.010863619 -0.015270902 0.020457834 3440431
-0.011025583 -0.013985832 0.020423848 4030537
-0.011187725 -0.012700224 0.020389812 4424274
-0.011349868 -0.011414067 0.020355791 6921078
-0.01151213 -0.010127366 0.020321738 10794921
-0.011674394 -0.0088401167 0.020287685 11983081
-0.011836776 -0.0075523243 0.020253599 12574716
-0.011999159 -0.0062639825 0.020219529 12376310
-0.012161601 -0.0049750949 0.020185441 11916010
-0.012324222 -0.0036856635 0.020151304 10994897
-0.012486786 -0.0023956806 0.020117199 9940904
-0.012649527 -0.0011051523 0.020083044 9673858
-0.012812269 0.00018592546 0.02004889 10068358
-0.01297513 0.0014775507 0.020014703 8365192
-0.013138051 0.0027697245 0.019980514 11056542
-0.013301033 0.0040624477 0.019946309 10135163
-0.013464074 0.0053557204 0.019912101 13279638
-0.013627175 0.0066495431 0.019877864 11189665
-0.013790336 0.0079439161 0.019843625 7514210
-0.013953616 0.0092388391 0.019809352 8431971
-0.014116957 0.010534314 0.019775078 6003773
-0.014280298 0.011830339 0.019740805 6398020
-0.014443818 0.013126916 0.019706482 7831102
-0.014607279 0.014424046 0.019672176 11623762
-0.014770918 0.015721727 0.019637834 13657194
-0.014934617 0.017019961 0.019603478 14188164
-0.015098318 0.018318746 0.019569121 14451078
-0.015262136 0.019618087 0.019534746 14643575
-0.015426075 0.020917982 0.019500338 12221032
-0.015589955 0.022218429 0.019465946 9344858
-0.015754014 0.023519432 0.01943152 8429913
-0.015918074 0.024820989 0.019397095 4885803
-0.016082251 0.026123101 0.019362636 3701785
-0.01624649 0.02742577 0.01932816 5538621
-0.053768948 0.030655727 0.011037302 5460562
-0.051666807 0.03198177 0.011503913 5263183
-0.049578864 0.03330091 0.011967381 5066061
-0.047273777 0.034608159 0.012478838 5329233
-0.047193486 -0.03443687 0.011035713 3815994
-0.049365796 -0.033220924 0.010553446 4737096
-0.051338892 -0.031985246 0.010115584 5002564
-0.034127895 -0.029589128 0.013953584 6391635
-0.014774541 -0.027126661 0.018268999 6456669
-0.0095254974 -0.025530353 0.019440744 6532172
-0.0096869729 -0.024249634 0.019406576 4298280
-0.0098485081 -0.02296837 0.019372407 4231209
-0.010010103 -0.021686563 0.01933822 5215550
-0.010171757 -0.020404216 0.019304018 5214785
-0.010333472 -0.019121325 0.0192698 4097325
-0.010495306 -0.017837889 0.019235564 4885050
-0.01065714 -0.01655391 0.019201327 2980380
-0.010819094 -0.015269388 0.019167058 3111461
-0.010981048 -0.013984322 0.019132789 4162120
-0.011143182 -0.012698714 0.019098502 5082461
-0.011305315 -0.011412558 0.019064197 5476447
-0.011467509 -0.010125856 0.019029878 7119489
-0.011629822 -0.0088386107 0.01899554 10537424
-0.011792195 -0.0075508184 0.018961186 13034236
-0.011954568 -0.006262478 0.018926833 13880801
-0.012117062 -0.0049735918 0.01889246 14200252
-0.012279615 -0.0036841601 0.018858071 13738410
-0.012442168 -0.0023941768 0.01882367 11838880
-0.0126049 -0.0011036501 0.018789247 7050608
-0.012767692 0.00018742423 0.018754806 6065506
-0.012930543 0.0014790489 0.018720351 8167816
-0.013093396 0.002771223 0.018685896 9153941
-0.013256368 0.0040639448 0.018651424 7380839
-0.0134194 0.0053572166 0.018616933 12958384
-0.013582492 0.0066510388 0.018582428 13081225
-0.013745643 0.0079454109 0.018547906 10664852
-0.013908914 0.009240333 0.018513365 7054678
-0.014072245 0.010535805 0.018478809 4953131
-0.014235636 0.01183183 0.018444235 5019437
-0.014399087 0.013128406 0.01840966 8356166
-0.014562598 0.014425535 0.018375069 12479331
-0.014726168 0.015723215 0.018340463 14317181
-0.0148898 0.017021447 0.018305838 14717595
-0.01505355 0.018320233 0.018271197 14718623
-0.01521736 0.019619573 0.018236538 14251133
-0.01538123 0.020919466 0.01820188 10707791
-0.01554516 0.022219913 0.018167188 8296274
-0.015709208 0.023520915 0.018132495 7447375
-0.015873259 0.02482247 0.018097786 4229152
-0.016037429 0.026124582 0.018063044 6066496
-0.016201656 0.027427249 0.018028302 5538621
-0.053764563 0.03065799 0.0096638799 5722192
-0.051662486 0.031984098 0.010134096 5920342
-0.049573597 0.033303287 0.010601368 4604996
-0.047268227 0.034610592 0.011116861 3881530
-0.035111275 -0.034983184 0.01238423 2039583
-0.035332281 -0.033664167 0.012336489 4933704
-0.036255553 -0.032389034 0.012131005 7626848
-0.051336884 -0.031986415 0.0087455064 5264707
-0.034119602 -0.029589819 0.012614539 6588500
-0.014765178 -0.027127197 0.016963491 6390618
-0.0094810463 -0.025528835 0.018152144 6860368
-0.0096425125 -0.024248114 0.018117707 4364330
-0.0098040383 -0.022966851 0.018083271 4822580
-0.0099656237 -0.021685047 0.018048801 5938511
-0.010127269 -0.0204027 0.01801433 5871949
-0.010288974 -0.019119808 0.017979845 4162861
-0.010450799 -0.017836377 0.01794534 3176990
-0.010612625 -0.016552398 0.017910821 2914331
-0.010774569 -0.015267879 0.017876284 2979871
-0.010936514 -0.01398281 0.017841747 3702072
-0.011098638 -0.012697203 0.017807174 4424015
-0.011260763 -0.011411048 0.017772604 6329707
-0.011422947 -0.010124347 0.017738016 9939603
-0.01158525 -0.0088371029 0.017703395 12041401
-0.011747555 -0.0075493101 0.017668774 13686249
-0.011909978 -0.0062609729 0.017634137 13032437
-0.012072403 -0.0049720868 0.017599499 12965357
-0.012234947 -0.0036826546 0.017564842 12896473
-0.01239755 -0.002392675 0.017530169 10599617
-0.012560273 -0.0011021497 0.017495463 5801823
-0.012722996 0.00018892685 0.017460758 5933663
-0.012885839 0.001480549 0.017426034 8233353
-0.013048741 0.0027727205 0.017391279 8824976
-0.013211644 0.0040654438 0.017356541 6657372
-0.013374667 0.0053587141 0.017321782 10534835
-0.013537808 0.0066525335 0.017286992 12295556
-0.013700951 0.0079469047 0.017252186 11108952
-0.013864154 0.0092418268 0.017217394 10456151
-0.014027474 0.010537298 0.017182555 7185233
-0.014190916 0.011833321 0.017147698 7512141
-0.014354357 0.013129896 0.01711284 11173975
-0.014517859 0.014427024 0.017077981 11952214
-0.01468142 0.015724704 0.017043089 12795724
-0.014845042 0.017022936 0.017008198 13529985
-0.015008782 0.018321719 0.016973274 13527927
-0.015172583 0.019621057 0.016938347 12860746
-0.015336444 0.020920951 0.016903406 9585965
-0.015500423 0.022221396 0.016868429 8295761
-0.015664404 0.023522398 0.016833454 8430423
-0.015828446 0.024823951 0.016798478 5017903
-0.015992545 0.026126061 0.016763486 8165206
-0.016156765 0.027428728 0.016728459 7967067
-0.053760231 0.030660255 0.0082903067 6312530
-0.039873712 0.031768851 0.011409681 4669247
-0.036340795 0.033038836 0.012204696 2565927
-0.035584185 0.034357492 0.012376447 2236962
-0.029266056 -0.034593184 0.012364443 4868425
-0.029473305 -0.033283181 0.012319409 7826026
-0.032049872 -0.03212307 0.011738136 5591377
-0.038125101 -0.031170553 0.010365031 8220509
-0.034111246 -0.029590501 0.011275376 6654037
-0.014755811 -0.027127732 0.015657865 5274706
-0.0094365953 -0.025527311 0.016863558 5613886
-0.0095980521 -0.024246592 0.016828854 5612093
-0.0097595686 -0.022965332 0.016794134 6136137
-0.0099211447 -0.021683527 0.016759396 7054427
-0.010082781 -0.020401184 0.016724659 6790742
-0.010244478 -0.019118292 0.016689889 5804356
-0.010406293 -0.017834863 0.016655115 5541185
-0.010568109 -0.016550884 0.016620329 5606722
-0.010730044 -0.015266364 0.016585508 5672517
-0.01089198 -0.013981299 0.016550705 6132303
-0.011054095 -0.012695692 0.016515849 6197600
-0.01121621 -0.011409538 0.01648101 5934945
-0.011378385 -0.010122839 0.01644614 8627074
-0.011540679 -0.0088355951 0.01641125 10204583
-0.011702974 -0.0075478037 0.016376361 12901358
-0.011865389 -0.0062594665 0.016341455 12639739
-0.012027863 -0.0049705836 0.016306533 12376053
-0.012190337 -0.003681151 0.016271595 12440039
-0.012352932 -0.002391173 0.016236654 12173773
-0.012515645 -0.0011006475 0.016201666 9936780
-0.012678418 0.00019042561 0.016166674 10002566
-0.012841192 0.0014820482 0.016131686 11579298
-0.013004086 0.002774219 0.016096678 12170152
-0.01316698 0.0040669404 0.016061654 11381909
-0.013330052 0.0053602094 0.016026597 11454917
-0.013493125 0.0066540292 0.015991556 8169588
-0.013656259 0.0079483995 0.015956482 6133316
-0.013819511 0.0092433188 0.01592139 5871675
-0.013982823 0.01053879 0.015886283 5347378
-0.014146136 0.011834813 0.015851175 5019433
-0.014309568 0.013131388 0.015816035 9472340
-0.01447312 0.014428513 0.015780875 11952470
-0.014636672 0.015726192 0.015745733 12729416
-0.014800343 0.017024422 0.015710542 13263215
-0.014964015 0.018323205 0.015675366 12995158
-0.015127747 0.019622544 0.015640158 12794181
-0.015291658 0.020922434 0.015604931 9849394
-0.015455569 0.02222288 0.015569689 8229198
-0.015619599 0.023523878 0.015534429 10260822
-0.01578363 0.024825433 0.01549917 6593347
-0.015947722 0.026127541 0.015463893 7575632
-0.016111933 0.027430207 0.0154286 9472092
-0.053755838 0.030662522 0.0069166017 5918029
-0.035892189 0.031697702 0.010959567 3486772
-0.030722715 0.032927934 0.012130849 3026478
-0.029675761 0.034230713 0.012369571 3026478
-0.026707491 -0.034423299 0.011615072 7562854
-0.026879273 -0.033115279 0.011577768 8219242
-0.028000897 -0.03186705 0.011323857 7563368
-0.038054787 -0.031167474 0.0090329526 6317652
-0.034102943 -0.029591192 0.0099360626 6654036
-0.01474638 -0.027128268 0.014352137 5800278
-0.0093921451 -0.025525793 0.015574972 10198109
-0.0095535927 -0.024245072 0.01554 10521683
-0.0097150989 -0.022963816 0.015504996 10849627
-0.0098766666 -0.021682011 0.015469992 11177313
-0.010038293 -0.020399667 0.01543497 10325598
-0.010199981 -0.01911678 0.015399948 9603414
-0.010361787 -0.017833347 0.015364893 9209684
-0.010523593 -0.016549371 0.015329822 9013845
-0.010685519 -0.015264851 0.015294749 8554835
-0.010847447 -0.013979787 0.015259661 8490069
-0.011009492 -0.01269418 0.015224556 7574887
-0.011171658 -0.011408029 0.015189416 4752720
-0.011333823 -0.010121331 0.015154277 5344605
-0.011496108 -0.0088340873 0.01511912 7316101
-0.011658394 -0.0075462977 0.015083949 11850719
-0.011820799 -0.006257962 0.015048774 12901879
-0.011983205 -0.0049690786 0.015013585 12638967
-0.012145788 -0.0036796497 0.01497836 12833255
-0.012308314 -0.002389671 0.014943139 13349051
-0.012471018 -0.0010991471 0.014907882 11117210
-0.012633723 0.00019192634 0.01487264 11112316
-0.012796546 0.0014835482 0.014837351 10923424
-0.012959371 0.0027757187 0.014802077 9939348
-0.013122375 0.0040684375 0.014766768 8100464
-0.013285319 0.0053617065 0.014731461 7446639
-0.013448442 0.006655525 0.014696119 4687151
-0.013611566 0.0079498943 0.014660778 4227876
-0.013774809 0.0092448127 0.014625403 5280049
-0.013938053 0.010540283 0.01459003 4886822
-0.014101416 0.011836304 0.014554637 4887845
-0.014264839 0.013132878 0.014519229 9734998
-0.014428321 0.014430002 0.014483804 13330786
-0.014591923 0.01572768 0.014448361 14313584
-0.014755527 0.01702591 0.014412918 14448767
-0.014919248 0.018324692 0.014377442 14249075
-0.01508297 0.019624028 0.014341967 13986675
-0.015246872 0.020923918 0.014306457 11957862
-0.015410773 0.022224363 0.014270946 8294990
-0.015574736 0.023525361 0.01423542 5215274
-0.015738757 0.024826914 0.014199878 4754722
-0.015902897 0.026129022 0.014164317 4359455
-0.016067158 0.027431687 0.014128723 4356656
-0.053751495 0.030664787 0.0055427453 3946552
-0.035117369 0.031685755 0.009792068 3486772
-0.027110174 0.032857463 0.011619072 3552822
-0.026924511 0.034172993 0.011663267 3618615
-0.025906285 -0.034371115 0.010470548 7496033
-0.025876634 -0.033051241 0.010479237 8544095
-0.026529303 -0.031774845 0.010331159 8545123
-0.038047437 -0.031168291 0.0076864944 5068356
-0.034094576 -0.029591879 0.0085966466 6588499
-0.014737005 -0.027128803 0.013046272 5406291
-0.009347694 -0.025524272 0.014286386 5745215
-0.0095091322 -0.024243554 0.014251146 5283894
-0.0096706301 -0.022962296 0.014215874 7841882
-0.0098321876 -0.021680497 0.014180602 9806443
-0.0099938056 -0.020398151 0.014145298 6331982
-0.010155483 -0.019115262 0.014109992 4622896
-0.01031728 -0.017831834 0.014074668 3768356
-0.010479078 -0.016547857 0.01403933 3374112
-0.010640995 -0.015263341 0.014003974 2979867
-0.010802912 -0.013978277 0.013968619 3111711
-0.010964949 -0.012692669 0.013933244 4425024
-0.011127104 -0.011406519 0.013897822 5081426
-0.011289261 -0.010119823 0.013862415 5278551
-0.011451537 -0.0088325813 0.013826975 6789747
-0.011613813 -0.0075447913 0.013791551 12108225
-0.011776209 -0.006256457 0.013756078 13620454
-0.011938664 -0.0049675754 0.013720604 13229301
-0.012101181 -0.0036781461 0.013685129 13422050
-0.012263697 -0.0023881674 0.013649639 13353424
-0.012426391 -0.0010976449 0.013614113 10204081
