# .PCD v0.7 - Point Cloud Data file format
VERSION 0.7
FIELDS x y z rgb
SIZE 4 4 4 4
TYPE F F F U
COUNT 1 1 1 1
WIDTH 1025
HEIGHT 1
VIEWPOINT 0 0 0 1 0 0 0
POINTS 1025
DATA ascii
-0.077205166 0.050240103 -0.025136106 9866894
-0.075724319 0.050117869 -0.025249442 9601923
-0.074243896 0.049995657 -0.025362665 6579043
-0.07276579 0.049871765 -0.025450053 6118749
-0.07129129 0.049744871 -0.025492348 8551034
-0.069820628 0.049614504 -0.025482925 7499888
-0.06835743 0.049476873 -0.025365597 8879485
-0.066893205 0.049339868 -0.025258083 9732481
-0.065436848 0.04919441 -0.025026102 10583935
-0.063984424 0.049043942 -0.024721134 10845565
-0.062530689 0.048893742 -0.024421398 9864838
-0.061079767 0.048739228 -0.024059452 10190719
-0.059636176 0.048574761 -0.023553582 10123384
-0.058191642 0.048409302 -0.023035172 5395026
-0.056752108 0.048235457 -0.022396615 3421236
-0.055313256 0.048057877 -0.021706438 5395026
-0.053878624 0.047871575 -0.020892492 9074037
-0.052445944 0.047678709 -0.019986993 8409425
-0.051014591 0.047479484 -0.018993372 5926207
-0.049583033 0.047275469 -0.017934687 8626523
-0.048145141 0.047075432 -0.016937705 12109966
-0.046695996 0.046887651 -0.016121134 14802896
-0.045240942 0.046704926 -0.015380364 13815490
-0.043778315 0.046530779 -0.014765509 14144712
-0.042309374 0.046364155 -0.014260552 14408139
-0.040835463 0.04620361 -0.013844297 14606030
-0.039353691 0.04605576 -0.013610218 14343623
-0.037869241 0.04591183 -0.01343275 14015679
-0.036383767 0.045768887 -0.013269727 13621685
-0.034895945 0.045630112 -0.013166514 13162155
-0.033404823 0.045498624 -0.013166227 12307611
-0.031913731 0.045367155 -0.013166183 12176280
-0.030422676 0.04523566 -0.013165899 11717000
-0.028931653 0.045104183 -0.013165674 11389568
-0.02744066 0.044972721 -0.013165507 11323516
-0.025949704 0.044841237 -0.013165224 10799214
-0.024458777 0.044709764 -0.013165061 10602089
-0.022967882 0.044578314 -0.013164895 11257713
-0.021477023 0.044446852 -0.013164671 12761466
-0.019986195 0.04431539 -0.013164508 11521401
-0.018495405 0.044183906 -0.013163923 12177281
-0.017005008 0.044049945 -0.013129308 13486733
-0.015517894 0.043888576 -0.012717479 11851652
-0.014046097 0.043559801 -0.010009485 11062900
-0.012554965 0.04336505 -0.0091484766 11584118
-0.011057624 0.043232936 -0.0091471849 11385201
-0.0095603121 0.043100812 -0.0091457749 9221726
-0.0080630286 0.042968702 -0.0091444841 9543559
-0.0065657739 0.042836607 -0.0091431905 10329501
-0.0050685494 0.042704489 -0.0091418419 10329501
-0.0035713534 0.042572387 -0.0091404906 10329501
-0.0020741862 0.042440288 -0.0091391392 10461087
-0.00057704846 0.042308193 -0.0091378493 11118760
0.00092005811 0.042176083 -0.0091365017 11052967
0.0024179257 0.042038739 -0.0090645421 10263708
0.0039165639 0.041898083 -0.0089485431 10921381
0.0054193991 0.041737549 -0.0085671544 11710126
-0.084502831 0.052275069 -0.024088584 8420219
-0.083019696 0.052152451 -0.024202194 7697267
-0.081536978 0.052029859 -0.024315687 7500145
-0.080054671 0.051907301 -0.024429243 6974058
-0.078572787 0.051784769 -0.024542684 6776679
-0.077091306 0.051662289 -0.024656186 10387070
-0.07561025 0.051539831 -0.024769571 11505294
-0.074129604 0.051417407 -0.024882957 8552833
-0.072651505 0.051293153 -0.024967553 7696753
-0.071177445 0.051165543 -0.025000714 9465968
-0.069705926 0.051035728 -0.024999836 8485498
-0.068242177 0.05089853 -0.024886867 10191233
-0.066777632 0.050761744 -0.024780516 9010300
-0.065322503 0.05061515 -0.024525855 8551291
-0.063869782 0.050465137 -0.024220709 9600895
-0.062416017 0.050315093 -0.023916522 8748927
-0.060964905 0.050160974 -0.02355233 8486012
-0.059521683 0.049996499 -0.023034152 8024176
-0.058076795 0.049831823 -0.022515364 5592405
-0.056636635 0.049659263 -0.021880956 3881787
-0.055197958 0.049482077 -0.021180268 5789784
-0.053763404 0.049296413 -0.020356549 6708830
-0.052330054 0.049105294 -0.019455153 8083287
-0.050898325 0.048907544 -0.018459698 5272878
-0.049464803 0.048707347 -0.017432291 9546342
-0.048023764 0.048512973 -0.01649523 13744532
-0.046570778 0.048332021 -0.015759673 15058369
-0.045115076 0.048151314 -0.01503097 12163222
-0.043648373 0.047984872 -0.014514324 12887972
-0.042179104 0.047819816 -0.014019956 13151145
-0.040702384 0.047665346 -0.013682289 13414829
-0.039219279 0.047521006 -0.013493493 13875637
-0.037734665 0.047378462 -0.013331687 14335673
-0.036248691 0.047237705 -0.013196204 14533566
-0.034759056 0.047104251 -0.013166944 14665665
-0.033268526 0.046972789 -0.013166667 12824232
-0.031778019 0.046841357 -0.013166568 14736852
-0.030287547 0.046709899 -0.013166354 15725029
-0.028797111 0.046578459 -0.013166075 15988201
-0.027306706 0.046447024 -0.013165857 16185579
-0.025816333 0.046315588 -0.013165701 16448238
-0.024325991 0.046184156 -0.013165546 16514286
-0.022835685 0.046052728 -0.013165329 16580335
-0.02134541 0.045921285 -0.013165115 16313308
-0.019855173 0.045789853 -0.013164596 16184799
-0.018365763 0.045653753 -0.013098458 15989982
-0.016878957 0.045498721 -0.012765242 16054488
-0.015392091 0.045335326 -0.012315898 15267532
-0.013923081 0.044978343 -0.0091489172 14150321
-0.012426295 0.044846263 -0.0091476338 13555866
-0.01092954 0.044714186 -0.009146288 11845761
-0.0094328141 0.04458211 -0.0091450661 9352035
-0.0079361163 0.044450037 -0.0091437213 6840159
-0.0064394479 0.044317968 -0.0091423774 4605253
-0.0049428092 0.044185888 -0.0091409748 5788756
-0.0034460367 0.044051249 -0.0091041364 7893104
-0.0019488698 0.043913111 -0.0090187779 6710372
-0.00045055707 0.043766767 -0.0088207796 9010814
0.0010485268 0.043619271 -0.0086077722 8814977
0.0025503749 0.043458246 -0.0082097333 7894646
0.0040563215 0.043281354 -0.007595554 10065301
0.0056427345 0.042711921 -0.0016148168 11046799
-0.084390007 0.053698786 -0.02360802 10060161
-0.082906649 0.053575933 -0.023721742 10060161
-0.081423722 0.053453133 -0.023835339 10125954
-0.079941206 0.053330351 -0.023948943 9208450
-0.078459106 0.05320761 -0.02406249 6776679
-0.076977417 0.053084906 -0.024176098 8617855
-0.075496152 0.052962225 -0.024289532 7960182
-0.07401529 0.052839592 -0.024403023 9404287
-0.072537698 0.052714534 -0.024477895 10980749
-0.071063541 0.052586704 -0.024509022 10778487
-0.069591187 0.052457385 -0.024516646 7499374
-0.068126805 0.052320715 -0.024409233 8748156
-0.066662021 0.052184071 -0.024302842 8222840
-0.065208115 0.052036382 -0.024025491 7105387
-0.063755102 0.051886808 -0.023720047 7500145
-0.062301122 0.051737137 -0.023414418 6974058
-0.060850717 0.051582474 -0.02303315 7171437
-0.059407141 0.051418785 -0.022514591 6512993
-0.057961904 0.051254913 -0.021995356 6117978
-0.056521211 0.051083516 -0.021363478 7103845
-0.055083111 0.050906263 -0.020644678 8090740
-0.05364814 0.050721876 -0.019820213 6050129
-0.052214172 0.050532397 -0.018922025 5918029
-0.05078201 0.050336201 -0.01792576 5337642
-0.049346313 0.050140034 -0.016934475 8431700
-0.047899105 0.04995558 -0.01612452 13357993
-0.04644556 0.049776435 -0.015398202 14204859
-0.044985589 0.049603447 -0.014767699 9529960
-0.04351823 0.049439024 -0.014268697 9404798
-0.042045821 0.049280357 -0.013857982 8681076
-0.04056811 0.049128722 -0.01355412 8812661
-0.039084345 0.048986606 -0.013393586 9141370
-0.037599344 0.04884591 -0.013254927 10715520
-0.036112264 0.048708644 -0.013167558 11242634
-0.034622282 0.048577216 -0.013167289 10720402
-0.033132333 0.048445787 -0.01316702 9799557
-0.031642411 0.048314393 -0.01316699 14473684
-0.030152528 0.048182987 -0.01316678 16185072
-0.028662676 0.04805157 -0.013166573 16382450
-0.027172856 0.047920171 -0.013166301 16579573
-0.025683068 0.047788773 -0.013166153 16708078
-0.024193313 0.047657378 -0.013165942 16776440
-0.022703592 0.047525972 -0.013165737 16777211
-0.021213904 0.047394574 -0.013165285 16510187
-0.019725973 0.047254469 -0.013038786 16767449
-0.018240126 0.047100045 -0.012705574 16776187
-0.016754488 0.046936888 -0.012247382 16777215
-0.015290149 0.046590444 -0.0091499798 16776958
-0.013793922 0.046458401 -0.00914858 16776933
-0.012297724 0.046326347 -0.0091471849 16769702
-0.010801556 0.046194293 -0.0091456659 14668450
-0.0093054157 0.046062242 -0.0091442093 11192698
-0.0078093042 0.04592998 -0.009139616 7563111
-0.00631291 0.045782428 -0.0089175636 4144959
-0.0048158001 0.045634661 -0.008693275 5920342
-0.0033175361 0.045480285 -0.0083762556 6249050
-0.0018174183 0.045316674 -0.0079300283 3947580
-0.00030780083 0.045082349 -0.0064875311 6906209
0.0012539913 0.044502143 -0.00018052006 7431268
0.0028369133 0.043919526 0.0061344123 7037024
-0.084277146 0.055122923 -0.023127355 8682877
-0.082793579 0.054999858 -0.023241121 8617084
-0.081310429 0.054876834 -0.023354888 8682877
-0.079827704 0.054753847 -0.023468535 8946306
-0.078345388 0.054630883 -0.02358219 6908008
-0.07686349 0.054507956 -0.023695786 6776679
-0.075382002 0.054385066 -0.023809446 6776679
-0.073900945 0.054262199 -0.023922928 11565947
-0.072422892 0.054137196 -0.024001144 8419191
-0.070948608 0.054009207 -0.024031078 9538186
-0.069476195 0.053879689 -0.024036298 7566195
-0.068011492 0.053743228 -0.023929989 6710886
-0.066547245 0.053606 -0.023812108 6841958
-0.065092556 0.053459216 -0.02354224 6842472
-0.063639276 0.0533101 -0.023236683 6579300
-0.062185019 0.053160883 -0.022930875 6316128
-0.060735002 0.053006101 -0.022538368 6973801
-0.059291009 0.052843321 -0.022021174 8352627
-0.057845362 0.05268034 -0.02150337 7825512
-0.056404289 0.052509993 -0.02087209 9139830
-0.054966491 0.052333105 -0.020140892 9468795
-0.053530954 0.052150246 -0.019319847 9210249
-0.052098379 0.051959928 -0.018385855 5721164
-0.050663803 0.051767878 -0.01742948 5337641
-0.049224924 0.051577128 -0.016497377 7184186
-0.04777443 0.051398277 -0.01575385 12572064
-0.046320744 0.051220298 -0.015027313 13223360
-0.044855513 0.05105624 -0.014519088 10655635
-0.043387819 0.05089334 -0.014030686 15394528
-0.041912626 0.050740246 -0.013695307 14802648
-0.040432818 0.050593294 -0.01345543 14013134
-0.038948677 0.050452907 -0.013316846 13487303
-0.037463468 0.050313707 -0.013197195 13552327
-0.035975013 0.050180417 -0.013167929 13157568
-0.034485616 0.050049026 -0.013167667 11052963
-0.032996252 0.049917649 -0.013167402 7894643
-0.031506915 0.049786277 -0.013167382 14935006
-0.030017613 0.049654908 -0.013167179 16381938
-0.028528344 0.049523544 -0.013166976 16579317
-0.027039109 0.049392167 -0.013166777 16643569
-0.025549905 0.049260806 -0.013166575 16572381
-0.024060737 0.049129434 -0.013166375 16771815
-0.022571603 0.048998069 -0.013165993 16777211
-0.021085331 0.048854169 -0.012979087 16637661
-0.0196002 0.048701592 -0.012663966 16767192
-0.01811921 0.048519515 -0.011912636 16767449
-0.016656185 0.048201274 -0.0091502145 16776701
-0.015160514 0.048069254 -0.0091487635 16776440
-0.013664871 0.047937233 -0.0091473134 16774087
-0.012169259 0.047805212 -0.0091459248 15843458
-0.010673684 0.047672994 -0.0091413977 15783085
-0.0091781355 0.047540512 -0.0091330111 12376461
-0.0076826443 0.047382552 -0.0087526236 6446429
-0.0061848974 0.047178708 -0.0077052955 3815994
-0.004669765 0.046675298 -0.0023064837 4802632
-0.0031318446 0.046102546 0.0040754406 4473924
-0.084164239 0.056547519 -0.02264658 6710886
-0.082680464 0.056424238 -0.022760391 6710886
-0.081197105 0.056300987 -0.022874206 7434352
-0.079714157 0.056177776 -0.022988025 8551548
-0.07823164 0.056054592 -0.023101665 8485755
-0.076749526 0.055931456 -0.023215426 8354683
-0.075267836 0.055808328 -0.023329014 8420219
-0.073786557 0.055685252 -0.023442661 9733509
-0.072307743 0.055560533 -0.023528391 7302766
-0.070832968 0.055432707 -0.023562318 5986906
-0.069361188 0.055302434 -0.023555599 6447714
-0.067896247 0.055166081 -0.023449136 8618369
-0.066434063 0.055026904 -0.023296652 8485241
-0.064975768 0.054883596 -0.023077162 8155505
-0.063522257 0.054734938 -0.022771366 8747642
-0.062067755 0.054586183 -0.02246538 7631217
-0.060618423 0.054431047 -0.022057101 5986906
-0.05917355 0.05426969 -0.021549718 6710372
-0.057728011 0.054107092 -0.021024777 5526355
-0.056286488 0.053937886 -0.020395724 8419448
-0.054849304 0.053761065 -0.019646874 9075065
-0.053413231 0.05357971 -0.018828766 8683648
-0.051981252 0.053389665 -0.017875113 6708573
-0.050545562 0.053200051 -0.016932897 5274910
-0.049101107 0.053017739 -0.016111597 7578689
-0.047649752 0.05284103 -0.015383167 12899752
-0.046191223 0.052671041 -0.014764678 13091517
-0.04472563 0.052508466 -0.014266572 10854813
-0.043254681 0.052351642 -0.013861526 14276304
-0.041779526 0.052199457 -0.013531571 15262942
-0.040296797 0.052058447 -0.013378709 15460322
-0.038813088 0.051918298 -0.01324014 15789802
-0.037326712 0.051782407 -0.013168583 16448246
-0.035837863 0.051651049 -0.013168328 16777214
-0.034349054 0.051519696 -0.013168073 15724524
-0.032860272 0.051388346 -0.013167819 11710125
-0.031371523 0.051257011 -0.013167685 16111830
-0.029882804 0.051125679 -0.013167611 16566469
-0.028394118 0.050994352 -0.013167416 16696513
-0.026905468 0.050863009 -0.013167224 16704994
-0.025416851 0.050731674 -0.013166971 16776953
-0.023928266 0.050600354 -0.013166714 16776953
-0.022443838 0.050452877 -0.012919418 16777210
-0.020958724 0.050304882 -0.012665175 16777212
-0.019483922 0.050102107 -0.011577836 16777215
-0.018021183 0.049810868 -0.0091504697 16763337
-0.016526068 0.049678877 -0.0091490261 16766678
-0.015030979 0.049546905 -0.0091476412 16776438
-0.013535942 0.04941472 -0.0091432435 16706750
-0.012040929 0.04928245 -0.0091372728 16572619
-0.010545896 0.049150862 -0.0091418056 15856079
-0.0090511236 0.049010798 -0.0090189679 11058818
-0.0075559746 0.048803587 -0.0078919111 5328976
-0.084051326 0.057972528 -0.022165461 7894389
-0.082567327 0.057849031 -0.022279439 7368302
-0.081083752 0.057725575 -0.02239342 7302766
-0.079600587 0.057602141 -0.022507286 8354426
-0.078117855 0.057478748 -0.022621093 8879742
-0.076635532 0.057355374 -0.022734843 8945535
-0.075153627 0.057232052 -0.022848595 10256769
-0.073672138 0.057108756 -0.022962227 9339779
-0.072193168 0.05698381 -0.023047209 8026232
-0.07071729 0.05685661 -0.023093401 6316128
-0.069246143 0.056725595 -0.023074677 8026489
-0.067782097 0.056588408 -0.022951642 9534588
-0.066320844 0.05644837 -0.022781063 10587276
-0.064859048 0.056308299 -0.022610476 9997709
-0.063405193 0.056160178 -0.022306012 9994625
-0.06195046 0.056011885 -0.021999788 8877686
-0.060502701 0.055855546 -0.021560762 5000268
-0.059056178 0.055696335 -0.021075932 4210752
-0.057610627 0.055534262 -0.020545961 5000268
-0.056168657 0.055366199 -0.019919198 6118492
-0.054732177 0.055189386 -0.019150689 7170152
-0.053296946 0.055007912 -0.018308911 9274243
-0.051861666 0.05482287 -0.017412512 9996938
-0.050423946 0.054636907 -0.01650529 5209377
-0.048976686 0.054459259 -0.015738519 7973449
-0.047525067 0.054283869 -0.015012463 13293232
-0.046061281 0.054122142 -0.014512305 12499380
-0.04459478 0.053961851 -0.014038147 9802381
-0.043121599 0.053809356 -0.013692386 8815745
-0.041643705 0.053662546 -0.013440514 7697264
-0.040160857 0.053522706 -0.013302018 8947074
-0.038676366 0.053384967 -0.013198221 10526363
-0.037189089 0.05325184 -0.013168949 13749709
-0.035700828 0.053120535 -0.013168698 16303557
-0.034212597 0.052989218 -0.013168451 16104123
-0.032724403 0.052857906 -0.013168205 12757932
-0.031236237 0.052726593 -0.013168019 16513784
-0.029748101 0.052595299 -0.013167953 16710649
-0.02826 0.052464005 -0.013167826 16774129
-0.026771933 0.052332703 -0.013167642 16776955
-0.025283897 0.052201416 -0.013167454 16711673
-0.023800448 0.052054241 -0.012917415 16776953
-0.022318024 0.051899962 -0.012556925 16777210
-0.020848619 0.051684704 -0.011243036 16777212
-0.019385142 0.051419247 -0.0091507388 16777215
-0.017890582 0.051287293 -0.0091493642 16776958
-0.016396077 0.051155154 -0.0091450317 16763080
-0.014901586 0.051023081 -0.0091416035 16763845
-0.013407065 0.050891522 -0.0091460813 16506067
-0.011912593 0.050759945 -0.0091501977 16775930
-0.010418183 0.050628077 -0.0091499705 16444887
-0.0089241918 0.050479744 -0.0088961758 11843721
-0.0074281488 0.049759526 0.00013034778 5657684
-0.083964311 0.059381232 -0.021384245 8879485
-0.082472153 0.059262391 -0.021586135 8157047
-0.080980711 0.059143603 -0.021787971 7171180
-0.079488277 0.059026062 -0.022010569 7368559
-0.07800404 0.058903322 -0.022140235 7763060
-0.076521508 0.058779743 -0.022254029 7894389
-0.075039387 0.058656197 -0.022367889 9994625
-0.07355769 0.058532678 -0.022481631 9470594
-0.072078563 0.058407508 -0.022565803 9929603
-0.070601583 0.058280904 -0.022624388 7697267
-0.069131069 0.058149204 -0.022593647 9340293
-0.067669138 0.058010187 -0.022435924 10846336
-0.066207573 0.057870384 -0.022265218 9602180
-0.064745478 0.057730533 -0.022094509 7565424
-0.0632881 0.057585813 -0.021840503 10588047
-0.061834399 0.057436779 -0.021513399 10455947
-0.060386937 0.057280537 -0.021064306 8881284
-0.05893904 0.057123132 -0.020597456 7894903
-0.057493202 0.056961883 -0.020067098 7895160
-0.056050792 0.056794934 -0.019442508 6381921
-0.054615013 0.056618195 -0.018654387 7368816
-0.053178668 0.056438897 -0.017826771 9407114
-0.051742967 0.056255363 -0.016931409 9208964
-0.050300281 0.056076523 -0.016119752 10126418
-0.048852134 0.055901006 -0.015368079 11969647
-0.047395177 0.055733688 -0.014757761 14727591
-0.045930695 0.055573858 -0.014275643 14001827
-0.044461939 0.055417772 -0.013858531 12621202
-0.042987768 0.055267692 -0.013543488 11766151
-0.041507419 0.055125654 -0.013363842 10647926
-0.040024567 0.054986786 -0.013237312 9003360
-0.038539283 0.05485142 -0.013169584 8284519
-0.037051573 0.054720134 -0.013169344 7960698
-0.035563897 0.054588854 -0.013169104 13355726
-0.034076247 0.054457571 -0.013168864 14408157
-0.032588638 0.054326296 -0.013168563 12039609
-0.031101057 0.054195024 -0.013168324 16777215
-0.029613502 0.054063778 -0.013168385 16777215
-0.028125985 0.05393251 -0.013168207 16644858
-0.026638774 0.053800464 -0.013155229 16639973
-0.025155971 0.053654592 -0.012918566 16703195
-0.023676861 0.053493403 -0.012435507 16703451
-0.022213301 0.053267278 -0.01090824 16769245
-0.020748064 0.053026404 -0.0091510871 16769503
-0.019254096 0.052894309 -0.0091468813 16770533
-0.017760109 0.052762419 -0.0091458755 16777215
-0.016266098 0.05263089 -0.0091503598 16776436
-0.014772167 0.052499104 -0.0091510471 16380907
-0.013278277 0.052367285 -0.009150885 16776438
-0.011784419 0.052235465 -0.0091507845 16777215
-0.010290882 0.052097704 -0.0090566715 16383202
-0.0087978495 0.051923979 -0.0083955126 9739641
-0.084758557 0.060237825 -0.010395 8682620
-0.082589045 0.060540643 -0.018387018 8222840
-0.080944277 0.060518686 -0.020379001 6776679
-0.07941889 0.060421586 -0.020985408 6052956
-0.077917151 0.060309794 -0.021320816 6052956
-0.07642331 0.060193371 -0.02156971 6184542
-0.074931219 0.060076371 -0.021807082 7697267
-0.073445216 0.059955556 -0.02197394 8485755
-0.071963921 0.059831668 -0.022084286 10583935
-0.070486456 0.059705131 -0.022146642 9405058
-0.069017462 0.059572052 -0.022090774 9799816
-0.067556128 0.059432533 -0.021920007 8748927
-0.066094264 0.059292965 -0.021749238 7500145
-0.064631864 0.059153337 -0.021578345 6974058
-0.063170984 0.059011836 -0.021374779 8616056
-0.061718903 0.058861572 -0.021017119 11504009
-0.06027168 0.058705498 -0.020558553 9670286
-0.058823343 0.058548912 -0.020093396 8224125
-0.057375748 0.058389906 -0.019588014 8026746
-0.055933408 0.058223557 -0.018956175 8158332
-0.054497574 0.058047753 -0.018162373 7631988
-0.053058982 0.057871867 -0.017371211 7500402
-0.051621106 0.057691913 -0.016513184 7832685
-0.050176606 0.057516258 -0.015734185 7770189
-0.048727334 0.057343144 -0.015002871 11711353
-0.047264889 0.057183772 -0.014512793 12566185
-0.045799654 0.057025865 -0.014050363 11117471
-0.044328719 0.056873742 -0.013689495 9933455
-0.042852476 0.056727614 -0.013433032 10065553
-0.041371211 0.056587886 -0.01328726 10262933
-0.039887398 0.056451496 -0.013199159 5393997
-0.038401291 0.05631854 -0.01317 4999495
-0.036914166 0.056187294 -0.013169706 5526100
-0.035427071 0.056056034 -0.013169477 11644852
-0.03394001 0.055924792 -0.013169183 13947608
-0.032452978 0.055793554 -0.013168951 13748685
-0.030965982 0.055662315 -0.013168658 16577523
-0.029479008 0.055531092 -0.013168791 16710908
-0.027992867 0.055397797 -0.013134073 16642031
-0.026510954 0.055252336 -0.012896603 16568527
-0.025035493 0.055084683 -0.012290939 16509157
-0.023583222 0.05483219 -0.010280575 16569809
-0.022109998 0.054632179 -0.0091486732 16577262
-0.0206165 0.054500464 -0.0091501512 16644343
-0.019123025 0.054368831 -0.0091525922 16644601
-0.017629631 0.054236989 -0.0091518359 16777206
-0.016136259 0.0541052 -0.0091517428 16118504
-0.014642921 0.053973414 -0.0091517102 16381420
-0.013149616 0.053841628 -0.0091516171 16777214
-0.011656536 0.053707279 -0.0091098482 16777215
-0.010164472 0.053549152 -0.0086819064 16383969
-0.0086727543 0.053304676 -0.0068575116 10264695
-0.083136737 0.060474165 0.0079431105 7171180
-0.08093413 0.060783938 -0.00043335257 6250335
-0.078772508 0.061087474 -0.0086462693 6052956
-0.076652765 0.061383549 -0.016673828 6052956
-0.074899577 0.061443489 -0.020240407 6052956
-0.073382787 0.061342906 -0.020793637 6184542
-0.071886167 0.061229002 -0.021095609 8091768
-0.070393398 0.061113052 -0.02135809 8945278
-0.068903595 0.060995571 -0.021590982 7960439
-0.067439623 0.060858183 -0.02145494 6579300
-0.065980792 0.060716167 -0.021234758 6316128
-0.064518198 0.0605767 -0.021062044 6316128
-0.063054964 0.060437247 -0.020890903 9142657
-0.061603669 0.060286582 -0.020515706 11497841
-0.060156491 0.060130868 -0.020050744 9800587
-0.05870783 0.059974995 -0.019585224 8158075
-0.057258256 0.05981838 -0.019108824 7631988
-0.055816516 0.059652086 -0.018460007 8750212
-0.054377906 0.059480067 -0.017711628 9079177
-0.052938633 0.059305876 -0.01692795 9671057
-0.051497586 0.059130542 -0.016127946 8819064
-0.050052702 0.058956377 -0.015353056 6391866
-0.048597306 0.058791678 -0.014750801 9878637
-0.047133744 0.058634635 -0.014287659 9080187
-0.045667354 0.058479194 -0.013855441 7565420
-0.044194121 0.058331098 -0.013555275 8814203
-0.042716216 0.05818826 -0.01334898 6579040
-0.041234046 0.058050781 -0.01323826 7236970
-0.039749984 0.057915725 -0.013170613 8487036
-0.038263407 0.057784509 -0.013170388 10592412
-0.036776863 0.057653286 -0.013170104 10789537
-0.035290353 0.057522077 -0.013169818 14276827
-0.033803873 0.057390872 -0.013169593 15197931
-0.032317426 0.057259656 -0.01316931 15460588
-0.030831011 0.057128455 -0.013169086 16578551
-0.029346015 0.056993969 -0.013112128 16711165
-0.027867241 0.056843169 -0.012775184 16710394
-0.026395626 0.056669474 -0.012047309 16709109
-0.024963787 0.056368753 -0.0091504678 16710904
-0.023470765 0.056237191 -0.0091541307 16443107
-0.02197786 0.056105394 -0.0091533773 16645111
-0.020484984 0.055973597 -0.0091526872 16777213
-0.018992132 0.055841837 -0.0091526611 16777212
-0.017499313 0.055710085 -0.0091526359 15460831
-0.016006544 0.055578221 -0.0091507379 16052712
-0.014513797 0.055446409 -0.0091496864 16776693
-0.013021857 0.055307001 -0.0090213781 16777215
-0.011530738 0.055151153 -0.008618542 16777215
-0.010040492 0.054947965 -0.0074278954 15794134
-0.079221323 0.061031021 0.018364422 6052956
-0.077027902 0.061341174 0.0097577488 6052956
-0.074877575 0.061643817 0.0013440513 6052956
-0.072767749 0.061940063 -0.0068988916 6381921
-0.070695847 0.062231086 -0.01499543 6710886
-0.068894044 0.062340699 -0.019585397 6579300
-0.067373775 0.062244833 -0.020240383 6250335
-0.065898247 0.062115196 -0.020250631 6184542
-0.064422801 0.061985552 -0.020260824 6184542
-0.062947415 0.061855927 -0.020271074 8683134
-0.061487783 0.06171263 -0.020024143 9601923
-0.060040902 0.061557084 -0.019548789 8748413
-0.058592267 0.061401598 -0.019076927 10780286
-0.057141785 0.061246268 -0.018610615 8420476
-0.055698443 0.061082225 -0.017984694 8749184
-0.054258209 0.060912732 -0.017260738 10590617
-0.052818254 0.060740191 -0.016484555 10852504
-0.051374059 0.060569286 -0.01574262 10525829
-0.049927656 0.060397897 -0.014995712 6983750
-0.048466116 0.060241312 -0.014524671 10666621
-0.047002643 0.060085095 -0.014062562 15591899
-0.045534007 0.059933428 -0.013686203 16446959
-0.04405861 0.059789073 -0.013444971 16177108
-0.042579554 0.059648704 -0.013277285 15327451
-0.041096568 0.059513282 -0.013200132 14341585
-0.039611626 0.059380505 -0.013170964 13684940
-0.038125634 0.059249315 -0.013170688 15592164
-0.036639672 0.05911814 -0.01317047 15986667
-0.035153743 0.058986969 -0.013170191 16710651
-0.033667848 0.058855787 -0.013169915 16448252
-0.032183349 0.05872184 -0.013120198 16447996
-0.030700557 0.058583893 -0.012999641 16777215
-0.029222824 0.058433328 -0.012655621 16777215
-0.027755471 0.058253936 -0.011803689 16777215
-0.026322972 0.057972461 -0.009154967 16777215
-0.024830587 0.057840679 -0.0091542248 16711163
-0.023338232 0.057708915 -0.0091536026 16376543
-0.0218459 0.057577189 -0.0091535226 16379114
-0.020353617 0.057445392 -0.0091522345 16579059
-0.018861355 0.057313632 -0.0091517363 15394527
-0.017369125 0.057181876 -0.0091510527 14867925
-0.015877092 0.057049092 -0.009132538 16249579
-0.014386787 0.056902982 -0.00888371 16776695
-0.012897167 0.056742374 -0.0083862441 16710908
-0.011425168 0.056320995 -0.0034069223 16645111
-0.070899472 0.062211294 0.011569382 6842215
-0.068802811 0.06250608 0.0031321519 6184542
-0.066744417 0.062795505 -0.0051515433 6842215
-0.064723864 0.063079253 -0.013276497 7697524
-0.062928624 0.063202456 -0.018229226 7960439
-0.061422545 0.06309621 -0.018698838 7302766
-0.059958838 0.0629545 -0.018479124 8683391
-0.05849484 0.062812351 -0.01825227 11565690
-0.057033289 0.062667198 -0.017968586 11176843
-0.055584446 0.062508844 -0.017433284 11438730
-0.054141384 0.062342841 -0.016754635 10976894
-0.052695706 0.062177043 -0.016083403 11961476
-0.051250879 0.062007781 -0.015350007 9802338
-0.049796771 0.061845925 -0.014761331 8297048
-0.048334915 0.061690614 -0.014299663 12631951
-0.046870913 0.061535947 -0.013852493 16309718
-0.045398589 0.061389722 -0.013567046 16709618
-0.043923177 0.061246268 -0.013334672 16640486
-0.042441666 0.061110035 -0.01323918 16697286
-0.040958822 0.060975291 -0.013171616 16762049
-0.039473377 0.060844146 -0.013171406 15921130
-0.037987966 0.060712993 -0.013171136 14796739
-0.036502413 0.060582139 -0.013176186 14004912
-0.035018608 0.0604483 -0.013126033 15057859
-0.03353646 0.060311109 -0.013014571 14013140
-0.032056265 0.060169362 -0.012819782 15132134
-0.030577706 0.060022786 -0.012537556 16776958
-0.029120233 0.059826255 -0.011344456 16777215
-0.027681213 0.059574693 -0.0091550108 16777215
-0.026189376 0.059442956 -0.0091545181 16777214
-0.024697576 0.059311226 -0.0091537181 16709620
-0.0232058 0.059179496 -0.0091532255 16568525
-0.021714058 0.059047781 -0.00915273 16436681
-0.020222349 0.058916047 -0.0091519961 15977157
-0.018730724 0.058784083 -0.009147089 14924212
-0.017240167 0.05864669 -0.00904488 14463406
-0.015750393 0.058502581 -0.0088235401 16305609
-0.014266492 0.058309007 -0.0077233966 16634575
-0.012850245 0.057424381 0.0056318883 16568785
-0.064752087 0.063084111 0.013386905 8420219
-0.062709667 0.063370712 0.0049313223 6381664
-0.060705952 0.063650928 -0.0033464662 7368559
-0.058734063 0.063929886 -0.011550904 9076607
-0.056995884 0.064024724 -0.016047291 9142143
-0.05551989 0.063889846 -0.015964812 8682106
-0.054056171 0.063742846 -0.015643071 8682620
-0.052604832 0.063582301 -0.015056428 8223354
-0.051137965 0.063435748 -0.014747492 7505499
-0.049678065 0.063280486 -0.014270297 9870179
-0.048211608 0.063130714 -0.013902558 12697489
-0.04673956 0.062985964 -0.013634911 16313575
-0.045263182 0.062845349 -0.013449335 16776438
-0.043785624 0.062705457 -0.013278208 16711161
-0.042303871 0.062570378 -0.013201131 16572124
-0.040820606 0.06243705 -0.01315847 16762052
-0.039336629 0.062304601 -0.013132683 16636117
-0.0378526 0.06217216 -0.013106953 14340301
-0.036370188 0.062036995 -0.013029572 10262421
-0.034892954 0.061892554 -0.012775806 10854817
-0.033417173 0.061743945 -0.012444001 11706272
-0.031951018 0.061574552 -0.011720709 14076618
-0.030517278 0.061333135 -0.0096414089 16708594
-0.02903842 0.061175726 -0.0091552492 16708594
-0.027547136 0.061044022 -0.0091547025 16775156
-0.026055882 0.060912326 -0.0091541559 16776954
-0.024564659 0.06078063 -0.0091536092 16776954
-0.02307347 0.060648941 -0.0091528781 16512497
-0.021582359 0.06051708 -0.0091492478 15590879
-0.020091314 0.060385056 -0.0091423485 14735569
-0.018602658 0.060242593 -0.008942714 14077640
-0.017115606 0.060088694 -0.0085334592 11577508
-0.01566539 0.059703976 -0.0038853418 15590624
-0.056597654 0.064238027 0.0067361915 5987163
-0.054645464 0.064511865 -0.001593465 7433838
-0.052729029 0.064780384 -0.0097650941 6052956
-0.051074579 0.064814478 -0.013128803 6847315
-0.049597859 0.064675137 -0.012961795 8757600
-0.048112482 0.064544603 -0.012973579 12044950
-0.046627034 0.06441424 -0.012988628 16249579
-0.045143135 0.064282157 -0.012969008 16776182
-0.043662135 0.064146444 -0.012876838 15592422
-0.042180862 0.06401071 -0.012784729 16052716
-0.040698476 0.063876085 -0.012715189 16643569
-0.039216414 0.0637407 -0.012630943 16767191
-0.03773554 0.063603155 -0.012504214 16443363
-0.03626328 0.063451365 -0.012097748 13750219
-0.034791894 0.063295811 -0.011619201 13421512
-0.033375748 0.063039616 -0.0091711096 11250087
-0.031964108 0.062758923 -0.0062581664 14340817
-0.030468557 0.062626742 -0.006256144 16051947
-0.028903861 0.062643878 -0.0091552082 16314862
-0.02741316 0.062512219 -0.0091545461 16446705
-0.025922492 0.062380545 -0.0091538252 16579831
-0.024431886 0.062248792 -0.0091514094 16711160
-0.022941384 0.062116802 -0.0091444561 15526883
-0.021451965 0.061981205 -0.0090683922 14407889
-0.019962745 0.061844002 -0.0089619448 14604755
-0.018486258 0.06165057 -0.0077846809 14012876
-0.017129263 0.060839657 0.0051160138 11576224
-0.050466664 0.065108038 0.0085465824 7839568
-0.048568793 0.065373123 0.00021228737 11849107
-0.046746809 0.065587714 -0.0070203799 16381164
-0.045103841 0.065626658 -0.010564995 16710644
-0.043585815 0.065531053 -0.011305673 15986923
-0.042108003 0.065388352 -0.01107103 15789802
-0.040626407 0.065249585 -0.01091846 16250610
-0.039151359 0.06510108 -0.010567158 16775929
-0.037797518 0.064774677 -0.0065831863 16774388
-0.036312889 0.064627379 -0.0062713567 16777209
-0.034817956 0.064495072 -0.0062659499 16711416
-0.033323035 0.064362772 -0.0062605399 14604757
-0.031828094 0.064230539 -0.0062564639 15590369
-0.030333098 0.064098455 -0.0062554143 16381684
-0.028769415 0.064110875 -0.0091547118 16447988
-0.027279306 0.063979223 -0.0091535719 16577519
-0.025789345 0.063847281 -0.0091466224 16446961
-0.024299392 0.063715339 -0.0091396719 15855851
-0.022811519 0.063577279 -0.0090115238 13421250
-0.021327006 0.063426837 -0.0086390292 13420994
-0.019896671 0.0630714 -0.0042258715 14797767
-0.040659077 0.066493645 -0.0062672836 15855850
-0.039164111 0.066362098 -0.0062771407 16645623
-0.037669651 0.066229925 -0.0062737367 16776957
-0.036175281 0.066097662 -0.0062683341 16711416
-0.034680922 0.065965399 -0.0062629925 15790570
-0.033186581 0.065833144 -0.0062575899 15525861
-0.031692158 0.06570106 -0.0062557594 13482680
-0.030197743 0.065569013 -0.0062546558 12959934
-0.0286352 0.065576471 -0.0091487914 15329252
-0.02714579 0.065444581 -0.0091418447 16774899
-0.025657263 0.065310583 -0.0090918429 16180448
-0.024171378 0.065169297 -0.0088920062 14074557
-0.022699159 0.064986676 -0.0078457249 13223616
-0.021397067 0.064245969 0.0046015023 11644586
-0.040519312 0.067963347 -0.0062787435 16184303
-0.039025385 0.067831241 -0.0062761349 16711160
-0.037531573 0.06769903 -0.006270736 16776957
-0.03603778 0.067566805 -0.0062653404 16776955
-0.034543999 0.067434594 -0.0062600025 16579317
-0.033050194 0.067302443 -0.0062559377 15789546
-0.031556327 0.067170441 -0.0062550837 14735316
-0.02999003 0.067172639 -0.0091462024 14802394
-0.028501224 0.067040689 -0.0091371406 15922158
-0.027015129 0.066902906 -0.0090034576 16382195
-0.025535686 0.066748604 -0.0085178288 15391703
-0.024118453 0.066431277 -0.0045657274 14591394
-0.038851924 0.069343098 -0.0072740209 16774131
-0.037339468 0.069238767 -0.007897405 16774388
-0.035829019 0.069134742 -0.0085239587 16774902
-0.034321889 0.069029137 -0.0091102207 16773613
-0.032832097 0.068899512 -0.0091524962 16182760
-0.031343877 0.068767548 -0.0091423504 16118254
-0.029856086 0.068634808 -0.0091147497 16052974
-0.028376283 0.068486519 -0.0087410137 16316915
-0.026905211 0.068317369 -0.0079067647 15856364
-0.025653698 0.067643382 0.0040883678 14801363
-0.037225891 0.07067211 -0.0071673198 16773873
-0.035693426 0.070596106 -0.0084778797 16775667
-0.034191538 0.070482887 -0.0089078369 16508641
-0.032701313 0.070354246 -0.0089745065 16175567
-0.031216865 0.070216618 -0.0088322507 16049377
-0.029741351 0.070062645 -0.0083112847 16052460
-0.028330773 0.069783606 -0.0049047903 16316659
-0.034106113 0.071873888 -0.0071887029 14147784
-0.032603949 0.071759172 -0.0076017827 15849169
-0.031166021 0.07154566 -0.005622739 16174281
-0.02994553 0.070953742 0.0054595112 16116712
-0.048044559 0.027604427 -0.084903322 10197915
-0.047877196 0.027599689 -0.083422273 11118503
-0.046397559 0.027613433 -0.08358451 11118503
-0.044918112 0.027627183 -0.083746724 11118503
-0.043438859 0.027640879 -0.083908923 11118503
-0.0419598 0.02765464 -0.084071092 11118503
-0.040480927 0.027668467 -0.084233239 11118503
-0.039002255 0.02768218 -0.084395364 11315625
-0.037523773 0.027695898 -0.084557474 12037292
-0.047709871 0.027594911 -0.081941545 12168364
-0.046230402 0.027608667 -0.082103863 12364972
-0.044751126 0.027622428 -0.082266152 12364972
-0.043272045 0.027636135 -0.082428426 12364972
-0.041793153 0.027649907 -0.082590677 12233900
-0.040314455 0.027663626 -0.082752906 12168107
-0.038835946 0.027677409 -0.082915112 12037549
-0.037357636 0.027691139 -0.083077304 11578283
-0.035879515 0.027704936 -0.083239466 11381418
-0.034401588 0.027718617 -0.083401613 10987174
-0.032923855 0.027732363 -0.083563738 10592673
-0.031446315 0.027746115 -0.08372584 10658466
-0.029968964 0.027759874 -0.08388792 12103856
-0.028491808 0.027773578 -0.084049985 13342358
-0.027014846 0.027787287 -0.08421202 13278364
-0.047542583 0.027590156 -0.080461137 12102571
-0.046063285 0.027603863 -0.080623537 12823210
-0.044584177 0.027617635 -0.080785908 12888746
-0.04310526 0.027631413 -0.080948256 12888489
-0.041626539 0.027645137 -0.081110589 12168107
-0.040148012 0.027658867 -0.081272893 12036778
-0.038669679 0.027672602 -0.081435181 11512490
-0.037191536 0.027686343 -0.081597447 10987174
-0.035713583 0.027700149 -0.081759691 11578540
-0.034235828 0.027713841 -0.08192192 11906734
-0.032758262 0.027727598 -0.082084119 11578540
-0.03128089 0.027741304 -0.082246304 10987174
-0.02980371 0.027755072 -0.082408465 11381675
-0.028326724 0.027768787 -0.082570605 12102571
-0.026849931 0.027782509 -0.082732722 12037292
-0.025373328 0.027796235 -0.082894817 10263708
-0.02389692 0.027809966 -0.083056897 10197915
-0.022420703 0.027823705 -0.083218947 10263708
-0.020944675 0.027837448 -0.083380982 11643819
-0.019468844 0.027851198 -0.083542995 11447211
-0.017993206 0.027864832 -0.083704986 11644333
-0.048854653 0.027571591 -0.07881856 10855588
-0.047375329 0.027585361 -0.078981049 10855588
-0.045896199 0.027599139 -0.079143524 11250089
-0.044417262 0.027612863 -0.079305977 11250089
-0.042938519 0.027626593 -0.079468407 11250089
-0.041459966 0.027640387 -0.079630807 10921381
-0.039981607 0.027654069 -0.0797932 11184296
-0.038503442 0.027667874 -0.079955563 11381418
-0.037025467 0.027681626 -0.080117911 11710126
-0.035547689 0.027695324 -0.080280237 12758445
-0.034070101 0.027709087 -0.08044254 13149091
-0.032592706 0.027722796 -0.080604821 12691881
-0.031115504 0.027736511 -0.08076708 11447211
-0.029638493 0.027750233 -0.080929324 10724259
-0.028161675 0.027764019 -0.081091538 11775405
-0.026685052 0.02777769 -0.081253737 11775405
-0.025208618 0.027791429 -0.081415914 11184296
-0.023732377 0.027805172 -0.081578068 11118760
-0.02225633 0.02781892 -0.081740201 11118760
-0.020780474 0.027832616 -0.081902318 10921381
-0.019304812 0.027846316 -0.082064405 10592673
-0.01782934 0.027860081 -0.082226478 10987174
-0.01635406 0.027873794 -0.082388528 11381675
-0.014878973 0.02788751 -0.082550555 11315882
-0.01340408 0.027901175 -0.082712568 11118760
-0.011929377 0.027914904 -0.082874551 10987174
-0.010454868 0.027928637 -0.083036512 10790052
-0.008980548 0.027942378 -0.083198458 11841198
-0.048687264 0.027566865 -0.077338703 10197915
-0.047208112 0.027580589 -0.077501275 10197915
-0.045729153 0.027594319 -0.077663831 10197915
-0.044250384 0.027608113 -0.077826358 10197915
-0.042771809 0.027621852 -0.07798887 10197915
-0.041293427 0.027635539 -0.07815136 10197915
-0.039815236 0.02764935 -0.07831382 10921381
-0.038337242 0.027663108 -0.078476265 12300207
-0.036859438 0.027676811 -0.078638695 12693680
-0.035381828 0.027690521 -0.078801095 13020589
-0.033904411 0.027704295 -0.078963481 13344928
-0.032427184 0.027718015 -0.079125836 12626602
-0.030950151 0.027731743 -0.079288177 11118503
-0.02947331 0.027745474 -0.079450496 10789795
-0.027996663 0.027759211 -0.079612792 12562608
-0.026520206 0.027772954 -0.079775073 12628144
-0.025043942 0.027786642 -0.079937331 12628144
-0.023567872 0.027800398 -0.08009956 12628144
-0.022091994 0.027814098 -0.080261774 12627887
-0.020616306 0.027827803 -0.080423966 10658466
-0.019140812 0.027841575 -0.080586135 10197915
-0.017665509 0.027855292 -0.080748282 11118503
-0.0161904 0.027869016 -0.080910414 12366000
-0.014715482 0.027882744 -0.081072517 12628144
-0.013240757 0.027896417 -0.081234604 12562608
-0.011766224 0.027910098 -0.081396669 12300207
-0.010291882 0.027923843 -0.081558712 11315625
-0.0088227894 0.026308954 -0.081824951 12103599
-0.048519909 0.027562102 -0.075859167 10197915
-0.047040928 0.027575837 -0.07602182 10197915
-0.045562137 0.027589578 -0.076184452 10197915
-0.044083539 0.027603323 -0.076347061 10197915
-0.042605136 0.027617075 -0.076509655 10197915
-0.041126922 0.027630832 -0.076672219 10197915
-0.039648902 0.027644595 -0.076834761 11446954
-0.038171079 0.027658304 -0.076997288 13214884
-0.036693446 0.027672019 -0.077159792 12758188
-0.035216004 0.027685799 -0.077322274 11841198
-0.033738755 0.027699525 -0.077484734 12234671
-0.032261696 0.027713256 -0.077647172 11184296
-0.030784834 0.027726993 -0.077809595 10526623
-0.029308163 0.027740676 -0.077971995 11775405
-0.027831683 0.027754424 -0.078134365 13671323
-0.026355397 0.02776818 -0.078296721 13671323
-0.024879303 0.02778188 -0.078459054 13671323
-0.023403401 0.027795644 -0.078621365 13671323
-0.02192769 0.027809355 -0.078783661 13671066
-0.020452173 0.027823072 -0.078945927 10855588
-0.018976849 0.027836796 -0.079108179 10197915
-0.017501716 0.027850524 -0.079270408 12496815
-0.016026774 0.027864199 -0.079432614 13669781
-0.014552026 0.027877938 -0.079594798 13670552
-0.01307747 0.027891682 -0.07975696 13670552
-0.011603103 0.027905315 -0.079919115 13147806
-0.010128931 0.027919011 -0.080081232 11578026
-0.0087061049 0.010404034 -0.081335299 11644076
-0.048352595 0.027557302 -0.074379958 11184553
-0.046873782 0.027571047 -0.074542686 11184553
-0.045395162 0.027584799 -0.0747054 11184553
-0.043916736 0.027598556 -0.074868083 11184553
-0.0424385 0.027612319 -0.075030752 11184553
-0.040960453 0.027626086 -0.075193398 10329501
-0.039482605 0.027639801 -0.075356022 10658466
-0.03800495 0.027653521 -0.075518623 11315625
-0.036527485 0.027667247 -0.07568121 11381675
-0.035050213 0.027680978 -0.075843774 10987174
-0.033573132 0.027694775 -0.076006308 10855588
-0.032096248 0.027708458 -0.076168828 10526880
-0.030619552 0.027722206 -0.076331325 10329501
-0.02914305 0.0277359 -0.0764938 10724259
-0.02766674 0.027749659 -0.07665626 11512747
-0.026190624 0.027763365 -0.07681869 11512747
-0.024714697 0.027777135 -0.076981105 11381161
-0.023238964 0.027790854 -0.07714349 11381161
-0.021763425 0.027804516 -0.077305868 11381161
-0.020288076 0.027818304 -0.077468209 10395294
-0.018812919 0.027831977 -0.077630542 10197915
-0.017337956 0.027845718 -0.077792846 11643819
-0.015863184 0.027859403 -0.077955134 12495016
-0.014388603 0.027873153 -0.0781174 11709355
-0.012914216 0.027886851 -0.078279644 11774891
-0.01144002 0.027900552 -0.078441866 12560552
-0.0099660158 0.0279142 -0.078604072 11446954
-0.0085851271 -0.0060860487 -0.080827631 10658466
-0.048185315 0.02755258 -0.072901055 12628401
-0.046706673 0.027566278 -0.073063873 12628144
-0.045228221 0.027580041 -0.07322666 12628401
-0.043749966 0.027593751 -0.073389426 12628401
-0.042271897 0.027607523 -0.073552169 12628401
-0.040794022 0.027621303 -0.07371489 10855588
-0.039316345 0.027635029 -0.073877595 10263708
-0.037838858 0.02764876 -0.074040279 10197915
-0.03636156 0.027662497 -0.07420294 10921381
-0.03488446 0.027676178 -0.074365586 11184296
-0.03340755 0.027689926 -0.074528202 10658466
-0.031930834 0.02770368 -0.074690796 10461087
-0.030454306 0.027717439 -0.074853376 10395294
-0.028977972 0.027731204 -0.075015925 10329501
-0.027501833 0.027744856 -0.075178467 10263708
-0.026025886 0.027758572 -0.075340979 10395294
-0.024550129 0.027772296 -0.075503469 10395294
-0.023074564 0.027786084 -0.075665936 10197915
-0.021599194 0.027799757 -0.075828388 10395294
-0.020124014 0.027813436 -0.075990818 10263708
-0.018649025 0.027827241 -0.076153219 10197915
-0.017174231 0.027840931 -0.076315604 10921381
-0.015699629 0.027854629 -0.076477975 11446954
-0.014225217 0.02786833 -0.076640315 10658466
-0.012750998 0.027882038 -0.076802641 10855845
-0.011276971 0.02789575 -0.076964937 12168364
-0.0098031349 0.027909411 -0.077127226 11315625
-0.0084596127 -0.023194293 -0.080300927 10197915
-0.048018072 0.027547823 -0.07142248 9927024
-0.046539597 0.02756153 -0.071585365 11434873
-0.04506132 0.027575245 -0.071748234 13669524
-0.043583229 0.027589025 -0.071911082 13670038
-0.042105332 0.027602809 -0.072073907 13670038
-0.040627629 0.02761648 -0.072236709 12103856
-0.039150119 0.027630217 -0.072399497 10461087
-0.037672803 0.02764396 -0.072562255 10197915
-0.036195677 0.027657706 -0.072724991 11315625
-0.034718744 0.0276714 -0.072887711 12626602
-0.033242002 0.02768516 -0.07305041 11709869
-0.031765454 0.027698925 -0.073213086 11052967
-0.030289097 0.027712636 -0.073375739 11052967
-0.028812934 0.027726352 -0.073538378 10855845
-0.027336959 0.027740134 -0.073700987 10395294
-0.025861181 0.027753802 -0.073863581 10987174
-0.024385594 0.027767595 -0.074026145 10921638
-0.022910202 0.027781215 -0.074188702 10197915
-0.021434998 0.027794959 -0.074351229 11052967
-0.019959986 0.027808709 -0.074513733 10329501
-0.018485168 0.027822405 -0.074676223 10197915
-0.017010542 0.027836107 -0.074838683 10263708
-0.015536107 0.027849816 -0.075001128 10263708
-0.014061865 0.027863529 -0.075163551 10197915
-0.012587815 0.027877247 -0.075325951 10921381
-0.011113956 0.027890971 -0.075488329 12168878
-0.0096402895 0.027904641 -0.075650692 11250089
-0.049329359 0.027529312 -0.069781229 11381418
-0.047850866 0.027543025 -0.069944218 10265966
-0.046372559 0.027556805 -0.070107184 9676131
-0.044894449 0.027570529 -0.070270129 9348447
-0.04341653 0.02758426 -0.070433058 9019996
-0.041938804 0.027597997 -0.070595957 9737840
-0.040461268 0.027611738 -0.070758842 8752246
-0.038983926 0.027625486 -0.070921704 7501159
-0.037506782 0.02763918 -0.071084544 9342088
-0.036029823 0.02765294 -0.071247362 11644076
-0.034553058 0.027666643 -0.071410164 13018533
-0.033076487 0.027680414 -0.071572937 13149091
-0.031600107 0.02769413 -0.071735688 12888232
-0.030123921 0.027707852 -0.071898423 12888489
-0.028647928 0.02772158 -0.072061136 12822953
-0.027172124 0.027735313 -0.072223827 12626602
-0.025696514 0.027749052 -0.072386496 12822953
-0.024221096 0.027762797 -0.072549149 12822953
-0.02274587 0.027776487 -0.072711773 12561066
-0.021270838 0.027790183 -0.072874382 12886947
-0.019795993 0.027803944 -0.073036969 10855845
-0.018321345 0.027817652 -0.073199533 10263708
-0.016846888 0.027831364 -0.073362075 10197915
-0.015372624 0.027845023 -0.073524602 10197915
-0.01389855 0.027858747 -0.073687099 10197915
-0.012424666 0.027872477 -0.073849581 10461087
-0.010950977 0.027886152 -0.074012041 10855588
-0.0094774785 0.027899835 -0.074174479 10526880
-0.049162015 0.027524585 -0.068303198 10465416
-0.04768369 0.027538309 -0.068466268 11507554
-0.046205558 0.02755204 -0.068629317 12100713
-0.044727616 0.027565716 -0.068792343 10075495
-0.043249864 0.027579518 -0.068955347 9880418
-0.041772306 0.027593266 -0.069118328 9945443
-0.040294945 0.027606959 -0.069281287 8435017
-0.038817771 0.027620718 -0.069444232 6854452
-0.037340794 0.027634423 -0.069607154 5600558
-0.035864007 0.027648192 -0.069770046 4939568
-0.034387413 0.027661908 -0.069932923 6121800
-0.032911006 0.02767569 -0.070095778 7172438
-0.0314348 0.027689358 -0.07025861 9735293
-0.029958781 0.027703149 -0.07042142 10259330
-0.028482955 0.027716829 -0.070584215 11377045
-0.027007323 0.027730573 -0.070746988 12692395
-0.025531882 0.027744204 -0.070909739 12692395
-0.024056632 0.027758019 -0.071072459 12692395
-0.022581575 0.027771721 -0.071235172 12757674
-0.021106711 0.027785428 -0.071397856 13732490
-0.019632038 0.027799141 -0.071560517 11971499
-0.018157559 0.027812859 -0.071723163 11381418
-0.016683269 0.027826523 -0.071885787 11249832
-0.015209172 0.027840253 -0.072048388 10921381
-0.013735265 0.027853988 -0.072210968 10395294
-0.012261554 0.027867669 -0.072373524 10197915
-0.010788033 0.027881356 -0.072536059 10197915
-0.0093147019 0.027895108 -0.072698578 10197915
-0.048994713 0.027519818 -0.066825494 10987655
-0.047516555 0.027533555 -0.06698864 9941861
-0.04603859 0.027547296 -0.06715177 12112781
-0.04456082 0.027560985 -0.067314871 14346685
-0.043083239 0.027574737 -0.067477956 14018229
-0.041605853 0.027588436 -0.06764102 13165217
-0.040128656 0.027602199 -0.067804061 11918725
-0.038651656 0.02761591 -0.06796708 10604648
-0.037174843 0.027629687 -0.068130076 9487187
-0.035698224 0.027643407 -0.06829305 9616222
-0.034221802 0.027657134 -0.068456002 10728054
-0.032745566 0.027670868 -0.068618938 7968084
-0.031269528 0.027684545 -0.068781853 11045999
-0.029793678 0.027698349 -0.068944737 12092778
-0.028318021 0.02771204 -0.069107614 12027754
-0.026842557 0.027725795 -0.069270462 12027751
-0.025367284 0.027739495 -0.069433287 11761497
-0.023892205 0.027753202 -0.069596097 10715502
-0.022417316 0.027766915 -0.069758885 8159346
-0.020942621 0.027780633 -0.069921643 8415581
-0.019468118 0.027794298 -0.070084393 8086104
-0.017993804 0.027808087 -0.070247106 11437185
-0.016519684 0.027821762 -0.070409812 13670295
-0.015045756 0.027835503 -0.070572488 12233129
-0.01357202 0.02784919 -0.070735149 10789795
-0.012098475 0.027862882 -0.070897788 10197915
-0.010625122 0.02787664 -0.071060397 10197915
-0.0091854278 0.018293643 -0.071721666 10197915
-0.048827443 0.027515015 -0.065348111 11708796
-0.047349457 0.027528763 -0.065511331 8369991
-0.04587166 0.027542515 -0.065674536 12573596
-0.044394057 0.027556213 -0.065837719 13881542
-0.042916648 0.027569918 -0.066000886 11315872
-0.041439429 0.027583687 -0.066164024 11974569
-0.039962403 0.027597463 -0.06632714 12501422
-0.038485568 0.027611183 -0.06649024 13029041
-0.03700893 0.027624911 -0.066653311 13819066
-0.035532482 0.027638644 -0.066816367 14675142
-0.034056224 0.027652381 -0.066979401 15003076
-0.03258016 0.027666125 -0.067142412 14151599
-0.031104289 0.027679816 -0.067305408 15118731
-0.02962861 0.02769351 -0.067468375 14793361
-0.028153121 0.027707271 -0.067631327 13162641
-0.026677825 0.027721038 -0.067794248 12568973
-0.025202723 0.027734689 -0.067957163 13150846
-0.023727812 0.027748408 -0.068120047 10664567
-0.022253092 0.027762132 -0.06828291 9220703
-0.020778565 0.027775861 -0.06844575 8432209
-0.019304231 0.027789537 -0.068608575 8695379
-0.017830087 0.027803276 -0.06877137 9813348
-0.016356135 0.027816962 -0.068934157 10405736
