# .PCD v0.7 - Point Cloud Data file format
VERSION 0.7
FIELDS x y z rgb
SIZE 4 4 4 4
TYPE F F F U
COUNT 1 1 1 1
WIDTH 1039
HEIGHT 1
VIEWPOINT 0 0 0 1 0 0 0
POINTS 1039
DATA ascii
-0.019720517 -0.032842021 0.011359307 16773617
-0.019021653 -0.034167707 0.011348394 16774131
-0.018314101 -0.035487805 0.011266332 16774645
-0.017540889 -0.036766678 0.010649482 16776701
-0.016654054 -0.037977949 0.0091192303 16776187
-0.015960418 -0.03931132 0.0091650626 16777215
-0.015502744 -0.040782511 0.011099558 15204304
-0.01487766 -0.042150863 0.01167779 9364072
-0.014092239 -0.043428198 0.010981222 7458381
-0.013162608 -0.044630576 0.0091603138 8373852
-0.012463114 -0.045960397 0.009158873 7785291
-0.011763564 -0.047290199 0.0091570141 7262262
-0.011062804 -0.048619416 0.0091459304 7393591
-0.010365271 -0.049950231 0.0091596702 7722040
-0.0096449833 -0.051270418 0.0089999167 8116534
-0.0088177323 -0.052542988 0.0080318647 8116528
-0.070582777 0.057082139 0.023027297 12037549
-0.069923408 0.055692043 0.023470799 10526880
-0.069263905 0.054305643 0.023901433 11578283
-0.068600729 0.052932542 0.024266055 12037292
-0.06793981 0.051555991 0.024655815 10921381
-0.067279473 0.050180689 0.02504516 10197915
-0.066618241 0.048810467 0.025412397 10197915
-0.065956309 0.047444616 0.025761049 10197915
-0.065294899 0.046079852 0.026109459 9079434
-0.064632744 0.044719327 0.026439341 8025461
-0.063965879 0.04337237 0.026695885 11114905
-0.063296162 0.042033844 0.026907269 10328216
-0.062619925 0.040711779 0.027024643 9144970
-0.061942626 0.039392903 0.02712504 10262423
-0.06126548 0.038074315 0.027225435 8684676
-0.060585685 0.036762148 0.027288537 8618883
-0.059900478 0.035461929 0.027279135 9276813
-0.0592141 0.034164108 0.027254662 10787482
-0.058526579 0.03286846 0.027216071 10393495
-0.057844646 0.031561296 0.027249623 9276813
-0.057130598 0.030317802 0.026876703 8618883
-0.056344539 0.02921153 0.025610534 8684676
-0.05515483 0.02886452 0.019369615 8750469
-0.054454118 0.027569382 0.019247575 8684676
-0.054120097 0.025603617 0.023582583 8618883
-0.054192897 0.022934355 0.032730259 8553090
-0.054264277 0.020320442 0.041688882 8553090
-0.054334529 0.017759774 0.050466958 8553090
-0.053725492 0.016396228 0.051135872 8487297
-0.053060528 0.015129059 0.051144239 8421504
-0.052395567 0.013861912 0.05115255 9079177
-0.051730625 0.012594781 0.051160917 10524567
-0.051065698 0.011327676 0.051169284 10983833
-0.050400767 0.01006059 0.051177591 10787225
-0.049735852 0.0087935291 0.051185898 10721432
-0.049070962 0.0075264731 0.051194325 10918297
-0.048406065 0.0062594521 0.051202632 11771807
-0.04774119 0.0049924469 0.051210996 11574428
-0.047076318 0.0037254684 0.051219307 10459288
-0.046411455 0.0024585067 0.051227614 9539471
-0.04574661 0.0011915605 0.051235978 7236973
-0.045081768 -7.5362484e-05 0.051244348 6513507
-0.044416934 -0.0013422616 0.051252656 8355711
-0.043752119 -0.0026091374 0.051260963 7566195
-0.043087315 -0.0038760046 0.05126933 5338442
-0.042422514 -0.005142841 0.051277637 4486206
-0.041757733 -0.0064096684 0.051286004 6850400
-0.041092966 -0.0076764696 0.051294371 7374690
-0.040428199 -0.0089432467 0.051302675 8682845
-0.039763443 -0.010210004 0.051310983 5864787
-0.03909871 -0.011476756 0.051319409 4683331
-0.038433988 -0.012743486 0.051327836 5208645
-0.037769273 -0.014010188 0.051336203 6521165
-0.037104566 -0.015276872 0.051344629 7112274
-0.036439877 -0.016543541 0.051353056 4682542
-0.0357752 -0.017810188 0.051361483 8819510
-0.035110526 -0.019076807 0.05136985 10135386
-0.034445871 -0.020343415 0.051378272 6595116
-0.033781219 -0.021609997 0.051386703 8839239
-0.033116587 -0.022876561 0.051395126 11665028
-0.032451954 -0.0241431 0.051403493 14677178
-0.031787343 -0.025409624 0.051411919 13431205
-0.031122733 -0.026676122 0.051420286 12444817
-0.030458136 -0.027942602 0.051428713 12641687
-0.028452065 -0.02814593 0.039661426 15793373
-0.025898922 -0.027975619 0.023287071 16777215
-0.02324596 -0.027798649 0.0062725912 16777215
-0.022164734 -0.028851936 0.0030049474 16777215
-0.022225933 -0.030741051 0.0095389541 16777215
-0.021615742 -0.03213184 0.010289504 16776958
-0.020975657 -0.033499096 0.010778067 16776958
-0.020312736 -0.034849122 0.011069041 16776701
-0.019604873 -0.036168732 0.010982472 16710651
-0.018774124 -0.037410762 0.0098816985 16777215
-0.017987883 -0.038684677 0.0091606155 16777215
-0.017608831 -0.040206376 0.011769788 16777215
-0.017042167 -0.041607987 0.012825249 16777215
-0.016363679 -0.042941779 0.012966881 15531991
-0.015636861 -0.044248249 0.012720012 10152824
-0.014818246 -0.045506239 0.011746424 7065414
-0.013793776 -0.046660226 0.0091585098 7259211
-0.013094544 -0.047989402 0.0091565913 7457349
-0.012394136 -0.049318012 0.0091454983 7458367
-0.011696906 -0.05064819 0.0091592455 8312645
-0.010998014 -0.051977552 0.0091600064 8773193
-0.01025992 -0.053289276 0.0088604335 8445244
-0.071882755 0.05629316 0.023306863 10724002
-0.071223259 0.054904547 0.023749974 10724259
-0.070564412 0.053517357 0.024192549 10724259
-0.069908015 0.052126586 0.024662243 10395294
-0.069251969 0.050738253 0.025126154 10197915
-0.068591721 0.049364701 0.025514901 10197915
-0.067931809 0.047993019 0.025899593 10197915
-0.067270026 0.0466289 0.02624769 8816262
-0.066608779 0.045265861 0.026595546 7039851
-0.065946303 0.043908283 0.026917713 9276556
-0.065278701 0.042565446 0.027159115 9802643
-0.064607441 0.041233011 0.027343238 9408142
-0.063933194 0.039908815 0.027481467 9342606
-0.063257881 0.03858795 0.027602112 10262680
-0.062581114 0.037271183 0.027700048 9671314
-0.061897937 0.035969187 0.027709179 9671314
-0.061213821 0.034669291 0.027705433 9671314
-0.060527079 0.033374932 0.027666939 9933972
-0.059840277 0.032080464 0.027628446 9671314
-0.059158098 0.030776296 0.027650924 8882055
-0.058445588 0.029532991 0.027282536 8618883
-0.057668611 0.028413994 0.026100051 8947848
-0.056454003 0.02813023 0.019419391 9539728
-0.055749837 0.026843233 0.019247344 9539985
-0.055059306 0.025529956 0.019247551 8882055
-0.053880963 0.025101481 0.013271364 8553090
-0.05395712 0.022407513 0.022631632 8553090
-0.054031678 0.019770199 0.031794999 8487297
-0.054104976 0.017187292 0.040771127 8487297
-0.054176904 0.014657369 0.049563952 8421504
-0.053643748 0.01317043 0.051123552 8553090
-0.052979082 0.01190386 0.051131923 8750469
-0.052314434 0.010637299 0.05114029 8618883
-0.051649783 0.0093707731 0.051148601 8487297
-0.05098515 0.0081042619 0.051156972 8816262
-0.050320525 0.0068377722 0.051165279 10196630
-0.049655907 0.0055713053 0.05117359 11967644
-0.048991304 0.0043048579 0.051181898 11442585
-0.04832672 0.0030384187 0.051190328 8947848
-0.047662139 0.001772011 0.051198639 8224125
-0.046997562 0.00050562655 0.05120695 5263440
-0.046333004 -0.00076074252 0.051215317 8749698
-0.045668457 -0.0020270909 0.051223628 9998480
-0.045003917 -0.0032934202 0.051231999 10459031
-0.044339385 -0.0045597181 0.051240247 8554106
-0.043674868 -0.005826008 0.051248617 4614720
-0.043010361 -0.007092278 0.051256988 7506528
-0.042345867 -0.0083585242 0.051265296 4814662
-0.041681383 -0.0096247513 0.051273666 5996115
-0.041016903 -0.01089095 0.051281914 7438941
-0.040352445 -0.012157146 0.051290344 4026944
-0.039687995 -0.013423311 0.051298715 5274443
-0.03902356 -0.014689462 0.051307082 6324303
-0.038359139 -0.015955595 0.051315513 8880215
-0.037694726 -0.017221708 0.051323939 7112530
-0.037030324 -0.0184878 0.051332369 5996608
-0.03636593 -0.01975387 0.051340736 9476932
-0.035701543 -0.021019915 0.051349107 10069595
-0.035037179 -0.022285953 0.051357593 6858546
-0.034372814 -0.023551956 0.051365964 11005809
-0.033708464 -0.024817942 0.051374331 14731412
-0.03304413 -0.026083911 0.051382761 16760501
-0.032379802 -0.027349859 0.051391192 16366250
-0.031332176 -0.028303383 0.04796594 16762821
-0.028860187 -0.028137827 0.031919163 16776187
-0.026292577 -0.027965868 0.01525169 16777215
-0.023623684 -0.027787125 -0.0020732523 16777215
-0.020847388 -0.027601182 -0.020095408 16777215
-0.022572407 -0.030740757 0.0010734492 16777215
-0.022507446 -0.03253236 0.0065734712 16777215
-0.02213458 -0.034090009 0.0093713226 16777215
-0.02152551 -0.035478167 0.010129191 16776701
-0.020799072 -0.036786705 0.0098885857 16643830
-0.020009344 -0.038055994 0.0091216918 16776958
-0.019316107 -0.039388057 0.0091667902 16776958
-0.019024407 -0.040961836 0.012526775 16776958
-0.018403407 -0.042329386 0.013141898 16711165
-0.01771283 -0.04365487 0.013182045 16710908
-0.016989009 -0.044961777 0.0129524 15793373
-0.016230429 -0.04625085 0.012446059 11792534
-0.015123164 -0.047359385 0.0091579398 9559152
-0.014424274 -0.04868795 0.0091560781 9687667
-0.013724349 -0.050016016 0.0091461111 9622889
-0.013027287 -0.051345494 0.0091587305 9557603
-0.012328662 -0.052674208 0.0091590136 9624929
-0.011619081 -0.053998005 0.0090743732 9036107
-0.010793287 -0.055271592 0.0080955224 8971839
-0.073179245 0.055509839 0.023562085 13083298
-0.072521046 0.054118309 0.024028601 13278107
-0.071862921 0.052730113 0.024484441 13278621
-0.071206845 0.051339444 0.024961567 10921381
-0.070551492 0.049950294 0.025438152 10197915
-0.069896847 0.048562668 0.025914202 10197915
-0.069241732 0.047179755 0.026371526 10197915
-0.068581045 0.045814857 0.026733316 5723991
-0.067917638 0.044459552 0.027045853 8553090
-0.067254685 0.043105248 0.027357971 8618883
-0.066587649 0.041763254 0.027603062 8618883
-0.065916181 0.04043372 0.027778443 8618883
-0.065241992 0.039111841 0.027911009 9671314
-0.064559288 0.037810758 0.027920142 10787739
-0.063876294 0.036510404 0.02792492 10787996
-0.063193113 0.035210464 0.027927253 10787739
-0.062509939 0.033910509 0.027929647 9802900
-0.06182678 0.032610558 0.027932039 9473935
-0.061143607 0.031310625 0.027934372 9473935
-0.060452644 0.030026842 0.027833307 8816262
-0.059756476 0.028752977 0.027666114 8750469
-0.058977529 0.027642833 0.026427202 9473935
-0.057751697 0.027396943 0.019467566 10656924
-0.057044357 0.026117723 0.019247318 10656924
-0.056354132 0.024805112 0.019247225 9408399
-0.055663943 0.023492413 0.019247606 8882055
-0.053636327 0.024587784 0.0027228342 8882055
-0.05371597 0.02186868 0.012302981 8882055
-0.053793937 0.019207392 0.021679455 8882055
-0.053870298 0.016602045 0.030859064 9211020
-0.053945463 0.014050313 0.03985218 9276813
-0.05401909 0.011551205 0.048659876 8750469
-0.053562079 0.0099475281 0.051111281 8421504
-0.05289771 0.0086815516 0.051119655 8421504
-0.052233353 0.0074155955 0.051127966 9802643
-0.051569007 0.0061496659 0.051136281 11901594
-0.050904676 0.0048837452 0.051144652 10853789
-0.050240349 0.0036178487 0.051152963 8750469
-0.04957604 0.0023519679 0.051161334 8553090
-0.048911735 0.0010861176 0.051169649 8421247
-0.048247442 -0.0001797163 0.05117796 8420219
-0.047583159 -0.0014455313 0.051186334 9733252
-0.046918884 -0.0027113222 0.051194645 10389126
-0.046254624 -0.0039770934 0.051202957 11370367
-0.045590371 -0.005242845 0.051211271 10852761
-0.044926137 -0.0065085841 0.051219642 8092282
-0.044261906 -0.0077742958 0.051227953 9076840
-0.043597687 -0.009039985 0.051236264 6325331
-0.042933486 -0.010305661 0.051244635 3961659
-0.042269286 -0.011571313 0.05125295 3567417
-0.041605093 -0.01283694 0.051261261 3370296
-0.040940922 -0.014102554 0.051269636 4815434
-0.04027677 -0.015368159 0.051278066 5668687
-0.039612621 -0.016633732 0.051286437 8356697
-0.038948476 -0.017899284 0.051294807 9273948
-0.038284361 -0.01916483 0.051303297 8555616
-0.037620246 -0.020430345 0.051311672 8163419
-0.036956143 -0.021695841 0.051320102 10594139
-0.036292039 -0.022961309 0.051328413 10201185
-0.035627961 -0.024226768 0.051336844 8696662
-0.034963895 -0.025492206 0.051345274 13615744
-0.034299828 -0.026757613 0.051353648 15973538
-0.03363578 -0.02802301 0.051362079 16759996
-0.031760603 -0.028296707 0.040373899 16566215
-0.029275384 -0.028129585 0.024042735 16380144
-0.026693178 -0.02795594 0.0070742425 16645115
-0.024008209 -0.02777539 -0.010569554 16777215
-0.021214195 -0.027587501 -0.02892991 16777215
-0.01830438 -0.027391834 -0.048051301 16777215
-0.022512179 -0.032304402 -0.004949796 16777215
-0.022445971 -0.034096658 0.00061134878 16777215
-0.022276621 -0.035797097 0.0052115163 16775673
-0.021467367 -0.037060518 0.0042916886 16768220
-0.02134019 -0.038762014 0.0091629988 16774645
-0.020928701 -0.040267855 0.011576844 16774388
-0.02039226 -0.041688763 0.012914179 16774131
-0.0197291 -0.043030053 0.013181506 16444652
-0.019034002 -0.044352077 0.013181839 16378602
-0.018330107 -0.045669228 0.013110089 16378088
-0.01757222 -0.046957567 0.012599514 16116437
-0.016451309 -0.048057891 0.0091573382 13361567
-0.015752759 -0.049385842 0.0091555323 11587455
-0.015053364 -0.050713386 0.0091471132 11585407
-0.014356374 -0.052042119 0.0091577666 11190643
-0.01365806 -0.053370208 0.009157991 10606705
-0.01295749 -0.05469729 0.0091403825 10021981
-0.01217576 -0.055989236 0.0084905447 10745421
-0.074470595 0.054737605 0.023763161 11840684
-0.07381478 0.053339481 0.024272965 12364715
-0.073159084 0.051944915 0.024771493 13473944
-0.072502673 0.050556205 0.025245739 12298408
-0.071846984 0.049169015 0.025719386 11840170
-0.071192011 0.047783323 0.026192613 11840170
-0.07053709 0.046400923 0.026655039 8814977
-0.069878444 0.04503189 0.027048377 8158332
-0.069214694 0.043679111 0.027354019 8618883
-0.068549722 0.04233164 0.027633885 8618883
-0.067878202 0.041002646 0.027809229 8618883
-0.067204595 0.039680026 0.02794967 8618883
-0.066525415 0.038371883 0.028005337 10722203
-0.06584283 0.037072159 0.028010774 12293011
-0.065160267 0.035772447 0.02801621 12293011
-0.064477697 0.034472745 0.028021645 12291212
-0.063794948 0.033173487 0.028024394 9933972
-0.06311217 0.031874295 0.028026726 10721432
-0.062429402 0.030575089 0.028029179 10787482
-0.061745428 0.029278416 0.028015345 9211020
-0.061048128 0.028009098 0.027823431 9276813
-0.06027269 0.026896279 0.026600821 10328473
-0.059064452 0.026631944 0.019730937 12031638
-0.058374058 0.025322376 0.019719383 12031638
-0.057683643 0.024012769 0.019707831 10262680
-0.056993186 0.022703152 0.019696102 9605521
-0.053452402 0.026591472 -0.016189732 9671314
-0.05338598 0.024062146 -0.0080714365 9802643
-0.053469278 0.021317417 0.0017365427 9934229
-0.053550772 0.018631753 0.011333421 10722460
-0.053630538 0.016003249 0.020726059 10722203
-0.053708874 0.013429697 0.029923825 9539471
-0.053785779 0.01090947 0.038932264 8618883
-0.053861085 0.008441261 0.047754727 8421504
-0.053480484 0.006727526 0.051099006 10525081
-0.052816413 0.0054621506 0.051107321 12686484
-0.052152354 0.0041967775 0.051115699 11246491
-0.05148831 0.0029314384 0.05112401 9079177
-0.05082427 0.0016661191 0.051132325 8882055
-0.05016024 0.00040082278 0.051140644 9536644
-0.049496233 -0.00086446787 0.051149014 11496813
-0.048832227 -0.0021297245 0.051157329 12682372
-0.048168235 -0.0033949648 0.051165644 11964303
-0.04750425 -0.0046601822 0.051173959 9996938
-0.046840273 -0.0059253792 0.051182278 8355711
-0.046176318 -0.0071905646 0.051190648 9210763
-0.045512363 -0.0084557226 0.051198963 12417915
-0.04484842 -0.0097208573 0.051207278 9272933
-0.044184491 -0.010985975 0.051215593 7636313
-0.04352057 -0.012251073 0.051223908 3173938
-0.042856663 -0.013516153 0.051232282 3042356
-0.042192768 -0.014781212 0.051240597 2713392
-0.041528892 -0.01604626 0.051249031 3501884
-0.040865023 -0.017311288 0.051257465 5209418
-0.040201154 -0.018576283 0.05126578 7374168
-0.039537311 -0.019841269 0.051274214 7702617
-0.038873475 -0.021106232 0.051282585 8555102
-0.038209643 -0.022371171 0.051290959 9015649
-0.03754583 -0.023636097 0.051299393 10002250
-0.036882021 -0.024900995 0.051307768 10332518
-0.036218222 -0.026165873 0.051316142 10006115
-0.03555445 -0.027430741 0.051324576 14477226
-0.034602016 -0.028452352 0.048656624 16769762
-0.032196373 -0.028289912 0.032651592 16568271
-0.029697841 -0.028121199 0.016028555 16243675
-0.027100928 -0.027945839 -0.0012489819 16575724
-0.024399726 -0.027763439 -0.019220455 16776701
-0.027064936 -0.031658251 0.011061695 16777215
-0.026398536 -0.033004634 0.0113288 16777215
-0.025513271 -0.034194767 0.0096616186 16777215
-0.02513261 -0.035740346 0.012437504 16777215
-0.022316679 -0.035635512 -0.0060089496 16775159
-0.021559453 -0.036954671 -0.0064174938 16763337
-0.022210719 -0.0391744 0.0052659977 16764879
-0.022359822 -0.041035708 0.012512211 16761538
-0.021738291 -0.042402685 0.013137033 16763080
-0.021048699 -0.043727219 0.013181272 16762052
-0.020353932 -0.045048628 0.013181603 16762566
-0.01965913 -0.046370026 0.013181757 16764622
-0.018912865 -0.047663689 0.012757433 16568785
-0.018021187 -0.048882887 0.011147435 16367278
-0.01707999 -0.050083075 0.0091549605 13947031
-0.016381152 -0.051410116 0.0091481404 11981188
-0.015684215 -0.052738097 0.009156771 11718788
-0.014986242 -0.05406557 0.0091570523 11332226
-0.014287758 -0.05539282 0.0091533381 11927406
-0.013544678 -0.056700796 0.0087978635 14417753
-0.075760089 0.053966597 0.023963133 10197915
-0.075103983 0.052569877 0.024472516 10789795
-0.07444866 0.051174734 0.024981661 12822182
-0.073794089 0.049781248 0.02549009 13146778
-0.07313922 0.048392493 0.025980311 13146778
-0.072482988 0.047011301 0.02643585 10192004
-0.071824566 0.045639604 0.026844593 5987163
-0.071166597 0.044269655 0.02725035 8421504
-0.07050126 0.042922355 0.027530767 8618883
-0.069833212 0.041584209 0.027762115 8618883
-0.069160759 0.040258978 0.027920706 8618883
-0.068486519 0.038939349 0.0280485 8618883
-0.067806169 0.03763568 0.028081929 10262680
-0.067124404 0.036335632 0.02809375 11050397
-0.066442199 0.035036664 0.028099189 11050397
-0.065760016 0.0337377 0.028104564 12423569
-0.06507764 0.032439191 0.028107194 9605521
-0.064395078 0.031141091 0.028107259 11245720
-0.06371253 0.029842971 0.02810738 11638422
-0.063029937 0.028544923 0.02810709 10918811
-0.062320005 0.027304022 0.027733341 11247005
-0.061559457 0.026164377 0.026684141 10919068
-0.060371399 0.02587573 0.019943187 11508892
-0.0596685 0.024592649 0.019759556 12358033
-0.058978427 0.023283746 0.019747701 11900309
-0.05828834 0.021974817 0.019735781 11900823
-0.057598229 0.020665843 0.019723864 12031381
-0.056907717 0.019357512 0.019707173 12161939
-0.056216832 0.01804973 0.019686185 12358033
-0.053216826 0.020753326 -0.0090761762 12619149
-0.053302024 0.018042836 0.00074900076 12683400
-0.053385377 0.015390712 0.010362622 10787482
-0.053466946 0.012795066 0.019771494 8882055
-0.053547237 0.010253417 0.028987372 8487297
-0.053625882 0.0077647767 0.038011152 10591131
-0.053702891 0.0053275363 0.046848442 12228246
-0.053398956 0.0035104186 0.051086728 11377306
-0.052735183 0.0022456301 0.051095042 9999508
-0.052071426 0.00098086149 0.051103361 10261652
-0.051407684 -0.00028389166 0.051111735 10384757
-0.050743945 -0.0015486208 0.051120054 11760499
-0.050080217 -0.0028133267 0.051128373 11179927
-0.049416497 -0.0040780096 0.051136691 9145227
-0.048752788 -0.0053426758 0.051145006 8421504
-0.048089102 -0.0066073304 0.051153384 7368816
-0.047425408 -0.0078719491 0.051161639 9797246
-0.046761744 -0.0091365604 0.051170018 11766410
-0.04609808 -0.010401148 0.051178332 10589075
-0.045434419 -0.011665705 0.051186591 8683623
-0.044770781 -0.012930254 0.05119497 3831607
-0.044107147 -0.014194778 0.051203284 3700283
-0.043443527 -0.015459283 0.051211603 4422475
-0.042779922 -0.016723776 0.051219977 5670499
-0.042116325 -0.017988242 0.051228356 4684624
-0.041452743 -0.019252691 0.051236734 5603665
-0.04078918 -0.020517129 0.051245168 5143107
-0.040125612 -0.021781532 0.051253546 4025643
-0.039462063 -0.023045924 0.05126192 5076534
-0.038798533 -0.024310298 0.051270358 7309902
-0.038135 -0.025574641 0.051278736 9805123
-0.037471488 -0.026838975 0.05128717 10463593
-0.036807977 -0.028103281 0.051295549 6990903
-0.035057433 -0.028446943 0.041083783 15072708
-0.032639686 -0.028283 0.024795674 16768734
-0.030127745 -0.028112661 0.0078729866 16763337
-0.027516022 -0.027935561 -0.0097218771 16767192
-0.024798436 -0.027751276 -0.028030036 16776444
-0.028484145 -0.032437325 0.011973678 16777215
-0.02781133 -0.033776354 0.012177103 16777215
-0.027082162 -0.035074469 0.011873961 16777215
-0.026476823 -0.036459643 0.012674123 16777215
-0.025781658 -0.037780944 0.012671531 16776701
-0.025016384 -0.039056193 0.012055374 16774388
-0.024276491 -0.040350147 0.011668329 16772589
-0.023723735 -0.04176211 0.012902175 16763594
-0.023061542 -0.043102961 0.013180848 16776187
-0.022367071 -0.044423737 0.013181063 16776444
-0.021672625 -0.045744527 0.013181332 16776701
-0.020978164 -0.047065318 0.013181544 16776958
-0.020251755 -0.048368882 0.012915113 16711165
-0.019482819 -0.049651224 0.012299381 16633550
-0.018406007 -0.05077967 0.009154533 16645096
-0.017707681 -0.052106187 0.0091491407 12648353
-0.017010834 -0.053433429 0.0091559244 10285431
-0.016313164 -0.054760277 0.0091559635 11990918
-0.015615122 -0.056086961 0.0091530802 14417780
-0.014883728 -0.057399265 0.0088840937 6120762
-0.077047803 0.053196631 0.024162952 10197915
-0.076391391 0.051801346 0.02467186 10263708
-0.075735785 0.050407622 0.02518052 11118503
-0.075080916 0.049015537 0.025688529 11381418
-0.074426822 0.047625072 0.026195934 11381418
-0.073767908 0.046252508 0.026609587 5329233
-0.073109217 0.04488235 0.027016491 5855577
-0.072448492 0.043520927 0.027379559 8618883
-0.071782306 0.042177007 0.027646191 8618883
-0.071111567 0.040847238 0.027833635 8618883
-0.070439167 0.039523069 0.027990989 8618883
-0.069762185 0.038211782 0.028073335 8618883
-0.069082111 0.036908798 0.02810666 8618883
-0.068399876 0.03561132 0.028106723 8684676
-0.067717656 0.034313828 0.028106844 8684676
-0.067035437 0.033016324 0.028107027 11836572
-0.066353202 0.031718832 0.028107092 9145227
-0.065670975 0.030421333 0.028107151 10918554
-0.064988732 0.029123826 0.028107276 12227989
-0.064306475 0.027826348 0.028107159 12293525
-0.063599221 0.026581908 0.027758615 12227989
-0.062859721 0.025402235 0.026973451 10459802
-0.061718658 0.025034798 0.02072998 10197144
-0.060994923 0.023797294 0.02024895 12031638
-0.060289431 0.022521254 0.020021521 12879237
-0.05958217 0.021247238 0.01977534 11376278
-0.058892421 0.019938922 0.019763479 11049626
-0.058202669 0.018630559 0.019751614 10853018
-0.057512756 0.017322388 0.01973814 10656153
-0.05682224 0.016015206 0.0197172 10393752
-0.056131732 0.014707869 0.019696856 12161682
-0.055442367 0.013398493 0.019691082 12161425
-0.053134535 0.01476406 -0.00023990589 10656667
-0.053219754 0.012145544 0.0093905907 9013641
-0.053303327 0.0095825549 0.018817974 8947848
-0.053385422 0.0070731854 0.028049825 9013641
-0.053465787 0.0046162317 0.037088834 9802386
-0.053544499 0.0022100371 0.045941088 11703187
-0.05331751 0.0002961875 0.051074497 12482166
-0.052654035 -0.00096800731 0.051082816 10974067
-0.05199058 -0.0022321823 0.051091135 10721689
-0.051327124 -0.0034963377 0.051099453 9539471
-0.050663684 -0.0047604698 0.051107775 8487297
-0.050000262 -0.0060245856 0.051116094 8487297
-0.049336839 -0.0072886781 0.051124413 8421504
-0.048673429 -0.0085527506 0.051132735 11567489
-0.048010036 -0.0098168068 0.051141053 8223354
-0.047346648 -0.011080841 0.051149372 7960182
-0.04668327 -0.01234485 0.051157694 10849677
-0.046019901 -0.013608844 0.051166013 4744517
-0.045356553 -0.014872818 0.051174331 4357442
-0.044693206 -0.016136769 0.05118265 5408345
-0.044029873 -0.017400701 0.051190972 5933412
-0.043366563 -0.018664623 0.05119941 5604705
-0.04270326 -0.019928524 0.051207788 7837564
-0.042039964 -0.021192402 0.051216166 8031593
-0.041376676 -0.022456257 0.051224545 5011522
-0.040713403 -0.023720089 0.051232927 4025642
-0.040050138 -0.024983907 0.051241305 5207863
-0.039386895 -0.026247708 0.051249743 6324027
-0.038723644 -0.027511476 0.051258065 11643240
-0.037860412 -0.028600797 0.049344897 10068834
-0.035520658 -0.02844145 0.03338135 7319101
-0.033090729 -0.028275963 0.016802631 15138501
-0.030565305 -0.028103972 -0.00042768617 16774388
-0.027938647 -0.027925091 -0.018348705 16769762
-0.030473387 -0.031800929 0.011771156 16776701
-0.029840361 -0.03316991 0.012342955 16777215
-0.029150659 -0.034495007 0.01238944 16777215
-0.028487267 -0.035838701 0.012673622 16777215
-0.027792733 -0.037159584 0.012673715 16777215
-0.027098196 -0.038480472 0.012673747 16777215
-0.026403656 -0.03980137 0.01267384 16777215
-0.02571005 -0.041122869 0.012682111 16776701
-0.025068596 -0.042476859 0.013146487 16773874
-0.024378348 -0.043799438 0.013180609 16777215
-0.023684228 -0.04511961 0.013180877 16777215
-0.022990078 -0.046439771 0.013181031 16777215
-0.022295956 -0.04775995 0.013181299 16777215
-0.021588938 -0.049073182 0.013072665 16777215
-0.020841826 -0.050365858 0.012628719 16775930
-0.019730778 -0.051475614 0.009153951 16777215
-0.019032968 -0.052801602 0.0091501093 15597523
-0.01833619 -0.054128103 0.0091549279 13499559
-0.01763886 -0.055454336 0.0091550229 14541980
-0.016941162 -0.056780413 0.0091522578 8286808
-0.016223783 -0.058098033 0.0089905541 11765883
-0.015339106 -0.059346687 0.007487976 5591634
-0.078333713 0.052427761 0.024362385 11512747
-0.077677011 0.051033888 0.024870871 10329501
-0.0770211 0.049641583 0.025379052 11184296
-0.076365955 0.048250899 0.025886634 10724259
-0.075709984 0.04686664 0.026366258 9604493
-0.075050518 0.045496456 0.026773171 5000011
-0.074391685 0.044127535 0.027179781 6184542
-0.073727012 0.042778194 0.027478918 8421504
-0.073060311 0.041436736 0.02773677 8618883
-0.072387829 0.04011289 0.027894313 8618883
-0.071715586 0.038789541 0.028051613 8618883
-0.071035869 0.037486784 0.028086923 8618883
-0.070355199 0.036186699 0.02810652 8618883
-0.069673285 0.034889854 0.028106403 8618883
-0.068991385 0.033592939 0.028106704 8684676
-0.068309486 0.032296047 0.028106824 9605521
-0.067627572 0.030999139 0.028107006 8684676
-0.066945672 0.029702246 0.028107064 9276813
-0.066263758 0.028405339 0.028107185 9474192
-0.065581828 0.02710844 0.028107248 9408142
-0.064877167 0.025860514 0.027783811 9210763
-0.064142935 0.024672896 0.027051568 8816262
-0.063188136 0.023936151 0.023266565 8684676
-0.062486727 0.022663677 0.02305085 10722460
-0.061784849 0.021390766 0.022833707 12817042
-0.061082639 0.020117203 0.022616498 8816262
-0.0603568 0.018887164 0.022089062 8421504
-0.059604045 0.01770403 0.021217583 8421504
-0.058821928 0.016569227 0.019980675 8421504
-0.0581186 0.015286813 0.019787073 8421504
-0.057427883 0.013981242 0.019758955 12031381
-0.056738704 0.012672894 0.019750727 12942460
-0.056049518 0.011364506 0.019742558 11966359
-0.055360306 0.010056091 0.019734392 10786968
-0.052966848 0.011481036 -0.0012299441 9868436
-0.053053923 0.0088962447 0.0084172599 8750469
-0.053139523 0.006365981 0.017863406 8947848
-0.053223383 0.0038890261 0.027111005 9605007
-0.053305507 0.0014638064 0.036165427 8025975
-0.053385928 -0.00091126672 0.045032658 7368559
-0.053236131 -0.0029151593 0.051062256 9211020
-0.052572954 -0.0041787531 0.051070519 8947848
-0.051909793 -0.0054423418 0.051078904 8487297
-0.051246647 -0.0067059034 0.051087223 8487297
-0.050583497 -0.0079694409 0.051095486 8421504
-0.049920369 -0.0092329634 0.051103808 11115162
-0.049257252 -0.010496465 0.05111213 7039851
-0.048594136 -0.011759945 0.051120453 10715521
-0.047931042 -0.013023407 0.051128775 9732481
-0.047267955 -0.014286851 0.051137097 7039851
-0.046604872 -0.015550262 0.05114536 6919009
-0.045941807 -0.016813666 0.051153682 7773819
-0.04527875 -0.018077051 0.051162064 6065762
-0.044615708 -0.019340411 0.051170386 4488266
-0.043952681 -0.020603759 0.051178765 5604699
-0.043289665 -0.021867089 0.051187206 10130046
-0.04262666 -0.023130398 0.051195588 9996144
-0.041963656 -0.024393672 0.05120391 8359014
-0.041300669 -0.025656939 0.051212292 4879415
-0.040637698 -0.026920186 0.051220734 4944689
-0.039974738 -0.028183412 0.051229116 6060853
-0.038342644 -0.028596656 0.041791294 11511140
-0.035991888 -0.028435862 0.025545875 9347674
-0.033549722 -0.028268808 0.0086688697 7522099
-0.031010723 -0.028095132 -0.0088774199 15530187
-0.028369252 -0.027914623 -0.027131218 16767963
-0.03183252 -0.032537777 0.012187492 16770533
-0.031157369 -0.033873424 0.012368706 16774645
-0.030467931 -0.035197821 0.012415031 16776958
-0.029801643 -0.036538616 0.012673299 16777215
-0.029107431 -0.037858881 0.01267333 16777215
-0.028413234 -0.039179165 0.01267354 16777215
-0.027719034 -0.040499453 0.01267369 16777215
-0.027058287 -0.041841242 0.012972456 16777215
-0.026387732 -0.043175723 0.013180126 16777215
-0.02569394 -0.044495273 0.013180393 16777215
-0.025000131 -0.045814823 0.013180602 16777215
-0.024306318 -0.047134373 0.013180812 16777215
-0.023612518 -0.048453938 0.013181079 16777215
-0.022918701 -0.049773499 0.01318129 16777215
-0.022178903 -0.05106901 0.012790356 16776958
-0.021274617 -0.052282609 0.011014904 16776701
-0.020357016 -0.053496368 0.0091511691 15989714
-0.019660333 -0.054822139 0.0091540143 14086556
-0.018963313 -0.05614775 0.0091540515 8093789
-0.018265985 -0.057473227 0.0091515183 9148285
-0.017561043 -0.058795452 0.0090868035 6445915
-0.016764693 -0.060080029 0.0082803797 3487029
-0.079617836 0.051659953 0.024561606 12626345
-0.078960851 0.050267473 0.025069728 10395037
-0.078304641 0.048876591 0.02557743 11906220
-0.077649198 0.047487333 0.026084471 10526880
-0.076991081 0.046110343 0.026529888 7761004
-0.076331466 0.044741385 0.026936568 6905952
-0.07567066 0.04337905 0.02731175 8024947
-0.07500422 0.042035874 0.027580777 9736079
-0.074335106 0.040702295 0.027797686 10262423
-0.073662743 0.039379314 0.027955003 10328216
-0.072987825 0.038064416 0.028066294 8750469
-0.072308332 0.036762495 0.028100481 8684676
-0.07162711 0.035465267 0.028106399 8684676
-0.070945509 0.034169029 0.02810628 8618883
-0.070263922 0.032872733 0.02810646 8684676
-0.069582343 0.031576432 0.028106637 8684676
-0.068900757 0.030280132 0.028106818 8618883
-0.068219177 0.028983824 0.028106995 8618883
-0.067537583 0.027687518 0.028107116 8618883
-0.066855989 0.026391212 0.028107235 8553090
-0.066156305 0.02513448 0.02784455 8553090
-0.065424718 0.023944372 0.027129596 8487297
-0.06452661 0.023098871 0.024065191 8618883
-0.063839093 0.021802086 0.024027005 10722717
-0.063150622 0.020506974 0.023976451 12882064
-0.062453292 0.019228976 0.023805222 8487297
-0.061746247 0.017968645 0.02350555 8421504
-0.061038714 0.016707424 0.023205761 8421504
-0.060320698 0.01546376 0.022772811 8421504
-0.059579033 0.014260306 0.022037074 8421504
-0.058809973 0.013100992 0.020959591 12357776
-0.058033369 0.011948563 0.019806625 12746366
-0.057342175 0.010644915 0.019767908 12550786
-0.056653317 0.0093371393 0.019759739 12224134
-0.052615117 0.013466355 -0.022195695 10722203
-0.052708048 0.010801018 -0.012098445 9210763
-0.052798949 0.0081937956 -0.0022213552 9473678
-0.052888013 0.0056426083 0.0074443035 9079177
-0.052975513 0.0031453732 0.016907612 6776422
-0.053061161 0.00070089358 0.026171086 8682363
-0.053145014 -0.0016924853 0.035240885 12030096
-0.053227138 -0.0040363465 0.044123039 10130837
-0.053154822 -0.0061236154 0.051050011 8487297
-0.052491944 -0.007386622 0.051058277 8553090
-0.051829081 -0.0086496128 0.051066604 8421504
-0.051166225 -0.0099125849 0.051074926 8421504
-0.050503381 -0.011175532 0.051083192 8553090
-0.049840558 -0.012438471 0.051091574 12022129
-0.049177736 -0.01370138 0.051099896 9207165
-0.04851491 -0.014964261 0.051108167 10123641
-0.047852121 -0.016227137 0.051116485 6851925
-0.047189333 -0.017489986 0.051124811 9215098
-0.046526551 -0.018752815 0.051133137 9803385
-0.045863781 -0.020015622 0.051141459 6852451
-0.045201022 -0.021278417 0.051149849 5539675
-0.044538286 -0.02254119 0.051158167 7903097
-0.043875564 -0.023803949 0.051166613 8163443
-0.043212838 -0.025066679 0.051174998 10062966
-0.042550121 -0.026329387 0.051183324 7702881
-0.041887429 -0.027592087 0.051191766 6192968
-0.04110742 -0.028748717 0.050030679 5141814
-0.038833112 -0.028592445 0.034108549 6455356
-0.036471315 -0.028430166 0.017573833 10067279
-0.034016874 -0.028261526 0.00039055687 7967553
-0.031464443 -0.028086316 -0.017478086 9293398
-0.03377825 -0.031869899 0.01159809 16050119
-0.033162221 -0.03325234 0.012347261 16770019
-0.032473072 -0.034576245 0.012394384 16774902
-0.031808678 -0.035918232 0.012673032 16777215
-0.031114822 -0.037237898 0.012673238 16777215
-0.030420952 -0.038557563 0.012673449 16777215
-0.029727079 -0.039877228 0.012673597 16777215
-0.029050302 -0.041208226 0.012829549 16777215
-0.028394947 -0.0425524 0.013177041 16777215
-0.027701775 -0.043871526 0.013179936 16777215
-0.027008291 -0.045190454 0.013180144 16777215
-0.026314819 -0.046509393 0.01318041 16777215
-0.025621329 -0.047828328 0.013180559 16777215
-0.024927853 -0.049147278 0.013180825 16777215
-0.02423436 -0.050466225 0.013181034 16711422
-0.023511281 -0.051769696 0.012926294 16763332
-0.022720559 -0.05303986 0.012096165 15971221
-0.021679729 -0.054190438 0.0091513591 14729346
-0.020983243 -0.055515531 0.0091530653 8029787
-0.020286532 -0.056840517 0.0091529833 7308138
-0.019589562 -0.058165394 0.0091506867 8615028
-0.018891845 -0.059489965 0.0091422964 5723220
-0.018121284 -0.060784478 0.0085349772 4605510
-0.08090017 0.05089321 0.024760555 11774891
-0.080242902 0.049502153 0.025268193 10263708
-0.079586409 0.048112661 0.02577547 11841455
-0.078930154 0.046726484 0.026272522 8947591
-0.078270517 0.045355003 0.026693445 6183771
-0.077610716 0.043987311 0.027099719 6183000
-0.076946214 0.042637043 0.027411031 7824227
-0.076280899 0.041291546 0.027699556 11041659
-0.075608514 0.039968658 0.027858442 12549501
-0.074936301 0.038646523 0.028015586 12751506
-0.074258782 0.037340149 0.028079931 8882055
-0.073579088 0.036040146 0.02810636 8882055
-0.072897822 0.034744509 0.028106298 8882055
-0.072216548 0.033448867 0.028106175 8882055
-0.071535274 0.032153208 0.028106175 8947848
-0.070854023 0.030857485 0.028106531 8618883
-0.070172749 0.029561792 0.02810665 8618883
-0.069491476 0.028266098 0.028106768 8618883
-0.068810217 0.02697039 0.028106945 8553090
-0.068128951 0.025674677 0.028107122 8553090
-0.067434922 0.024407292 0.027918104 8487297
-0.066705063 0.02321667 0.027207477 8487297
-0.065819919 0.022352181 0.024260098 8684676
-0.065135799 0.021050304 0.024262974 10919325
-0.064451441 0.019748909 0.024262503 12490133
-0.06376674 0.018448191 0.024257185 8421504
-0.063070446 0.017170066 0.024091255 8421504
-0.062374506 0.015890272 0.023933761 8421504
-0.061677661 0.014611226 0.023767354 8421504
-0.060968988 0.01335285 0.023445537 8421504
-0.06025042 0.01211031 0.022999112 9736850
-0.059513804 0.010896845 0.022324445 9605264
-0.05871284 0.0097899623 0.020825677 9408142
-0.05794505 0.0086189006 0.019785071 9144970
-0.056673206 0.0082704267 0.012333566 8750469
-0.052346107 0.012794252 -0.033567026 10130580
-0.055859409 0.0047288886 0.019509634 12355206
-0.055162519 0.0034337945 0.019400641 10917526
-0.052630812 0.0049023088 -0.0032140126 7236202
-0.052721962 0.0023847199 0.0064709443 10196887
-0.052811291 -7.9282559e-05 0.015950652 11506322
-0.052898735 -0.0024912076 0.025230013 11768209
-0.052984342 -0.0048526707 0.034315247 11310999
-0.05306818 -0.007165255 0.043212395 11050397
-0.053073592 -0.0093292072 0.051037755 8421504
-0.052411012 -0.010591624 0.051046085 8421504
-0.051748443 -0.011854022 0.051054411 8947591
-0.051085882 -0.013116399 0.051062681 12876667
-0.050423346 -0.014378764 0.051071003 11891314
-0.049760811 -0.015641099 0.051079333 10121328
-0.049098283 -0.016903412 0.051087599 5338948
-0.048435763 -0.018165711 0.051095925 6386521
-0.047773272 -0.019427992 0.051104251 7773043
-0.047110774 -0.020690251 0.051112581 9278836
-0.04644829 -0.021952488 0.051120907 7706739
-0.045785826 -0.023214715 0.051129293 7707775
-0.045123376 -0.024476919 0.051137678 7050614
-0.044460937 -0.025739104 0.051146064 5669722
-0.043798495 -0.027001264 0.051154453 7902072
-0.043136079 -0.028263407 0.051162839 7571552
-0.041616276 -0.028745839 0.042496238 8553819
-0.039332055 -0.028588172 0.02629338 5207607
-0.036959175 -0.028424378 0.0094617531 5140514
-0.034492597 -0.028254284 -0.0080340467 8686385
-0.031926636 -0.028077489 -0.026234189 7703868
-0.035155278 -0.032623772 0.012228303 8769870
-0.034476373 -0.033955172 0.012373086 16121816
-0.033813871 -0.035298452 0.01267297 16777215
-0.03312033 -0.036617491 0.012673179 16777215
-0.032426793 -0.037936542 0.012673323 14811117
-0.031733248 -0.039255589 0.012673533 16776958
-0.031044295 -0.040577777 0.012716368 16776958
-0.030390669 -0.041923266 0.013084949 16776701
-0.029707721 -0.043248352 0.013179448 16776444
-0.029014576 -0.044566669 0.013179714 16776187
-0.028321428 -0.045884989 0.013179918 16775673
-0.02762828 -0.047203314 0.013180183 16775159
-0.026935112 -0.048521634 0.01318033 16774645
-0.026241958 -0.04983997 0.013180596 16775930
-0.025548801 -0.051158305 0.013180801 16777215
-0.024842001 -0.052469514 0.013062087 15006905
-0.024086544 -0.053756528 0.012523104 13761678
-0.023001142 -0.05488383 0.0091509158 8359259
-0.022304913 -0.056208268 0.009152147 6651238
-0.021608537 -0.057532646 0.0091519989 6248536
-0.020911912 -0.058856916 0.0091499425 6839902
-0.020214602 -0.06018091 0.0091420831 8153449
-0.019495299 -0.061495878 0.0089513324 7102303
-0.082180731 0.050127544 0.024959167 10855588
-0.081523173 0.048737876 0.025466444 10197915
-0.080866382 0.047349811 0.02597318 11578540
-0.080208443 0.045969732 0.026442759 6315871
-0.07954827 0.044600677 0.026856698 4210752
-0.078887306 0.043237414 0.027244074 3947323
-0.078220762 0.041894466 0.027518617 4144702
-0.077552855 0.040557731 0.027761091 6052442
-0.076880559 0.03923583 0.02791903 10521740
-0.076207511 0.037917301 0.028059315 12682886
-0.075528517 0.03661659 0.028093534 11638936
-0.074848309 0.035319451 0.028106272 11638679
-0.074167363 0.034024421 0.028106149 11638422
-0.073486395 0.032729391 0.02810603 11704215
-0.072805434 0.031434346 0.028105907 10918554
-0.072124504 0.030139223 0.028106261 8618883
-0.071443565 0.028844129 0.028106438 8618883
-0.070762619 0.027549021 0.028106613 8553090
-0.070081659 0.026253929 0.02810673 8553090
-0.069400713 0.024958814 0.028106967 8487297
-0.068712138 0.023680914 0.027991563 8487297
-0.067984 0.022489769 0.027285328 8421504
-0.067098476 0.021634568 0.024262572 8882055
-0.066414483 0.020333698 0.024262697 10984861
-0.065730497 0.019032814 0.024262818 11704729
-0.065046437 0.017732078 0.024261924 8618883
-0.064362325 0.016431412 0.024260493 9211020
-0.063678212 0.015130737 0.024259064 9342349
-0.062992878 0.013832347 0.024240822 8421504
-0.062296748 0.012553911 0.024074871 8421504
-0.061598126 0.011279004 0.023878897 8421504
-0.060887456 0.010024364 0.023525404 8421504
-0.060164571 0.0087889396 0.023017026 8421504
-0.059418287 0.0075904289 0.022211872 8421504
-0.05860604 0.0064971629 0.020565487 8355711
-0.057830952 0.0053342464 0.019430714 9144970
-0.057184193 0.0039606779 0.019954117 9802129
-0.056494221 0.0026572791 0.019922005 8618883
-0.055802222 0.001356799 0.019865125 5987163
-0.055055942 0.00013691749 0.019137872 9671314
-0.052462548 0.0016064789 -0.0042071505 11114391
-0.052555699 -0.00087730557 0.0054964083 11636880
-0.052646868 -0.0033079963 0.014992525 11245463
-0.052736096 -0.0056872708 0.024287786 10459802
-0.052823462 -0.0080167381 0.03338841 8421504
-0.05290902 -0.010297962 0.042300556 8421504
-0.052992426 -0.012531922 0.051025551 8816262
-0.052330155 -0.013793753 0.051033881 10196116
-0.05166788 -0.015055556 0.051042151 10065044
-0.051005628 -0.016317349 0.05105048 7631474
-0.050343372 -0.017579114 0.05105881 6052442
-0.049681142 -0.018840864 0.051067077 3750201
-0.049018908 -0.020102588 0.05107541 6051157
-0.048356686 -0.02136429 0.05108368 9474171
-0.047694489 -0.022625981 0.051092006 9476989
-0.0470323 -0.023887658 0.051100396 9086346
-0.046370108 -0.025149303 0.051108725 10003598
-0.045707956 -0.026410945 0.051117174 7904384
-0.045045789 -0.02767255 0.051125504 4421708
-0.04434311 -0.028896123 0.050714135 5538140
-0.042133812 -0.028742915 0.034833163 4617788
-0.039839663 -0.028583815 0.018342329 4748339
-0.037455879 -0.028418656 0.001207712 3630621
-0.034977108 -0.028247071 -0.016609088 5403427
-0.037136991 -0.031987343 0.012009842 8818225
-0.036477912 -0.033334665 0.012352097 7309109
-0.035789207 -0.034657296 0.012398843 9360472
-0.03512397 -0.035997674 0.012673143 15985866
-0.03443075 -0.037316099 0.01267329 16767963
-0.03373754 -0.038634531 0.012673433 16635092
-0.033044316 -0.039952964 0.01267358 15846853
-0.032380819 -0.041291766 0.012954096 16762309
-0.031711821 -0.042625777 0.013179103 16760253
-0.031019 -0.043943476 0.013179367 16758197
-0.030326178 -0.045261178 0.013179571 16760510
-0.029633353 -0.046578884 0.013179774 16697030
-0.028940527 -0.047896598 0.01318004 16633036
-0.028247682 -0.049214303 0.013180186 16569299
-0.027554851 -0.050532021 0.013180389 16709366
-0.026862001 -0.051849738 0.013180535 16711629
-0.026169164 -0.053167466 0.013180739 14090105
-0.025433119 -0.054463319 0.012801517 7833934
-0.024491757 -0.055660047 0.010636976 6188117
-0.023625365 -0.056900371 0.0091511887 5393998
-0.022929296 -0.058224123 0.0091509819 4934218
-0.022233026 -0.059547793 0.0091491016 5591891
-0.021536203 -0.06087124 0.0091425553 6840673
-0.020820128 -0.062186815 0.0089737214 6840159
-0.083459504 0.049362924 0.025157567 10197915
-0.08280167 0.047974657 0.025664419 10197915
-0.082144603 0.046588 0.026170665 9932687
-0.08148504 0.045213982 0.026612813 7300453
-0.080824353 0.043847326 0.02701976 4210752
-0.08015991 0.042496115 0.027343331 2302755
-0.079494402 0.041150834 0.027637452 3684408
-0.078823455 0.039824702 0.027822517 3552565
-0.078151248 0.038503774 0.02797957 7367788
-0.077475742 0.037193794 0.028072877 10654097
-0.076796882 0.035894118 0.028104715 11311256
-0.076116346 0.034599438 0.028106147 11245463
-0.075435713 0.033305015 0.028105961 11114391
-0.074755073 0.03201057 0.028105898 11114391
-0.074074432 0.030716136 0.028105775 10721432
-0.073393807 0.029421642 0.028105948 10262166
-0.072713189 0.028127119 0.028106304 10261909
-0.072032548 0.026832633 0.028106421 10458774
-0.071351923 0.025538132 0.028106594 10655639
-0.07067129 0.024243632 0.028106708 10393495
-0.069984257 0.022963831 0.028007528 9276556
-0.069260672 0.021765532 0.027350405 8421504
-0.068375662 0.020918019 0.024262313 8618883
-0.067691997 0.019617742 0.024262495 9145227
-0.067008324 0.018317478 0.024262618 9342349
-0.066324651 0.017017202 0.024262678 9933972
-0.065640859 0.015717141 0.024261247 12290698
-0.064957075 0.01441706 0.024259873 11901080
-0.06427329 0.013116979 0.024258438 8421504
-0.063589476 0.011816893 0.024256947 8553090
-0.062905647 0.01051686 0.024255032 8750469
-0.0622092 0.0092395237 0.024080629 8947848
-0.061508376 0.0079688849 0.023850681 9145227
-0.060796559 0.0067158695 0.023478413 9210763
-0.060073912 0.0054790163 0.02297022 8947848
-0.059322834 0.0042862096 0.022099391 8355711
-0.05850026 0.0032038768 0.020317934 8355711
-0.057787884 0.0019379602 0.019989425 6645093
-0.057097737 0.00063599844 0.019950233 7368559
-0.056407448 -0.00066598621 0.019910205 11115933
-0.055712018 -0.0019606126 0.019806854 10721946
-0.054976795 -0.0031983978 0.019213749 9145227
-0.052294198 -0.0016938021 -0.005199803 8487297
-0.052389231 -0.0041434872 0.0045206305 8421504
-0.05248224 -0.0065407739 0.014033168 8618883
-0.05257326 -0.0088873114 0.023344338 9210763
-0.052662384 -0.011184708 0.032460481 9145227
-0.05274966 -0.013434492 0.041387703 8421504
-0.052835155 -0.01563813 0.050131813 8684676
-0.052249365 -0.016993014 0.051021669 9408142
-0.051587384 -0.018254226 0.051029943 6776679
-0.050925426 -0.019515421 0.051038213 7695982
-0.050263479 -0.020776603 0.051046543 8350828
-0.049601533 -0.022037758 0.051054876 7692127
-0.048939604 -0.023298893 0.051063146 9807755
-0.048277691 -0.024560016 0.05107148 10397842
-0.047615785 -0.025821121 0.051079869 10005398
-0.046953894 -0.027082203 0.051088262 9939603
-0.046292011 -0.028343266 0.051096655 6459503
-0.044878401 -0.028894499 0.04319866 5276250
-0.042660251 -0.028739933 0.027038237 7967599
-0.040356364 -0.028579548 0.010253592 4092721
-0.037961654 -0.028412992 -0.0071920678 3566111
-0.039084904 -0.031323109 0.011456234 3697181
-0.038475618 -0.032713003 0.012310412 5732901
-0.037789151 -0.03403677 0.012377704 9476406
-0.037125695 -0.0353784 0.012672717 8821838
-0.036432814 -0.036696218 0.012672982 10342496
-0.035739962 -0.038014054 0.012673423 15593673
-0.035047106 -0.039331902 0.012673926 16705767
-0.034387261 -0.040673085 0.012992758 16504791
-0.033713453 -0.042003378 0.013173038 15659239
-0.033021551 -0.043320868 0.01317905 16710651
-0.032329053 -0.044637952 0.013179252 16710908
-0.031636551 -0.04595504 0.013179393 16776701
-0.030944034 -0.047272123 0.013179539 16776958
-0.030251529 -0.048589218 0.013179742 16776958
-0.02955902 -0.049906317 0.013179882 16777215
-0.028866496 -0.051223416 0.013180029 16777168
-0.028173983 -0.052540526 0.013180231 13631345
-0.027481468 -0.053857639 0.013180372 7308106
-0.026768351 -0.055164333 0.012997329 6254167
-0.025950724 -0.05642058 0.01189338 8152678
-0.024944589 -0.057591829 0.0091503179 4671046
-0.024248829 -0.058914959 0.0091500534 3421236
-0.023552915 -0.060238026 0.0091483481 4671303
-0.022856571 -0.061560925 0.0091429912 6249050
-0.022143632 -0.062877066 0.0089960424 6314586
-0.021254919 -0.064124547 0.0073600281 5657427
-0.084736511 0.048599388 0.02535563 10197915
-0.084078386 0.047212504 0.025862116 8618883
-0.083419986 0.045830969 0.026346564 7301224
-0.082759663 0.044460196 0.026777055 8283493
-0.082098462 0.043096021 0.027176466 7495776
-0.081431769 0.041753288 0.027456529 4144702
-0.080764852 0.040413518 0.027723959 7171437
-0.080092646 0.039092589 0.02788312 5723991
-0.079420574 0.037772492 0.028040124 3618615
-0.078742743 0.036470968 0.028086528 6381921
-0.078063503 0.035173923 0.028106103 8158332
-0.07738319 0.0338801 0.028105978 8553090
-0.07670287 0.032586269 0.028105853 8618883
-0.076022565 0.031292435 0.028105723 8618883
-0.075342238 0.029998597 0.028105598 10262423
-0.074661925 0.02870474 0.028105592 12422284
-0.07398162 0.027410809 0.028106008 12225162
-0.073301323 0.0261169 0.028106239 12094861
-0.07262101 0.024823001 0.028106412 12225676
-0.071940698 0.023529101 0.028106526 11570316
-0.071254805 0.022248209 0.028018318 10130580
-0.070534021 0.021046566 0.027384657 8882055
-0.069651663 0.020202138 0.024262071 8750469
-0.068968318 0.018902473 0.024262192 9539728
-0.068284966 0.017602796 0.024262372 9671057
-0.067601606 0.016303131 0.024262495 9605264
-0.066918224 0.015003524 0.024262074 10589846
-0.066234753 0.013704056 0.02426064 9605264
-0.065551281 0.012404575 0.024259204 9079434
-0.064867809 0.011105089 0.024257768 11704986
-0.06418433 0.0098055946 0.024256332 11900566
-0.063500792 0.0085061993 0.024254056 11965074
-0.062817231 0.0072068069 0.024251662 12160654
-0.062119257 0.0059325802 0.024052326 12160911
-0.061417028 0.0046644793 0.023799758 10328730
-0.060705744 0.0034100695 0.023431446 8355711
-0.059982471 0.0021732023 0.022912001 8289918
-0.059227429 0.00098419469 0.021987 4868682
-0.058390975 -8.2725717e-05 0.020024722 7960696
-0.057701856 -0.0013851408 0.019994138 10262680
-0.057011776 -0.0026862819 0.019951811 9539728
-0.056320399 -0.0039857682 0.019894099 8684676
-0.055567741 -0.0051982044 0.019073838 8487297
-0.052026566 -0.0025294095 -0.016146503 8421504
-0.052125629 -0.0049983277 -0.0061937668 9933972
-0.052222542 -0.0074138185 0.0035436144 12293011
-0.052317388 -0.0097776074 0.013072522 10983833
-0.052410226 -0.01209134 0.022399668 8421504
-0.052501116 -0.014356589 0.031531401 9408142
-0.052590109 -0.016574845 0.040473651 11048855
-0.052677285 -0.018747577 0.049232401 9736850
-0.052168645 -0.020189406 0.051009446 10651013
-0.05150697 -0.021450035 0.051017717 8351856
-0.050845306 -0.022710646 0.051026054 6117464
-0.050183643 -0.023971224 0.051034331 6974307
-0.049521998 -0.025231792 0.051042601 9678743
-0.048860382 -0.026492354 0.051050995 9022094
-0.048198763 -0.027752884 0.051059391 8890250
-0.047537152 -0.029013397 0.051067788 6919797
-0.0454228 -0.028892843 0.035555188 5539680
