# .PCD v0.7 - Point Cloud Data file format
VERSION 0.7
FIELDS x y z rgb
SIZE 4 4 4 4
TYPE F F F U
COUNT 1 1 1 1
WIDTH 1035
HEIGHT 1
VIEWPOINT 0 0 0 1 0 0 0
POINTS 1035
DATA ascii
-0.027063662 0.027330507 -0.06811107 6993746
-0.025492979 0.027401375 -0.068245165 6797135
-0.023922265 0.027472202 -0.068379298 7191125
-0.022351518 0.027543074 -0.068513393 8438887
-0.020780738 0.027613902 -0.068647534 9819002
-0.019209929 0.027684778 -0.068781637 8307814
-0.017639088 0.027755613 -0.068915784 9293686
-0.016068215 0.027826488 -0.069049895 8768878
-0.014497309 0.027897326 -0.069184043 8638313
-0.012926372 0.027968207 -0.069318153 10210937
-0.05198317 0.026198843 -0.063787781 6978129
-0.050415602 0.026269589 -0.063921563 6002759
-0.048847999 0.026340337 -0.064055353 5347899
-0.047280367 0.026411084 -0.064189143 5481020
-0.045712706 0.026481792 -0.064322978 5810243
-0.044145014 0.026552502 -0.06445682 6139719
-0.042577289 0.026623214 -0.064590655 6337354
-0.041009534 0.026693925 -0.064724497 5877570
-0.039441746 0.026764641 -0.064858347 6534731
-0.037873928 0.026835356 -0.064992197 7454809
-0.036306076 0.026906073 -0.065126047 9095540
-0.03473819 0.026976792 -0.065259896 10078334
-0.033170279 0.02704747 -0.065393798 10078331
-0.031602331 0.027118234 -0.06552761 9684342
-0.030034354 0.027188957 -0.065661475 9487476
-0.028466344 0.027259683 -0.065795332 9159024
-0.026898304 0.027330365 -0.065929241 8567912
-0.025330231 0.027401136 -0.066063069 6796624
-0.023762127 0.027471866 -0.066196941 6731857
-0.022193993 0.027542554 -0.066330858 8568680
-0.020625826 0.027613288 -0.06646473 10144380
-0.019057626 0.027684065 -0.066598572 8961643
-0.017489396 0.027754758 -0.066732489 10210431
-0.015921133 0.027825495 -0.066866376 8963181
-0.014352839 0.027896235 -0.067000262 9292399
-0.012784514 0.027966974 -0.067134149 9748084
-0.051776744 0.026200604 -0.06161708 6062666
-0.050211772 0.026271254 -0.061750602 5149497
-0.048646774 0.026341816 -0.06188421 4428590
-0.047081742 0.026412513 -0.062017698 4364077
-0.045516685 0.026483038 -0.06215135 4430639
-0.04395159 0.026553649 -0.062284924 4694322
-0.042386465 0.026624266 -0.062418502 4760626
-0.04082131 0.026694838 -0.062552117 4760881
-0.039256122 0.026765455 -0.062685698 4892724
-0.037690904 0.02683603 -0.062819324 5090102
-0.036125656 0.026906651 -0.062952913 7714910
-0.034560375 0.02697723 -0.063086547 8304996
-0.03299506 0.027047852 -0.063220136 8370789
-0.031429715 0.027118478 -0.063353732 8502375
-0.029864341 0.027189063 -0.063487366 8633962
-0.028298935 0.027259646 -0.063621007 8634219
-0.026733495 0.027330276 -0.063754611 8371303
-0.025168024 0.027400907 -0.063888215 6402891
-0.023602523 0.027471498 -0.064021863 6928724
-0.02203699 0.027542088 -0.064155512 9619319
-0.020471424 0.027612723 -0.064289123 10342019
-0.018905828 0.027683362 -0.064422742 9027953
-0.0173402 0.027753958 -0.064556397 9882236
-0.015774542 0.027824556 -0.064690061 8635242
-0.01420885 0.027895199 -0.064823687 9226607
-0.012643128 0.027965842 -0.064957306 10272377
-0.051571 0.026202302 -0.059453629 6063689
-0.050008621 0.026272856 -0.05958689 4558385
-0.048446216 0.026343325 -0.059720233 4100139
-0.046883773 0.02641388 -0.059853498 4232747
-0.045321304 0.026484352 -0.059986848 4234027
-0.043758806 0.026554825 -0.060120199 4300588
-0.042196274 0.0266253 -0.060253557 4366636
-0.040633712 0.026695777 -0.060386911 5680193
-0.039071117 0.026766254 -0.060520273 5745987
-0.037508491 0.026836734 -0.060653634 5811779
-0.035945833 0.026907215 -0.060787 7450715
-0.034383148 0.026977697 -0.060920365 6205003
-0.032820426 0.027048182 -0.061053738 6271051
-0.031257674 0.027118668 -0.061187107 6402635
-0.029694892 0.027189199 -0.061320443 6533965
-0.028132077 0.027259687 -0.061453819 6468429
-0.026569232 0.027330134 -0.061587241 6271562
-0.025006356 0.027400626 -0.061720625 5484093
-0.023443447 0.027471118 -0.061854009 6206537
-0.021880507 0.027541613 -0.061987396 8045413
-0.020317538 0.027612111 -0.062120788 8767601
-0.018754534 0.027682608 -0.062254179 8504685
-0.017191499 0.027753152 -0.062387533 10279047
-0.015628435 0.027823651 -0.062520929 7980899
-0.014065338 0.027894111 -0.062654376 7915104
-0.01250221 0.027964616 -0.062787779 8826987
-0.084912226 0.059661958 -0.020982277 9140344
-0.08341112 0.059947785 -0.020901715 8945792
-0.081911027 0.060233392 -0.020821238 9013127
-0.080419421 0.060446482 -0.020809036 10194317
-0.078929745 0.060646851 -0.020808754 9473164
-0.077438176 0.060872264 -0.020784758 8881798
-0.075941637 0.061156616 -0.020705022 8618626
-0.07444609 0.061440747 -0.02062537 7631988
-0.072974622 0.061473485 -0.0207831 7763574
-0.071518935 0.061327945 -0.021109343 8683905
-0.051365938 0.02620405 -0.057297286 5670981
-0.049806144 0.026274422 -0.057430368 4099116
-0.04824632 0.026344838 -0.057563409 4100394
-0.046686463 0.026415255 -0.057696451 4167466
-0.045126576 0.026485631 -0.05782954 4169002
-0.043566659 0.026555965 -0.057962671 4300840
-0.042006709 0.026626388 -0.05809572 4629550
-0.040446732 0.026696725 -0.058228858 7516760
-0.038886722 0.026767066 -0.058361996 7450968
-0.037326682 0.02683745 -0.058495097 7318872
-0.035766609 0.026907833 -0.058628198 6926163
-0.034206502 0.026978178 -0.058761343 4433454
-0.032646369 0.027048523 -0.058894493 4433709
-0.031086203 0.027118869 -0.059027646 4499246
-0.029526005 0.02718926 -0.059160758 4630575
-0.027965775 0.027259611 -0.059293915 4565039
-0.026405513 0.027330048 -0.059426989 4499502
-0.024845222 0.0274004 -0.05956015 4565039
-0.023284899 0.027470754 -0.059693314 5090360
-0.021724544 0.027541155 -0.059826441 6206794
-0.020164158 0.027611513 -0.059959609 6666578
-0.01860374 0.027681958 -0.060092699 6797907
-0.017043293 0.027752277 -0.060225915 7915618
-0.015482813 0.027822681 -0.06035905 6076998
-0.013922301 0.027893046 -0.060492229 6404680
-0.012358604 0.027061619 -0.061488453 8038238
-0.08458817 0.060319431 -0.018337596 8289918
-0.083098851 0.060533158 -0.018324949 8421504
-0.081610188 0.060746811 -0.018312287 9802643
-0.080122188 0.060960386 -0.018299611 10985118
-0.078634843 0.06117389 -0.018286925 9802643
-0.077148154 0.061387312 -0.018274227 10065558
-0.075662129 0.061600618 -0.018261556 9933972
-0.074176759 0.06181385 -0.018248873 8487297
-0.072691925 0.062028304 -0.018234953 9671057
-0.071207814 0.06224199 -0.018221674 11311770
-0.069724366 0.062455557 -0.018208425 11574685
-0.068241581 0.062669054 -0.018195163 9671057
-0.066759691 0.062879473 -0.018184707 8224125
-0.065281138 0.063056193 -0.018205956 9276299
-0.06380526 0.063204683 -0.018253775 8420219
-0.062330376 0.06334462 -0.018309621 9471365
-0.060914401 0.062681876 -0.01912312 10586505
-0.051161554 0.026205786 -0.055148073 6394192
-0.049604334 0.026276018 -0.055280935 5937736
-0.048047084 0.026346339 -0.055413716 5939784
-0.046489801 0.02641662 -0.055546537 5940806
-0.044932488 0.0264869 -0.055679362 4957238
-0.043375149 0.02655714 -0.055812232 4169767
-0.041817773 0.026627423 -0.055945065 4957749
-0.040260375 0.026697623 -0.05607798 7318870
-0.038702935 0.02676791 -0.056210816 7054423
-0.037145469 0.026838155 -0.056343697 6921815
-0.035587974 0.026908359 -0.056476619 7057493
-0.034030445 0.026978606 -0.056609504 6271562
-0.032472886 0.027048856 -0.056742389 6271306
-0.030915296 0.027119152 -0.05687524 6337098
-0.029357674 0.027189363 -0.057008173 6337356
-0.02780002 0.027259616 -0.057141066 6337099
-0.026242336 0.027329873 -0.057273965 6336842
-0.024684619 0.027400173 -0.057406824 6402635
-0.023126874 0.027470434 -0.057539728 6862419
-0.021569096 0.02754065 -0.057672672 8044903
-0.020011285 0.027610956 -0.057805538 8373355
-0.018453445 0.027681176 -0.05793849 8964469
-0.016895574 0.027751442 -0.058071401 8572272
-0.01533767 0.027821751 -0.058204275 5880133
-0.013779738 0.027892021 -0.058337193 6404167
-0.012207175 0.02402404 -0.062226415 7840349
-0.084333435 0.06035668 -0.0162843 10394266
-0.082846701 0.060570084 -0.016272085 10394266
-0.081360623 0.060783364 -0.016259898 10722460
-0.079875201 0.060996614 -0.016247658 10328730
-0.078390442 0.061209701 -0.016235488 9539985
-0.076906331 0.061422758 -0.016223263 10459802
-0.075422898 0.06163552 -0.01621123 9934229
-0.073940046 0.061849032 -0.016198413 8684676
-0.072457843 0.062062468 -0.016185582 11050140
-0.070976302 0.062275786 -0.016172782 11181983
-0.069495417 0.06248907 -0.016159926 10394523
-0.068015225 0.062701844 -0.016147466 9079434
-0.066535689 0.062914543 -0.016134994 8947848
-0.065056808 0.063127086 -0.016122593 11508892
-0.063578591 0.063339368 -0.016110342 12554384
-0.06210104 0.063551493 -0.01609816 12618892
-0.060624138 0.063763544 -0.016085967 12487563
-0.059152395 0.063911438 -0.01613407 12092805
-0.057681847 0.064046904 -0.016193824 11176072
-0.056263648 0.063390315 -0.016999384 9736079
-0.052512467 0.026137311 -0.052873418 7898481
-0.050957844 0.026207492 -0.053005975 7706974
-0.049403187 0.026277674 -0.053138532 7709278
-0.047848504 0.026347857 -0.053271092 7645275
-0.046293791 0.026417999 -0.053403698 7449687
-0.044739045 0.026488142 -0.053536303 6204487
-0.043184269 0.026558286 -0.053668913 4891956
-0.041629463 0.026628433 -0.053801525 5285440
-0.040074628 0.026698537 -0.053934179 5938765
-0.038519759 0.026768686 -0.054066796 5935953
-0.03696486 0.026838792 -0.054199453 6790487
-0.035409931 0.026908945 -0.054332078 7582042
-0.033854969 0.026979055 -0.054464739 7845213
-0.032299977 0.02704921 -0.054597367 7648347
-0.030744953 0.027119324 -0.054730035 7779420
-0.0291899 0.027189482 -0.054862667 7714396
-0.027634813 0.027259642 -0.054995302 7779933
-0.026079696 0.027329762 -0.055127982 7845214
-0.024524549 0.027399924 -0.055260621 7976543
-0.022969369 0.027470045 -0.055393305 8501093
-0.021414161 0.027540168 -0.055525988 9355122
-0.019858919 0.027610378 -0.055658594 9158256
-0.018303646 0.027680505 -0.055791285 10405763
-0.016748343 0.027750675 -0.055923935 8505711
-0.015193009 0.027820803 -0.05605663 6404942
-0.013637643 0.027890934 -0.056189328 7060051
-0.012054869 0.02096832 -0.0629692 8691827
-0.084079586 0.060393572 -0.014238198 12816785
-0.082595415 0.060606774 -0.014226294 12751506
-0.081111901 0.060819816 -0.014214459 11902108
-0.079629056 0.061032649 -0.014202734 9802900
-0.078146875 0.061245322 -0.014191077 8750469
-0.076665275 0.061458658 -0.014178718 9408142
-0.075184338 0.06167179 -0.014166469 9079434
-0.073704086 0.061884541 -0.014154492 8684676
-0.07222449 0.062097214 -0.014142502 11770265
-0.070745558 0.062309772 -0.014130542 9737107
-0.069267265 0.062522247 -0.014118569 9145227
-0.067789629 0.062734656 -0.014106586 8684676
-0.066312648 0.062946938 -0.01409463 10853532
-0.064836331 0.063159019 -0.014082785 12357519
-0.063360676 0.063370854 -0.014071091 11769494
-0.061885662 0.063582651 -0.014059344 12685970
-0.060411301 0.063794374 -0.014047585 12033437
-0.058937594 0.064005934 -0.014035896 11771550
-0.057464536 0.064217463 -0.014024157 12097688
-0.055992126 0.064428873 -0.014012445 11179927
-0.054528419 0.064512566 -0.014120546 9407114
-0.05306714 0.06455712 -0.014265397 9013127
-0.052306868 0.026139149 -0.050738592 9277310
-0.050754804 0.026209192 -0.050870929 9738088
-0.049202707 0.02627928 -0.051003225 9215845
-0.047650583 0.026349284 -0.051135607 8627295
-0.046098422 0.026419373 -0.051267911 9348192
-0.044546235 0.026489424 -0.051400259 8368480
-0.042994019 0.026559431 -0.051532649 6729043
-0.041441772 0.026629439 -0.051665038 4823104
-0.039889496 0.026699448 -0.051797435 3574320
-0.038337182 0.026769504 -0.051929791 5676619
-0.036784843 0.026839472 -0.052062232 6791257
-0.035232473 0.026909489 -0.052194636 7840354
-0.03368007 0.026979504 -0.052327041 8826467
-0.032127637 0.027049566 -0.052459408 7843929
-0.030575173 0.027119542 -0.052591857 8565087
-0.029022677 0.027189607 -0.052724231 7909978
-0.027470149 0.027259627 -0.052856643 8630881
-0.025917592 0.027329652 -0.052989062 8892516
-0.024365004 0.027399678 -0.053121481 9023845
-0.022812385 0.027469704 -0.053253904 10465393
-0.021259734 0.027539734 -0.053386331 11647363
-0.019707052 0.027609764 -0.053518757 10205044
-0.01815434 0.027679795 -0.053651188 11840888
-0.016601598 0.027749827 -0.053783622 9160311
-0.015048822 0.027819907 -0.053916015 7979110
-0.013496018 0.027889941 -0.054048453 8699755
-0.011901668 0.017892322 -0.063718721 10331790
-0.083826609 0.060430292 -0.012199067 12095889
-0.082344994 0.060643211 -0.012187555 12096403
-0.080864042 0.060855925 -0.012176152 11443099
-0.079383753 0.061068561 -0.012164737 9408142
-0.07790409 0.061281253 -0.012153189 8553090
-0.07642509 0.061493825 -0.01214167 8947848
-0.074946746 0.061706323 -0.012130138 8684676
-0.07346905 0.061918702 -0.012118635 8750469
-0.07199201 0.062130962 -0.012107161 12487820
-0.070515625 0.062343188 -0.012095634 9408142
-0.069039881 0.062555343 -0.012084096 8618883
-0.067564793 0.062767372 -0.012072586 9013641
-0.066090368 0.062979154 -0.012061226 11574685
-0.064616598 0.063190773 -0.012049937 12031638
-0.063143484 0.06340228 -0.012038676 11704986
-0.061671011 0.063613705 -0.012027404 12164252
-0.060199186 0.063825056 -0.012016119 10919582
-0.058728017 0.064036243 -0.012004907 10919582
-0.057257488 0.0642474 -0.01199364 12162710
-0.055787608 0.064458482 -0.011982362 12488848
-0.054318368 0.064669535 -0.011971031 11180955
-0.052849792 0.0648802 -0.011959977 9934229
-0.051381908 0.065089926 -0.011949723 11901337
-0.049918886 0.065224014 -0.01201022 11239809
-0.048458215 0.065319553 -0.012106796 9276780
-0.047048237 0.064427882 -0.013128442 8555623
-0.047453307 0.026350774 -0.049007077 8035168
-0.045903701 0.026420729 -0.049139164 10068836
-0.044354063 0.026490685 -0.049271252 9678439
-0.042804394 0.026560597 -0.049403381 8695143
-0.041254696 0.026630469 -0.049535558 4693051
-0.039704967 0.026700385 -0.049667694 3313446
-0.038155209 0.02677026 -0.049799871 6722136
-0.035152491 0.071204148 -0.0082549062 8295525
-0.033692267 0.071702629 -0.0079711983 7636585
-0.033505745 0.026979979 -0.050196342 6255954
-0.031955861 0.027049905 -0.050328493 7648090
-0.03040595 0.027119786 -0.050460681 7189588
-0.028856004 0.027189713 -0.050592836 6992721
-0.027306028 0.027259599 -0.050725035 7845211
-0.025756022 0.027329529 -0.050857194 7123540
-0.024205983 0.02739946 -0.050989352 7320663
-0.022655915 0.02746935 -0.051121555 8567143
-0.021105817 0.027539242 -0.051253766 9552759
-0.019555686 0.027609179 -0.051385932 9289073
-0.018005526 0.027679116 -0.051518101 12493428
-0.016455334 0.027749013 -0.051650319 10731648
-0.014905111 0.027818954 -0.051782493 9811824
-0.013354857 0.027888851 -0.051914714 10402167
-0.011747577 0.014798405 -0.064472623 10989716
-0.085054182 0.060254298 -0.010177835 10787482
-0.083574481 0.060466874 -0.010166847 11180184
-0.082095429 0.060679466 -0.010155768 11311513
-0.080617033 0.060891848 -0.010144797 10787482
-0.079139292 0.061104111 -0.010133856 9013641
-0.0776622 0.061316386 -0.010122821 8618883
-0.076185755 0.061528586 -0.010111773 8618883
-0.074709952 0.061740711 -0.010100716 8618883
-0.073234811 0.061952718 -0.010089686 9013384
-0.071760312 0.062164646 -0.010078644 12487049
-0.070286468 0.062376503 -0.010067591 10262423
-0.068813272 0.062588237 -0.010056566 8684676
-0.067340724 0.062799856 -0.01004557 9276813
-0.06586884 0.063011222 -0.010034725 10853789
-0.064397611 0.063222468 -0.01002391 11378334
-0.062927023 0.063433595 -0.010013122 11837343
-0.061457083 0.063644648 -0.010002322 11050911
-0.059987791 0.063855626 -0.0099915117 9605521
-0.058519136 0.064066529 -0.0099806907 10394009
-0.05705113 0.064277358 -0.0099698585 11770265
-0.055583764 0.06448815 -0.0099589732 11180441
-0.054117046 0.064698786 -0.0099481568 10065301
-0.052650973 0.064909339 -0.0099373301 9737107
-0.051185541 0.06511987 -0.0099264514 11378591
-0.049720813 0.065329142 -0.0099166594 11443613
-0.04825674 0.065538079 -0.0099071013 11311770
-0.046796542 0.065683298 -0.0099569699 10719633
-0.045339461 0.065771393 -0.010060158 9537415
-0.043883886 0.065828569 -0.010192235 6579043
-0.042436711 0.065693349 -0.010504166 5657941
-0.040995758 0.065386191 -0.010977001 7961951
-0.039559398 0.064917982 -0.011600699 4683326
-0.037894435 0.070544235 -0.0065222881 5795925
-0.036424249 0.071309321 -0.0059904996 9473164
-0.034963906 0.071870044 -0.005649644 11114391
-0.03351504 0.072125293 -0.0055945944 10787996
-0.032077711 0.071997017 -0.0058987383 9934229
-0.030651027 0.071415961 -0.0066273236 10196373
-0.029235005 0.070246466 -0.0079079252 6458706
-0.02868988 0.027189787 -0.048468471 6336840
-0.027142446 0.027259579 -0.048600409 6074437
-0.025594981 0.027329417 -0.048732311 4695855
-0.024047486 0.027399167 -0.048864294 5156150
-0.02249996 0.027469007 -0.048996199 5878850
-0.020952405 0.027538763 -0.04912819 7323993
-0.019404817 0.027608605 -0.049260098 8043106
-0.0178572 0.027678408 -0.049392052 11639399
-0.01630955 0.027748168 -0.04952405 11051368
-0.01476187 0.027818015 -0.049655966 10983775
-0.013214161 0.027887819 -0.049787927 11446386
-0.011592585 0.01168647 -0.065230884 11187850
-0.084800355 0.060291141 -0.0081519978 9802643
-0.083323203 0.06050339 -0.0081414422 10131351
-0.081846707 0.06071556 -0.0081308754 10197144
-0.080370858 0.060927611 -0.0081203356 9933972
-0.078895658 0.061139591 -0.0081097856 8684676
-0.077421129 0.061351359 -0.0080993446 8618883
-0.075947218 0.061563231 -0.0080887293 8618883
-0.074473955 0.061775025 -0.008078102 8816262
-0.073001355 0.06198661 -0.0080675855 10131094
-0.071529396 0.062198211 -0.008056975 12161939
-0.070058085 0.062409692 -0.0080463942 10393752
-0.068587422 0.06262105 -0.0080358423 9276813
-0.067117423 0.062832162 -0.0080254404 9079434
-0.065648071 0.06304311 -0.0080151074 9671314
-0.064179361 0.063253984 -0.0080047641 10656924
-0.062711298 0.063464783 -0.0079944087 11641249
-0.061243877 0.0636755 -0.0079840422 10394266
-0.059777096 0.063886195 -0.0079736235 9013641
-0.058310959 0.064096719 -0.0079632746 10065558
-0.056845464 0.064307265 -0.0079528335 10984347
-0.055380616 0.06451764 -0.0079424614 9999765
-0.053916406 0.06472794 -0.007932079 9342349
-0.05245284 0.064938165 -0.0079216845 9473935
-0.050989915 0.065148279 -0.0079113198 10197144
-0.04952763 0.065358311 -0.007900944 10262937
-0.048066016 0.065567702 -0.0078910841 10065558
-0.046608403 0.065710559 -0.0079430658 9539214
-0.045153771 0.065798566 -0.0080460813 6578786
-0.043702226 0.065821134 -0.0082100341 3421236
-0.042255446 0.065729558 -0.0084803505 3092271
-0.04069683 0.068318874 -0.0062523684 4079166
-0.03919819 0.069671966 -0.0051753479 7368816
-0.037718903 0.070659883 -0.004438099 7829367
-0.03625292 0.071384825 -0.0039456212 9670800
-0.034795653 0.071932748 -0.0036179267 11507607
-0.033351 0.072132558 -0.0036148895 11640478
-0.031917561 0.071947567 -0.0039710486 9342349
-0.030493706 0.071336918 -0.0047249254 9342349
-0.029072229 0.070486069 -0.0057036136 9210763
-0.027652267 0.069356062 -0.0069437353 7965298
-0.026979398 0.027259596 -0.046482716 5010495
-0.025434468 0.027329298 -0.046614401 5419065
-0.023889508 0.027398955 -0.046746124 7257432
-0.022344517 0.027468659 -0.046877816 8374378
-0.020799495 0.027538365 -0.047009505 9490812
-0.019254442 0.027608028 -0.047141239 9419632
-0.01770936 0.027677694 -0.047272976 10534527
-0.016164245 0.027747402 -0.047404673 9221999
-0.014619101 0.027817115 -0.047536377 9025129
-0.013073925 0.027886786 -0.047668122 7777885
-0.011436685 0.008556244 -0.065993652 11189108
-0.084547378 0.060327899 -0.0061329589 9145227
-0.083072774 0.060539771 -0.006122876 9276813
-0.081598818 0.060751565 -0.0061127776 9671314
-0.080125518 0.060963243 -0.00610271 9868436
-0.078652851 0.061174892 -0.0060925912 9276813
-0.077180855 0.061386328 -0.0060825795 9211020
-0.075709492 0.061597735 -0.0060725156 9210763
-0.074238762 0.061809152 -0.0060623609 9276556
-0.072768688 0.062020455 -0.0060522351 10656410
-0.071299255 0.062231679 -0.0060420968 11573914
-0.06983047 0.062442783 -0.0060319873 10722203
-0.06836234 0.062653638 -0.0060220282 9473935
-0.066894867 0.062864326 -0.0060121375 8618883
-0.065428033 0.063074902 -0.0060022767 8618883
-0.063961841 0.063285485 -0.0059923241 10131351
-0.06249629 0.063495949 -0.0059823985 11640735
-0.061031375 0.063706383 -0.0059724241 10065558
-0.059567109 0.063916661 -0.0059625185 8816005
-0.058103479 0.064126894 -0.0059525585 9671314
-0.056640491 0.064337015 -0.0059426306 9671314
-0.055178143 0.064547062 -0.0059326906 8816262
-0.05371644 0.064756989 -0.0059227804 8684676
-0.052255373 0.064966843 -0.0059128576 8750469
-0.050794948 0.065176576 -0.0059029651 8947848
-0.049335163 0.065386146 -0.0058931415 9013641
-0.047876015 0.065595642 -0.0058833086 8684676
-0.046420895 0.065737754 -0.0059358967 7763574
-0.044968709 0.065825574 -0.0060388232 5855063
-0.043521155 0.065813728 -0.0062342533 4932933
-0.042036831 0.066639222 -0.0056522735 5722706
-0.040512707 0.068516046 -0.0040933997 7105130
-0.039019756 0.069804303 -0.0030802863 7895160
-0.037544038 0.070774242 -0.0023622948 8026746
-0.03608213 0.071461909 -0.0019061931 9342092
-0.034628268 0.071986437 -0.0016014443 10656153
-0.033187512 0.072139435 -0.0016420349 10262937
-0.03175791 0.071898252 -0.0020493791 8684676
-0.030336861 0.071258135 -0.0028282488 8487297
-0.028918363 0.070361756 -0.0038461408 8421504
-0.027500151 0.069233134 -0.0050809248 8816262
-0.026076484 0.068100236 -0.0063203862 9276556
-0.024652284 0.066650122 -0.0078562107 7509601
-0.023732048 0.027398719 -0.044634912 9355888
-0.022189582 0.027468285 -0.044766381 10275457
-0.020647086 0.027537858 -0.044897858 10340483
-0.019104559 0.027607428 -0.045029335 10009722
-0.017562002 0.027677 -0.045160815 8963702
-0.016019415 0.027746618 -0.045292258 8896368
-0.014476798 0.027816193 -0.045423742 6534734
-0.012934149 0.027885772 -0.04555523 6725965
-0.011279872 0.0054077087 -0.066760823 11255652
-0.084295258 0.060364466 -0.0041207829 8684676
-0.082823187 0.060576007 -0.0041111279 8816262
-0.081351772 0.060787424 -0.0041014999 9868436
-0.079880998 0.060998768 -0.0040918612 10525081
-0.078410871 0.061210036 -0.0040822104 10459288
-0.076941386 0.061421186 -0.0040725912 10393752
-0.075472556 0.061632171 -0.0040630382 10393752
-0.07400436 0.061843172 -0.0040533938 9605264
-0.072536804 0.062054139 -0.0040436974 10196887
-0.071069889 0.062264986 -0.0040340307 10853275
-0.069603629 0.062475625 -0.0040244716 10722203
-0.068138026 0.062686063 -0.0040150238 9079434
-0.066673063 0.062896416 -0.0040055634 8553090
-0.065208733 0.063106701 -0.003996091 8618883
-0.063745044 0.063316956 -0.0039865691 9276813
-0.062282 0.06352704 -0.0039771167 12360089
-0.060819592 0.063737102 -0.0039676125 10918811
-0.059357826 0.063947037 -0.0039581349 9868179
-0.057896696 0.064156905 -0.0039486485 9539728
-0.056436207 0.064366646 -0.0039391913 8947591
-0.054976363 0.064576231 -0.0039298041 8553090
-0.053517152 0.064785779 -0.0039203623 8553090
-0.052058581 0.06499517 -0.0039109951 8553090
-0.050600648 0.065204524 -0.0039015738 8553090
-0.049143348 0.065413713 -0.0038922224 8553090
-0.047686975 0.065617315 -0.003887957 8092539
-0.046234015 0.065764904 -0.0039354065 6842472
-0.044785254 0.065831795 -0.004057426 6249307
-0.043340672 0.065806337 -0.0042648762 5655371
-0.04184461 0.066963002 -0.0033785221 7498089
-0.040330566 0.068681464 -0.0019715012 8616827
-0.038842566 0.069921002 -0.0010069745 9209992
-0.037369829 0.070887774 -0.00029440713 9276042
-0.03591194 0.071538702 0.00012605047 9407885
-0.034461591 0.072035678 0.00040416332 10065301
-0.033025037 0.072130047 0.0003092711 10131094
-0.031598754 0.071849145 -0.00013363146 9473935
-0.030180391 0.071183488 -0.00093367131 9539471
-0.028764939 0.070237771 -0.0019940326 9736336
-0.02734847 0.069110572 -0.0032234485 10326931
-0.025926564 0.067979015 -0.0044576167 10589332
-0.024499189 0.066843145 -0.0056964951 10654868
-0.023066312 0.065702878 -0.0069401702 10456975
-0.022035152 0.027467916 -0.042661849 11045744
-0.020495174 0.027537394 -0.042793069 11907196
-0.018955167 0.027606875 -0.042924292 8240232
-0.017415129 0.027676312 -0.043055557 7716708
-0.015875058 0.027745793 -0.04318678 6927699
-0.014334958 0.027815236 -0.043318052 5418042
-0.012794828 0.02788472 -0.043449279 6396745
-0.011122134 0.0022406352 -0.067532517 11450992
-0.08404398 0.060400952 -0.0021153248 9933972
-0.082574442 0.060612116 -0.0021061408 9999765
-0.081105553 0.060823202 -0.0020969419 10393752
-0.079637296 0.061034165 -0.0020877724 10656410
-0.078169696 0.061245058 -0.0020785928 10656153
-0.076702729 0.061455876 -0.0020694004 10656153
-0.07523641 0.061666571 -0.0020602352 10656410
-0.073770732 0.061877146 -0.0020511022 9276556
-0.072305694 0.062087737 -0.0020418756 9539728
-0.070841298 0.062298164 -0.0020327177 10525338
-0.069377556 0.062508292 -0.0020237495 10065558
-0.067914456 0.062718436 -0.0020146905 9342349
-0.066451989 0.062928461 -0.0020056583 8618883
-0.064990163 0.063138455 -0.0019965775 8618883
-0.063528977 0.063348331 -0.0019875236 9145227
-0.062068429 0.063558042 -0.0019785417 12098202
-0.060608521 0.063767679 -0.0019695479 11311770
-0.059149254 0.063977152 -0.0019606233 10327959
-0.05769062 0.064186588 -0.0019516447 9276556
-0.056232631 0.06439583 -0.0019427801 8618883
-0.054775272 0.064605027 -0.0019338616 8618883
-0.053318553 0.064814113 -0.0019249733 8553090
-0.051862467 0.06502308 -0.0019161152 8553090
-0.050407015 0.065231971 -0.0019072453 8553090
-0.048952203 0.065440744 -0.0018984055 8618883
-0.047498621 0.065637864 -0.0019002184 8092539
-0.046047758 0.065791897 -0.0019416549 6513507
-0.044602569 0.065834463 -0.0020857779 6709087
-0.04316074 0.065799661 -0.0023012422 5524299
-0.041657608 0.067182876 -0.001209044 7958640
-0.040149119 0.068846211 0.00014232557 9142400
-0.038666017 0.070037298 0.0010588325 9932173
-0.037197486 0.070966452 0.0017342012 10195602
-0.035742421 0.071612895 0.0021490287 9408142
-0.034295961 0.07206957 0.0023888983 9868179
-0.032863088 0.072120667 0.002254257 10787225
-0.031440094 0.071800187 0.0017761701 10786968
-0.030024327 0.071111798 0.00095770531 10720918
-0.028611952 0.07011418 -0.00014719336 10720661
-0.027197227 0.068988338 -0.0013713361 10720918
-0.025777075 0.067858219 -0.0026001376 10655639
-0.02435147 0.066723727 -0.0038336848 10458774
-0.022920379 0.065584876 -0.0050719781 10589846
-0.02148377 0.064441614 -0.0063150614 11768723
-0.020044291 0.062976658 -0.007856939 10327677
-0.01880626 0.027606305 -0.040826127 7518301
-0.01726873 0.027675651 -0.040957134 7453021
-0.015731173 0.027744954 -0.041088186 8762986
-0.014193582 0.027814349 -0.04121916 7976030
-0.01264785 0.025228897 -0.043813981 7380055
-0.010963463 -0.00094520964 -0.068308823 10793834
-0.083793551 0.060437303 -0.00011661402 10984347
-0.082326531 0.060648128 -0.0001078573 10919068
-0.080860153 0.060858835 -9.9127254e-05 10525338
-0.079394422 0.061069425 -9.0427086e-05 10459545
-0.077929325 0.061279979 -8.1672486e-05 10459545
-0.076464877 0.061490372 -7.2989322e-05 10525081
-0.075001068 0.061700732 -6.4254658e-05 10525338
-0.073537901 0.061910931 -5.5589106e-05 8882055
-0.072075367 0.062121142 -4.6829889e-05 8618883
-0.070613489 0.062331058 -3.8263039e-05 10590874
-0.069152236 0.062540986 -2.9602825e-05 8882055
-0.067691632 0.062750749 -2.101173e-05 10262680
-0.066231668 0.062960312 -1.2532209e-05 8618883
-0.064772345 0.063169792 -4.0378009e-06 8553090
-0.063313663 0.063379109 4.3845721e-06 9342606
-0.061855607 0.06358844 1.289769e-05 10984604
-0.060398191 0.063797608 2.1343703e-05 10787482
-0.058941416 0.064006664 2.9759683e-05 10196630
-0.057485268 0.064215682 3.8224105e-05 9079434
-0.056029756 0.064424582 4.6663572e-05 8618883
-0.054574877 0.064633362 5.5070243e-05 8618883
-0.053120632 0.064842112 6.3530584e-05 8618883
-0.05166702 0.065050744 7.1957977e-05 8553090
-0.050214034 0.0652593 8.0399506e-05 8553090
-0.048761688 0.06546773 8.8810855e-05 9868179
-0.047310892 0.065658309 8.0903061e-05 9407628
-0.045862269 0.065815955 4.283353e-05 7762803
-0.044420477 0.065837145 -0.0001205299 6380379
-0.042981375 0.065793313 -0.00034365957 3026221
-0.041471347 0.067401856 0.00095183676 7565167
-0.039968353 0.069010355 0.0022481873 8748670
-0.038490109 0.070153132 0.0031171201 9932687
-0.037025843 0.07104212 0.0037531927 10064787
-0.03557387 0.071675688 0.0041546882 9407885
-0.034131698 0.072077453 0.0043431167 10065301
-0.032702271 0.072090141 0.0041734702 10787482
-0.031282675 0.071723022 0.0036539321 10787482
-0.029868735 0.071040355 0.0028433825 10655896
-0.028459406 0.06999097 0.0016943876 10524567
-0.027046416 0.068866454 0.0004754675 9933715
-0.025628017 0.067737736 -0.00074802316 9407885
-0.024204176 0.066604681 -0.0019762083 8882055
-0.022774866 0.065467216 -0.003209172 9736336
-0.021340054 0.064325377 -0.0044468776 9999251
-0.019899704 0.063179173 -0.0056893253 8684676
-0.018453786 0.062028546 -0.0069365567 7500402
-0.017122813 0.02767496 -0.038865577 5666124
-0.015587754 0.027744217 -0.038996335 10790253
-0.014052668 0.027813433 -0.039127138 10854503
-0.012499083 0.022222959 -0.044492699 7441493
-0.010803853 -0.0041498868 -0.069089696 10334060
-0.085009098 0.06026306 0.0018671688 10787225
-0.083543956 0.060473539 0.0018754097 11770008
-0.082079448 0.060684029 0.0018837389 11246748
-0.08061558 0.060894355 0.0018920015 9671057
-0.079152353 0.061104607 0.0019002763 9276813
-0.077689767 0.061314784 0.0019085609 9276813
-0.076227821 0.061524797 0.0019167762 9342349
-0.074766509 0.061734822 0.001925085 9342606
-0.073305838 0.061944682 0.0019333243 8618883
-0.071845815 0.062154338 0.0019414526 8684676
-0.070386432 0.062363874 0.0019495537 9276813
-0.06892769 0.062573247 0.0019575853 9144970
-0.067469582 0.062782541 0.0019656261 10394009
-0.066012107 0.062991761 0.0019736814 9276813
-0.064555265 0.063200913 0.0019817436 8553090
-0.063099064 0.063409895 0.0019897411 9145227
-0.061643492 0.063618802 0.0019977449 9802643
-0.060188554 0.063827634 0.0020057634 10131094
-0.058734246 0.064036392 0.0020137907 10131351
-0.05728057 0.064245075 0.0020218298 9539728
-0.055827528 0.064453639 0.0020298385 9342349
-0.054375123 0.064662084 0.0020378167 9276556
-0.052923344 0.064870454 0.0020458091 8947591
-0.051472194 0.065078743 0.0020538103 8553090
-0.050021674 0.065286964 0.0020618204 8816262
-0.048571784 0.065495066 0.0020698025 10590617
-0.047123648 0.065681316 0.0020578736 10261395
-0.045678679 0.06581378 0.001996791 8484984
-0.044238977 0.065839827 0.0018383309 5591120
-0.042802721 0.065784082 0.0016049463 3355186
-0.041285817 0.067619987 0.0031042225 6052699
-0.039788272 0.069173813 0.0043460624 7762803
-0.03831486 0.070267953 0.0051674196 8749698
-0.036854737 0.071119376 0.0057668271 9144713
-0.035406146 0.071730874 0.006146655 9013127
-0.033967994 0.072084486 0.0062901899 9868179
-0.03254227 0.072049022 0.0060768262 10328216
-0.031125685 0.071647905 0.0055277213 10065301
-0.029713614 0.070969135 0.0047233682 9473678
-0.028307294 0.069868043 0.0035306416 9013384
-0.026896037 0.06874495 0.0023170123 8553090
-0.025479386 0.067617603 0.0010987821 8158332
-0.024057308 0.066485919 -0.0001241336 8092539
-0.022629773 0.065349892 -0.0013517397 8881798
-0.021196749 0.064209484 -0.0025840758 8618883
-0.019758206 0.063064702 -0.0038211471 8092539
-0.018314112 0.061915495 -0.0050629959 8224125
-0.016864432 0.060761824 -0.0063096643 8355711
-0.01540949 0.059287142 -0.0078527713 6850907
-0.013912209 0.027812511 -0.037041917 8827236
-0.012349464 0.019199869 -0.045175295 7440982
-0.010643295 -0.0073736273 -0.069875225 9873262
-0.084757842 0.060299505 0.0038529497 9999508
-0.083295204 0.060509644 0.0038607621 11573400
-0.081833191 0.060719755 0.0038686262 11312284
-0.080371827 0.060929745 0.0038764628 9671057
-0.078911096 0.061139658 0.0038843092 9408142
-0.077451006 0.061349455 0.0038921279 9342606
-0.075991549 0.061559174 0.0038999587 9276813
-0.074532777 0.061768286 0.0039073192 9211020
-0.073074579 0.06197799 0.003915289 9013641
-0.071617022 0.062187571 0.0039232341 8618883
-0.070160128 0.062396638 0.0039307876 8618883
-0.068703875 0.062605627 0.0039383527 9342606
-0.067248233 0.062814675 0.0039460468 10590874
-0.065793239 0.063023604 0.0039537139 9802643
-0.06433887 0.06323237 0.0039613117 8881798
-0.062885135 0.063441105 0.0039689597 8816262
-0.06143203 0.063649803 0.0039766589 8816262
-0.059979562 0.0638583 0.0039842492 9539728
-0.058527719 0.064066723 0.0039918479 10591131
-0.057076517 0.064274982 0.0039993795 10591131
-0.055625938 0.064483203 0.0040069623 10525338
-0.054175992 0.064691313 0.0040145139 10459802
-0.052726671 0.064899392 0.0040221168 9408399
-0.05127798 0.065107301 0.0040296516 8618883
-0.049829915 0.065315187 0.0040372349 9210763
-0.048382483 0.065522902 0.0040447507 10590103
-0.046936944 0.065705739 0.0040296549 10195345
-0.045495704 0.065811135 0.0039439937 8221298
-0.044058397 0.065835491 0.0037844307 5919571
-0.042624976 0.065767273 0.003540342 5723220
-0.041101016 0.067837261 0.0052481424 6250078
-0.039608866 0.06933672 0.0064360937 6316128
-0.03814248 0.070322685 0.0071558105 6118749
-0.036691632 0.070985958 0.0075811888 6776679
-0.035249587 0.071464047 0.0078376429 6447714
-0.033815287 0.071750015 0.0079186717 6645093
-0.032389153 0.071782753 0.0077682068 7039851
-0.030970976 0.071503535 0.0073323124 7303023
-0.029559797 0.070862919 0.0065654581 8026746
-0.028155617 0.069745526 0.0053617032 8224125
-0.026746089 0.068623774 0.0041532745 8158332
-0.025331181 0.067497768 0.0029402513 8158332
-0.02391086 0.066367492 0.0017226338 8092539
-0.022485096 0.06523288 0.00050033239 8224125
-0.02105386 0.064093918 -0.00072664773 8684676
-0.019617118 0.062950574 -0.0019583565 9079177
-0.01817484 0.061802793 -0.0031948311 9342092
-0.016726993 0.060650591 -0.0044360789 9013384
-0.015273542 0.059493955 -0.0056820982 9276556
-0.013814459 0.058332812 -0.0069329753 10328969
-0.01219899 0.01615948 -0.045861792 8752758
-0.010481779 -0.010616542 -0.070665397 8886380
-0.084507413 0.060335845 0.0058321171 8750469
-0.083047271 0.06054569 0.005839543 10721432
-0.081587762 0.060755376 0.0058469018 11771036
-0.080128893 0.060964983 0.0058542727 10722717
-0.078670651 0.061174557 0.0058616945 10656924
-0.077213049 0.06138397 0.0058690473 10591388
-0.075756155 0.061592512 0.0058756913 10525595
-0.074299797 0.061801951 0.0058832271 10459802
-0.072844081 0.062011316 0.0058907717 9671314
-0.071388997 0.062220562 0.0058982866 8684676
-0.069934569 0.062429421 0.0059055351 8618883
-0.06848079 0.062638029 0.0059126355 8947848
-0.067027643 0.062846556 0.0059197447 10656667
-0.065575115 0.063055061 0.0059269047 10985375
-0.064123213 0.063263535 0.0059341155 10262680
-0.062671944 0.063471928 0.0059413379 10065815
-0.061221305 0.063680209 0.0059485296 10065558
-0.059771296 0.063888408 0.0059557352 10985118
-0.058321912 0.064096533 0.0059629469 11902365
-0.056873158 0.064304538 0.005970133 11706014
-0.055425029 0.064512469 0.0059773279 11246748
-0.05397753 0.064720333 0.0059845345 11246491
-0.052530661 0.06492807 0.0059917099 10722203
-0.051084414 0.065135732 0.0059988964 9605521
-0.049638797 0.065343276 0.006006055 9671314
-0.048193809 0.0655507 0.0060131825 9605264
-0.046750866 0.06573002 0.0059948531 9867408
-0.045313321 0.065808475 0.0058849016 7958383
-0.043878533 0.065828189 0.0057215467 6641752
-0.042440277 0.065921299 0.0056249131 6642780
-0.040969104 0.066804871 0.0062474674 7169895
-0.039528549 0.067006923 0.0062502427 6446172
-0.038032245 0.068723023 0.0076314551 6249050
-0.036570564 0.069662832 0.0083066709 5986392
-0.035118513 0.070428923 0.0088241324 7697267
-0.033684455 0.07070709 0.0088973753 7894646
-0.032257587 0.070762955 0.0087681059 8289404
-0.030835051 0.070648573 0.0084835906 7828853
-0.029417651 0.07028003 0.007967147 8026232
-0.028005434 0.06957332 0.0071419026 8092282
-0.02659663 0.068499736 0.0059813689 8026746
-0.025183445 0.067375526 0.0047739428 8618883
-0.023764865 0.066246986 0.0035618914 9144970
-0.022340862 0.065114148 0.0023452076 9539471
-0.020911397 0.063976996 0.0011238914 10131094
-0.019476447 0.062835447 -0.00010214146 10787225
-0.018035974 0.061689507 -0.0013328937 10721432
-0.016589951 0.060539175 -0.0025683681 9605007
-0.015138342 0.059384406 -0.0038086066 10327188
-0.013681116 0.058224808 -0.0050539766 12422284
-0.012218239 0.057060648 -0.0063042352 11833488
-0.010319299 -0.013878864 -0.071460314 9407614
-0.084257834 0.060372066 0.0078046876 9473935
-0.082800172 0.060581528 0.0078116497 11507864
-0.081343152 0.060790874 0.0078185843 12359318
-0.079886757 0.061000187 0.0078255692 11967901
-0.078431062 0.061208759 0.0078319674 11901851
-0.076975994 0.061417256 0.0078383759 11836572
-0.075521477 0.061626431 0.0078454744 11771550
-0.0740676 0.06183549 0.0078525431 11705757
-0.072614349 0.062044512 0.0078596622 10459802
-0.07116174 0.062253375 0.0078667151 9473935
-0.069709763 0.062462118 0.0078737373 8816262
-0.068258449 0.062670343 0.0078803692 8618883
-0.066807762 0.062878534 0.0078870552 10394009
-0.065357707 0.063086607 0.0078937095 11969186
-0.063908271 0.063294604 0.0079003759 11444127
-0.062459469 0.063502572 0.0079070926 11378591
-0.061011277 0.063710555 0.0079138996 11313055
-0.059563722 0.063918374 0.0079206359 11640992
-0.058116794 0.064126119 0.0079273861 12033437
-0.056670483 0.064333826 0.0079341847 11836829
-0.055224806 0.064541422 0.0079409545 11508378
-0.053779755 0.064748853 0.0079476545 12227732
-0.052335322 0.064956293 0.0079544438 11902108
-0.050891519 0.065163575 0.0079611661 10919582
-0.049448341 0.065370783 0.0079678968 9473935
-0.048005782 0.065577909 0.0079746377 8355711
-0.046566654 0.065729521 0.0079311868 9473421
-0.045131527 0.065805845 0.0078195669 7696239
-0.043699205 0.065821826 0.0076532802 7561055
-0.042271186 0.065733783 0.0073926733 7428184
-0.040846381 0.065550774 0.0070458562 6444630
-0.039423175 0.065297604 0.0066352673 7759462
-0.037997484 0.065071858 0.0062493687 6576987
-0.036555678 0.065271989 0.0062498157 9075065
-0.035114489 0.065471068 0.0062493887 7628647
-0.03357793 0.068856455 0.0091427388 8220013
-0.032145005 0.069061212 0.0091485344 8745843
-0.030714387 0.069199756 0.0090942299 9141372
-0.029289935 0.069086663 0.0088112289 10125440
-0.02786953 0.068741105 0.008316732 7630960
-0.026451556 0.068164565 0.0076118927 8552576
-0.025036162 0.067251816 0.0066007655 9933458
-0.02361932 0.066124722 0.0053939871 10655896
-0.02219707 0.064993232 0.0041825036 11311770
-0.020769373 0.063857459 0.0029664361 11769751
-0.019336205 0.062717326 0.0017457033 12225162
-0.01789753 0.061572798 0.00052025757 11376535
-0.016453318 0.060423907 -0.00070985872 9933458
-0.015003537 0.059270576 -0.0019447326 9998994
-0.013548153 0.058112759 -0.003184404 9801872
-0.012087137 0.056950454 -0.0044288752 8684419
-0.010620187 0.055742096 -0.0057160994 9012870
-0.084009074 0.060408153 0.0097706756 10787996
-0.082553893 0.060617276 0.0097772153 12031124
-0.081099346 0.060826279 0.0097837253 12227218
-0.079645552 0.061034009 0.0097891726 12293268
-0.078192301 0.061242461 0.0097953463 12553356
-0.076739624 0.061451416 0.009802049 12554641
-0.07528758 0.061660208 0.0098086828 12555412
-0.07383617 0.061868925 0.009815326 12684428
-0.072385386 0.062077567 0.0098219821 11247519
-0.070935234 0.062286135 0.0098286476 10657181
-0.069485709 0.06249458 0.0098352842 8816262
-0.068036847 0.062702551 0.0098415744 8618883
-0.066588618 0.062910356 0.0098477965 9013641
-0.065141015 0.063118093 0.0098540261 12623004
-0.063694037 0.063325748 0.0098602679 12555926
-0.062247682 0.063533291 0.0098664789 12490390
-0.060801953 0.063740753 0.0098727038 12033180
-0.059356842 0.063948229 0.0098790154 10525595
-0.05791235 0.064155675 0.0098853791 9671314
-0.056468487 0.064362958 0.0098916739 9605521
-0.055025246 0.064570211 0.0098980181 10459802
-0.053582627 0.064777344 0.0099043315 12229274
-0.052140635 0.064984359 0.0099106161 12425368
-0.05069926 0.065191343 0.0099169519 12099487
-0.049258512 0.065398209 0.0099232579 9211020
-0.047818415 0.065604381 0.0099290153 8487297
-0.046383582 0.065718107 0.0098514156 11442585
-0.044950318 0.065803215 0.0097480109 10583935
-0.043520451 0.065815493 0.0095788417 8023919
-0.042095128 0.065717123 0.0093096765 7366246
-0.040673304 0.06551531 0.0089469347 6182743
-0.039253067 0.06524089 0.0085184053 3355186
-0.037831277 0.064966187 0.0080894269 3881530
-0.036415242 0.06447839 0.0074674934 3815480
-0.035000212 0.063880466 0.0067455992 3947323
-0.033574693 0.063531876 0.0062489943 3552822
-0.032132145 0.063731626 0.0062486124 5066061
-0.030609081 0.067135431 0.0091501148 6051671
-0.029175473 0.067314029 0.00913163 10187121
-0.027745623 0.067335367 0.0089706918 10387327
-0.026320335 0.067097813 0.0085750297 9993597
-0.024897033 0.066651091 0.0079895211 10452863
-0.023474714 0.065964967 0.0071865441 11766924
-0.022053685 0.064872704 0.0060146125 12552842
-0.020627754 0.063738286 0.0048037432 12095632
-0.019196363 0.062599584 0.0035882972 12682629
-0.017759481 0.061456431 0.0023681077 11050140
-0.016317077 0.060308952 0.0011432962 9079177
-0.014869118 0.059157025 -8.6263695e-05 7960953
-0.013415572 0.058000688 -0.0013205325 7895160
-0.011956409 0.056839861 -0.0025595922 8026746
-0.010491142 0.055606101 -0.0038657109 9473164
-0.0090155425 0.053877689 -0.0056227003 9076093
-0.083761141 0.060444128 0.011730146 12358804
-0.082308501 0.060652286 0.011735705 11638165
-0.080856539 0.060859792 0.01174076 10262423
-0.079405099 0.061068203 0.011746697 10590874
-0.077954262 0.061276846 0.011752927 11312027
-0.076504044 0.061485462 0.011759203 10328216
-0.075054459 0.061693914 0.011765413 10065558
-0.073605508 0.061902288 0.011771634 12358804
-0.072157182 0.062110547 0.011777824 11967901
-0.070709482 0.062318768 0.011784067 11837600
-0.069262408 0.06252683 0.011790241 8618883
-0.067815974 0.062734686 0.011796305 8618883
-0.066370197 0.062942147 0.011802102 9013641
-0.064925037 0.063149497 0.011807869 10722203
-0.063480504 0.063356817 0.011813688 10721689
-0.062036593 0.06356401 0.011819476 10853018
-0.060593303 0.063771091 0.011825236 10919325
-0.059150632 0.063978136 0.011831045 9737107
-0.057708591 0.064185023 0.011836784 8750469
-0.056267157 0.064392008 0.011842694 8947848
-0.054826345 0.064598918 0.011848615 10065815
-0.053386156 0.064805709 0.011854505 11180955
-0.051946588 0.06501238 0.011860366 11442842
-0.050507959 0.06521339 0.011861213 11377563
-0.049073949 0.065340459 0.011795674 7763574
-0.047640201 0.065467477 0.011730114 7303023
-0.046210527 0.065518014 0.0115958 11243664
-0.044780914 0.065565489 0.011458724 12158084
-0.04335377 0.065556221 0.011270555 10589846
-0.041930478 0.065449513 0.010994617 10260624
-0.040505689 0.065359689 0.010733783 9340036
-0.039083332 0.065188117 0.010399213 6644836
-0.037663743 0.064910404 0.0099688508 6709858
-0.036250941 0.064387515 0.0093172714 5526098
-0.034837812 0.063790351 0.0085983798 1907997
-0.033422779 0.063155241 0.0078448709 4144702
-0.032008596 0.062371694 0.0069570248 6709858
-0.030585561 0.061786529 0.0062477496 6840930
-0.029068401 0.065200768 0.0091491314 7825512
-0.027632484 0.065395579 0.0091447104 9400689
-0.02619786 0.065550372 0.0091042062 10319992
-0.024767846 0.06544055 0.0088245943 10453377
-0.02334022 0.065096602 0.0083332285 8353141
-0.021913376 0.064519145 0.0076304553 8683391
-0.020486537 0.06361942 0.006635787 9801615
-0.01905692 0.062482115 0.0054255743 12359575
-0.017621826 0.061340436 0.0042107091 9999508
-0.016181227 0.06019434 0.0029911494 8224125
-0.014735085 0.059043869 0.0017669322 7960953
-0.013283373 0.057888985 0.00053801521 7895160
-0.011826056 0.056729645 -0.00069564651 8355711
-0.010362459 0.055470403 -0.002020584 9275785
-0.0088883089 0.053714968 -0.0037962899 7302252
-0.084964909 0.060271505 0.013677464 11508121
-0.083514154 0.060478866 0.013682115 12226961
-0.08206404 0.060686011 0.01368666 10459288
-0.080614395 0.060894508 0.013692483 9013641
-0.079165384 0.061102889 0.013698277 9671314
-0.077717006 0.061311148 0.013704043 10065301
-0.076269247 0.061519332 0.013709816 8750469
-0.074822113 0.061727442 0.013715604 8618883
-0.073375605 0.061935477 0.0137214 11770779
-0.07192973 0.062143389 0.013727169 11901851
-0.070484474 0.062351272 0.013732987 11312798
-0.069039844 0.062558994 0.013738737 8618883
-0.06759584 0.062766679 0.01374454 8553090
-0.066152498 0.06297376 0.013749874 8618883
-0.064709775 0.063180812 0.013755256 8618883
-0.063267678 0.063387737 0.013760613 8684676
-0.061826199 0.063594595 0.013765978 8750469
-0.060385343 0.063801326 0.013771314 10065815
-0.058945101 0.064008035 0.0137767 9342606
-0.057505485 0.064214572 0.013782018 8750469
-0.056066483 0.06442108 0.013787386 9474192
-0.054630004 0.064597465 0.013765874 9737107
-0.053196568 0.064731777 0.013706772 7829110
-0.051769361 0.064764924 0.013557129 7368559
-0.050348677 0.064679645 0.013301411 6710886
-0.048927289 0.064594358 0.013045592 6974058
-0.047498554 0.064636841 0.012904188 7631988
-0.046068702 0.06469927 0.012780651 8421504
-0.044639919 0.064738393 0.0126362 12027783
-0.043211889 0.06475766 0.012473928 12158341
-0.041784707 0.064751759 0.012289047 11499126
-0.040356524 0.064761952 0.012118562 10516086
-0.03893305 0.064642377 0.011831537 9274500
-0.037512235 0.064425409 0.011456921 9602694
-0.036094584 0.064076528 0.010963637 8551805
-0.034677804 0.063640036 0.010391378 6644836
-0.033262249 0.063083395 0.0097108176 8746100
-0.031850751 0.06227196 0.0088007692 8283493
-0.030439952 0.061271224 0.007719934 8477017
-0.028961437 0.063058719 0.009147441 8220013
-0.027522912 0.063257717 0.0091460887 7104102
-0.026084967 0.063456774 0.0091448603 6315614
-0.024647687 0.063650608 0.009139007 7301995
-0.023213184 0.063679732 0.0089848097 5723991
-0.021781405 0.063448451 0.0085959043 4934475
-0.020350188 0.063001111 0.008012034 6513250
-0.018918069 0.062335871 0.0072313589 8683905
-0.017484566 0.061224714 0.0060479934 7960953
-0.016045764 0.060080096 0.0048337537 7895160
-0.014601437 0.058931053 0.0036148285 8158332
-0.013151553 0.057777546 0.0023911677 8092539
-0.011696081 0.056619659 0.0011628562 8158332
-0.01023414 0.055335704 -0.00018006883 7500402
-0.0087614097 0.05355135 -0.0019760523 7631217
-0.0072493013 0.049080748 -0.0062017953 10385271
-0.084716357 0.060305815 0.015622816 12620177
-0.083267942 0.060513943 0.015628036 10918297
-0.081820145 0.060721952 0.015633229 9079434
-0.080372974 0.060929883 0.015638433 8618883
-0.078926444 0.061137609 0.015643526 8816262
-0.077480525 0.061345391 0.015648749 8816262
-0.076035216 0.061553188 0.015654065 8618883
-0.074590534 0.061760951 0.015659429 8750469
-0.07314647 0.061968554 0.015664725 9473935
-0.071703032 0.062176168 0.015670111 9539728
-0.070260212 0.062383663 0.015675468 9276556
-0.068818018 0.062591083 0.015680835 8618883
-0.067376442 0.062798388 0.015686173 8553090
-0.065935522 0.063005298 0.015691245 8553090
-0.064495221 0.063212052 0.015696246 8553090
-0.063055553 0.06341859 0.015701139 8618883
-0.061616503 0.06362506 0.015706044 9605264
-0.060178064 0.063831493 0.015710996 11574428
-0.058742326 0.064008012 0.015689377 10065301
-0.057310611 0.06413196 0.015620966 8487297
-0.055879276 0.064253747 0.015550669 9933972
-0.054465156 0.064105757 0.015239833 9472907
-0.053048853 0.063977532 0.01494651 7763574
-0.051630653 0.063866399 0.014668323 7171437
-0.050212421 0.063741244 0.014377519 6842472
-0.048799481 0.063501619 0.013984403 6579300
-0.047380615 0.063349508 0.013669268 6250335
-0.045956939 0.063274428 0.013422821 5921370
-0.044528905 0.063277811 0.013246419 6776422
-0.043096788 0.063365333 0.013145193 7105387
-0.041664805 0.063451521 0.01304278 8025718
-0.040234253 0.063503988 0.012910213 10782085
-0.038805753 0.063500427 0.012727506 9143171
-0.037378121 0.063463353 0.012514759 9602951
-0.035953611 0.063318938 0.012205834 9537929
-0.034529913 0.063117482 0.011845703 9666945
-0.033113699 0.062616408 0.011216973 12089464
-0.031695902 0.062077943 0.010554413 10713722
-0.030284913 0.061150137 0.0095424578 8743016
-0.028854061 0.060910292 0.0091468869 9793905
-0.027413012 0.061109088 0.0091446424 5131854
-0.02597253 0.061308701 0.0091431988 5328976
-0.024532627 0.061508328 0.0091418456 6972773
-0.023093309 0.061707973 0.0091405781 6118235
-0.02165488 0.061879609 0.0091142282 6381664
-0.02021933 0.0617732 0.0088381059 5789784
-0.018784497 0.061430346 0.0083493758 5329233
