# .PCD v0.7 - Point Cloud Data file format
VERSION 0.7
FIELDS x y z rgb
SIZE 4 4 4 4
TYPE F F F U
COUNT 1 1 1 1
WIDTH 1016
HEIGHT 1
VIEWPOINT 0 0 0 1 0 0 0
POINTS 1016
DATA ascii
-0.016051395 -0.027343843 -0.034185454 10202992
-0.014573606 -0.027278107 -0.034039095 11516550
-0.013095505 -0.027212434 -0.033892725 9544552
-0.011617092 -0.027146706 -0.033746317 9873524
-0.010384222 0.043996297 -0.0091369329 9144690
-0.0087793842 0.04360861 -0.0091361282 5921113
-0.0071758232 0.043221284 -0.0091353003 5000011
-0.0055735353 0.042834263 -0.009134477 6117978
-0.003972522 0.042447548 -0.0091336463 7037281
-0.0023727792 0.042061087 -0.00913285 7038052
-0.00081844005 0.035456441 -0.011277775 5921113
0.00076741958 0.035025265 -0.011293534 5920599
0.0023518521 0.034594398 -0.01130931 6840930
0.0039348598 0.034163956 -0.011325057 5789013
0.0055173347 0.033796843 -0.011319038 6709601
0.0071130097 0.034335982 -0.010999741 5328976
-0.084361985 0.012831929 -0.027683504 10315109
-0.082863867 0.013366135 -0.027375102 10450036
-0.081365526 0.013921091 -0.027059555 7893875
-0.079869166 0.014524722 -0.026727511 6052956
-0.078379586 0.015239839 -0.026357831 6381921
-0.076891229 0.016003331 -0.025971688 8421247
-0.075405024 0.016830571 -0.025563873 9799816
-0.073923558 0.017760497 -0.025121279 8353398
-0.072438888 0.01869238 -0.024677746 4737096
-0.070949331 0.019602789 -0.024241149 3552822
-0.069365457 0.019213393 -0.024242021 3881787
-0.067783348 0.01883113 -0.024240579 5131597
-0.066202007 0.018441603 -0.024241712 9007730
-0.064621918 0.01805146 -0.024243148 9988200
-0.063085102 0.01832765 -0.024019899 8940138
-0.061759584 0.022069704 -0.022626849 7630446
-0.06044111 0.026152272 -0.021117723 8092539
-0.058927312 0.027102569 -0.020665435 10458260
-0.057409536 0.028043004 -0.020216212 12482423
-0.055880368 0.028835792 -0.0198166 11238781
-0.054342292 0.029513564 -0.01945566 7367788
-0.049806599 -0.028837787 -0.039068621 11844729
-0.048337188 -0.028772535 -0.038923282 8042836
-0.04686746 -0.028707281 -0.038777933 6073396
-0.045397427 -0.02864198 -0.038632531 7846740
-0.043927085 -0.028576735 -0.038487133 8174680
-0.042456433 -0.028511444 -0.038341679 8304989
-0.040985473 -0.028446097 -0.038196187 8435296
-0.039514203 -0.028380815 -0.038050685 8633446
-0.038042624 -0.028315419 -0.037905131 9420914
-0.036570739 -0.028250089 -0.037759565 11646591
-0.035098538 -0.028184703 -0.037613958 11841145
-0.033626031 -0.028119329 -0.037468314 11251573
-0.032153215 -0.028053893 -0.037322644 6335040
-0.030680088 -0.027988469 -0.037176937 8306778
-0.02920665 -0.027923044 -0.037031218 11577451
-0.027732903 -0.02785763 -0.036885463 9422447
-0.026258845 -0.027792154 -0.036739677 7848535
-0.024784477 -0.027726751 -0.036593873 7979608
-0.023309801 -0.027661232 -0.036448009 7847766
-0.021834813 -0.02759566 -0.036302108 7650644
-0.020359516 -0.027530041 -0.036156151 7781972
-0.018883906 -0.027464477 -0.036010198 7715411
-0.017407987 -0.027398868 -0.035864197 6794563
-0.015931755 -0.027333196 -0.035718162 5939258
-0.014455213 -0.027267598 -0.035572108 8171104
-0.01297836 -0.027201943 -0.035426013 5672760
-0.011501196 -0.027136292 -0.035279896 9349744
-0.01027608 0.048882741 -0.0091314642 8750961
-0.0086656362 0.049482182 -0.0087912949 9861754
-0.084489815 0.016398964 -0.028094122 5460562
-0.082907587 0.01600951 -0.028094484 4736839
-0.081356868 0.015980581 -0.027974607 3947580
-0.079815939 0.01607063 -0.027814999 3092271
-0.078299336 0.01646846 -0.027552538 3815994
-0.076791182 0.016992489 -0.027247792 5197647
-0.075288214 0.017609069 -0.026911922 5921370
-0.073782809 0.018223034 -0.02657675 6250335
-0.072286911 0.018997133 -0.026187802 6513507
-0.070788503 0.019775208 -0.02579728 6645093
-0.069295138 0.020665765 -0.025368856 6118749
-0.067801759 0.021603161 -0.02492447 4671303
-0.066303641 0.02252005 -0.024486676 4934475
-0.064800963 0.023417231 -0.024055209 6250078
-0.06329792 0.024360219 -0.023608109 6974058
-0.061791636 0.025305513 -0.023159955 7960953
-0.06028207 0.026252814 -0.022710828 8355711
-0.058769215 0.027202191 -0.022260722 10392467
-0.057253066 0.028153641 -0.021809638 12484479
-0.055733666 0.029108256 -0.021357203 11505808
-0.054210942 0.030065063 -0.020903755 8552833
-0.049658678 -0.028825941 -0.040592179 10208881
-0.048190493 -0.028760759 -0.040447142 7321676
-0.046722006 -0.028695531 -0.040302053 6598976
-0.045253206 -0.028630299 -0.040156949 7912794
-0.043784101 -0.028565083 -0.040011812 9357168
-0.042314682 -0.02849986 -0.03986666 10008689
-0.040844958 -0.028434593 -0.039721459 10138223
-0.039374921 -0.02836933 -0.039576229 11322248
-0.037904583 -0.028304012 -0.039430961 10665854
-0.036433931 -0.028238699 -0.039285671 9616498
-0.034962971 -0.028173391 -0.039140355 9683060
-0.033491701 -0.028108088 -0.038995013 9420657
-0.032020122 -0.02804273 -0.038849629 7978078
-0.030548234 -0.027977325 -0.038704198 10476166
-0.029076036 -0.027911976 -0.038558766 12624241
-0.027603529 -0.027846582 -0.038413282 11387778
-0.026130712 -0.027781243 -0.038267806 8570981
-0.024657585 -0.027715798 -0.038122255 7454287
-0.023184149 -0.027650358 -0.037976686 7388497
-0.021710403 -0.027584864 -0.037831072 7190605
-0.020236349 -0.027519315 -0.037685417 7649875
-0.018761983 -0.027453771 -0.037539739 7780694
-0.017287306 -0.027388239 -0.037394024 6794054
-0.015812319 -0.027322646 -0.03724828 5610296
-0.014337023 -0.027257064 -0.037102502 7449685
-0.012861414 -0.027191481 -0.036956709 6593353
-0.011385495 -0.027125908 -0.036810879 11642751
-0.084727362 0.021238282 -0.028092951 6578529
-0.083137773 0.020845296 -0.028093226 6381150
-0.081549473 0.020452378 -0.028093573 6052442
-0.079962492 0.020059714 -0.028093945 5592148
-0.07837683 0.019667409 -0.028094297 5000268
-0.076796532 0.019327074 -0.028077491 4802889
-0.075249135 0.019401614 -0.02792282 3552822
-0.073715568 0.019665331 -0.02770517 3947580
-0.072199538 0.02018247 -0.027403098 5197647
-0.070681646 0.020700211 -0.027100664 6447457
-0.069165774 0.021274172 -0.026779341 7236973
-0.067660287 0.022031862 -0.026396612 6908008
-0.0661522 0.022791758 -0.026012927 6645093
-0.064643987 0.023592323 -0.025615433 7237230
-0.063138396 0.024480777 -0.02518837 7829367
-0.061631862 0.025406221 -0.024748698 7960953
-0.060123265 0.026353061 -0.024301596 8026746
-0.058611382 0.027301976 -0.023853518 8816005
-0.057096202 0.028252849 -0.023404494 11638422
-0.05557771 0.029205743 -0.022954518 11506322
-0.054055933 0.030161222 -0.022503378 9407628
-0.049511008 -0.028814113 -0.042113163 7454796
-0.048044059 -0.02874895 -0.041968398 7059019
-0.046576794 -0.028683852 -0.041823626 7911769
-0.045109231 -0.028618649 -0.041678783 8700779
-0.043641355 -0.028553508 -0.041533932 10341504
-0.04217317 -0.028488306 -0.041389056 9807970
-0.040704679 -0.028423116 -0.041244138 10135655
-0.039235879 -0.028357871 -0.041099183 11446643
-0.03776677 -0.028292632 -0.040954206 9940843
-0.036297355 -0.028227337 -0.040809184 6006841
-0.034827631 -0.028162107 -0.040664159 6861130
-0.033357598 -0.028096821 -0.040519089 7780443
-0.031887256 -0.028031543 -0.040374 8962155
-0.030416602 -0.027966266 -0.040228881 8964459
-0.028945642 -0.027900945 -0.04008371 11706474
-0.027474374 -0.027835561 -0.039938513 10600056
-0.026002796 -0.027770249 -0.039793294 10079870
-0.024530908 -0.027704874 -0.039648049 8963948
-0.023058711 -0.027639512 -0.039502766 9620856
-0.021586206 -0.027574096 -0.039357442 8765801
-0.02011339 -0.027508624 -0.039212078 8436579
-0.018640267 -0.0274431 -0.039066672 8632934
-0.017166831 -0.027377637 -0.038921259 8631910
-0.015693087 -0.02731213 -0.038775794 7514199
-0.014219033 -0.027246559 -0.038630299 7514456
-0.012744668 -0.027181059 -0.038484786 5935168
-0.011269992 -0.0271155 -0.038339242 10791806
-0.083369985 0.025724662 -0.028092323 8811636
-0.081774302 0.025328442 -0.028092502 9270645
-0.080179945 0.024932526 -0.028092679 9204852
-0.078586869 0.024536399 -0.028093033 8942965
-0.076995112 0.024140639 -0.028093381 8942965
-0.075404704 0.023745354 -0.028093664 8942708
-0.073815674 0.023351192 -0.028093707 8941937
-0.07222797 0.022957446 -0.028093701 9465197
-0.070658401 0.022800269 -0.028015466 9398376
-0.069104977 0.022868879 -0.027862471 9857128
-0.067574538 0.023281662 -0.027595365 6051928
-0.066049471 0.023799181 -0.027293392 3815994
-0.064526021 0.024371242 -0.026973167 5921370
-0.063006975 0.025047401 -0.026618231 6513507
-0.061490074 0.025799144 -0.026237972 5395026
-0.059973992 0.026610883 -0.025837565 6645093
-0.058459874 0.027508106 -0.02540851 6776679
-0.056944974 0.028449366 -0.024964545 8947077
-0.055434693 0.029539511 -0.02447076 11179156
-0.053922042 0.03065924 -0.023966813 10586491
-0.049363587 -0.028802305 -0.043631565 10338164
-0.04789786 -0.028737281 -0.043487106 10398053
-0.046431836 -0.028672149 -0.043342575 10791017
-0.044965494 -0.028607076 -0.043198053 9815676
-0.043498851 -0.028541895 -0.043053459 8306530
-0.042031899 -0.028476777 -0.042908859 5415474
-0.040564638 -0.028411658 -0.042764243 5743931
-0.039097071 -0.028346432 -0.04261956 10931340
-0.037629195 -0.02828127 -0.04247487 9419889
-0.036161013 -0.028216053 -0.042330138 7780956
-0.034692522 -0.028150842 -0.042185385 9354866
-0.033223718 -0.028085636 -0.042040605 11511920
-0.031754613 -0.028020374 -0.041895784 10729590
-0.030285195 -0.027955178 -0.04175096 8766823
-0.028815471 -0.027889874 -0.041606061 10400624
-0.027345438 -0.027824627 -0.04146117 9029484
-0.025875097 -0.027759334 -0.041316222 12562558
-0.024404446 -0.027693978 -0.041171249 12429172
-0.022933487 -0.027628694 -0.041026257 12823934
-0.021462219 -0.027563294 -0.040881205 11772525
-0.019990642 -0.027497962 -0.040736146 10786911
-0.018518757 -0.027432455 -0.040591016 11180901
-0.017046561 -0.02736707 -0.04044589 11705708
-0.015574057 -0.027301574 -0.040300712 10985066
-0.014101244 -0.027236089 -0.040155493 9286256
-0.012628119 -0.0271706 -0.040010266 4884529
-0.011154686 -0.027105127 -0.039864998 8758116
-0.083604336 0.030648991 -0.028091554 6118492
-0.082001142 0.030248873 -0.028091719 7301738
-0.080399282 0.029849123 -0.02809188 7761261
-0.078798778 0.029449685 -0.028092051 6644579
-0.077199601 0.029050548 -0.028092219 6381407
-0.075601742 0.02865155 -0.028092457 6447200
-0.074005187 0.02825252 -0.028092826 6710372
-0.07241001 0.027854312 -0.028093023 7301738
-0.070816197 0.027457051 -0.028093029 8876915
-0.06922365 0.027059225 -0.028093308 7499117
-0.06763234 0.026660329 -0.028094061 7236202
-0.066042617 0.026265604 -0.028093554 5263440
-0.064477108 0.026228951 -0.027975004 4605253
-0.062935732 0.026579149 -0.027728764 4605510
-0.061402593 0.027086999 -0.02743035 5329233
-0.059864882 0.027548796 -0.027147001 5526612
-0.058351014 0.028458383 -0.026715495 4671303
-0.056835387 0.02939534 -0.02627467 4079166
-0.055324316 0.030480107 -0.02578466 7104102
-0.053838506 0.032127805 -0.025108028 8093286
-0.049216419 -0.028790519 -0.045147397 8634467
-0.047751926 -0.02872552 -0.045003194 7779672
-0.046287119 -0.028660459 -0.044858966 7713365
-0.044822011 -0.02859541 -0.0447147 6203713
-0.043356594 -0.0285303 -0.044570409 4955945
-0.041890871 -0.028465202 -0.04442608 4496165
-0.040424839 -0.028400108 -0.044281725 4496424
-0.038958501 -0.02833502 -0.044137347 7780446
-0.037491854 -0.02826993 -0.043992959 6860878
-0.036024898 -0.028204791 -0.043848518 6992718
-0.034557641 -0.028139599 -0.043704033 7714906
-0.03309007 -0.028074469 -0.043559544 8173663
-0.031622197 -0.028009294 -0.043414999 7912027
-0.030154012 -0.027944056 -0.043270428 7650390
-0.028685521 -0.027878823 -0.043125834 8633444
-0.027216721 -0.027813662 -0.042981219 9880439
-0.025747612 -0.027748438 -0.042836573 9292404
-0.024278199 -0.027683109 -0.04269186 8437860
-0.022808474 -0.027617894 -0.042547166 7978079
-0.021338442 -0.027552575 -0.042402405 6795085
-0.019868102 -0.027487259 -0.042257618 6203203
-0.018397452 -0.02742189 -0.042112794 7253330
-0.016926495 -0.027356466 -0.041967925 9024620
-0.01545523 -0.027291054 -0.041823022 10462059
-0.013983654 -0.02722564 -0.041678108 10722667
-0.01251177 -0.027160177 -0.041533139 9476195
-0.011039576 -0.027094772 -0.041388173 12102021
-0.083846055 0.0356806 -0.028070752 5197647
-0.082230844 0.035224322 -0.028087955 5855320
-0.080620401 0.034808107 -0.028092209 7433067
-0.079012461 0.034406267 -0.028091872 7104359
-0.07740587 0.034004737 -0.028091542 5855320
-0.075800531 0.033602357 -0.028091596 5197647
-0.074196503 0.033199951 -0.028091783 5131597
-0.072593831 0.032797962 -0.028091935 5329233
-0.070992462 0.032395825 -0.028092252 6381407
-0.06939248 0.031994686 -0.028092347 5658198
-0.067793749 0.031592589 -0.02809287 8221555
-0.066196315 0.031190047 -0.028093638 8943222
-0.064600222 0.030787872 -0.028094402 9401717
-0.063013978 0.030523064 -0.028050179 8876401
-0.061443504 0.030505797 -0.027924737 9072752
-0.059867829 0.030400081 -0.027828343 9072238
-0.058374599 0.031739715 -0.027256865 7563368
-0.056905121 0.03359694 -0.026514761 5394255
-0.055503152 0.036842652 -0.025315268 6052442
-0.054816321 0.054167569 -0.019480519 8424310
-0.049069498 -0.02877881 -0.046660665 6206782
-0.04760623 -0.028713763 -0.046516735 6862157
-0.046142649 -0.028648788 -0.046372782 6336325
-0.044678763 -0.02858381 -0.046228815 6532679
-0.043214574 -0.028518785 -0.046084799 6662984
-0.041750077 -0.028453765 -0.045940757 6071874
-0.040285274 -0.02838869 -0.045796677 5349942
-0.038820159 -0.028323673 -0.045652598 7255126
-0.037354741 -0.028258609 -0.04550847 6532168
-0.035889018 -0.028193489 -0.045364298 6402117
-0.03442299 -0.028128382 -0.045220092 6073406
-0.032956649 -0.028063271 -0.045075875 6073919
-0.031490002 -0.027998166 -0.044931632 6665544
-0.030023051 -0.027933007 -0.044787351 7059790
-0.02855579 -0.027867859 -0.04464303 7452756
-0.027088223 -0.02780265 -0.044498682 7846748
-0.025620349 -0.027737511 -0.044354316 8899184
-0.024152163 -0.027672311 -0.04420992 7846491
-0.022683674 -0.027607124 -0.044065487 5088050
-0.021214876 -0.027541881 -0.043921012 4299556
-0.019745771 -0.027476585 -0.043776501 4364582
-0.018276356 -0.027411234 -0.043631945 6334022
-0.016806634 -0.027345948 -0.043487385 9220974
-0.015336603 -0.027280606 -0.043342784 10855536
-0.013866265 -0.027215218 -0.043198127 10005621
-0.012395617 -0.027149826 -0.043053459 8559971
-0.01092466 -0.02708444 -0.042908769 12755585
-0.082744166 0.043644171 -0.02698083 8946563
-0.081004247 0.041794818 -0.027448859 8091511
-0.079335608 0.040763516 -0.02765152 8420219
-0.077677719 0.039825499 -0.02782416 7695725
-0.076029778 0.038976591 -0.027968066 6841444
-0.074411333 0.038486801 -0.027995326 6315357
-0.072794534 0.037997499 -0.028022572 6118235
-0.071179375 0.037508287 -0.028049929 6052442
-0.069563448 0.036984522 -0.028088676 5526355
-0.067956664 0.036570843 -0.028091675 5197647
-0.06635607 0.036231175 -0.028070647 6381664
-0.064759649 0.035939708 -0.028033974 7892847
-0.063194826 0.03614369 -0.02783563 7892847
-0.06164895 0.036675956 -0.027529996 7564139
-0.060188003 0.038695395 -0.026738243 7432296
-0.059208035 0.049328852 -0.023129793 8551034
-0.048922826 -0.028767047 -0.048171367 7453268
-0.047460776 -0.028702145 -0.048027728 11647875
-0.045998424 -0.028637189 -0.047884047 10800523
-0.04453576 -0.02857223 -0.047740355 11648133
-0.043072794 -0.028507283 -0.047596626 11967852
-0.041609522 -0.028442282 -0.047452856 10265959
-0.040145941 -0.028377285 -0.047309063 7581014
-0.038682058 -0.028312294 -0.047165245 8302688
-0.037217867 -0.028247306 -0.047021404 7646807
-0.035753369 -0.028182266 -0.046877522 4825131
-0.034288563 -0.028117169 -0.046733599 4890923
-0.032823455 -0.028052079 -0.046589654 5219634
-0.031358037 -0.027987059 -0.046445686 5876541
-0.029892311 -0.027921977 -0.046301693 6139712
-0.02842628 -0.027856842 -0.046157658 5745466
-0.026959943 -0.027791776 -0.046013601 5548856
-0.025493296 -0.02772665 -0.045869518 8764264
-0.024026345 -0.027661476 -0.045725383 9354349
-0.022559086 -0.027596306 -0.045581222 5678908
-0.021091519 -0.027531143 -0.045437038 4561962
-0.019623647 -0.027465925 -0.045292813 5020978
-0.018155465 -0.027400652 -0.045148548 7777884
-0.016686976 -0.027335383 -0.04500426 10267248
-0.01521818 -0.027270067 -0.044859916 9677166
-0.013749074 -0.027204808 -0.04471558 6330953
-0.012279661 -0.027139436 -0.044571187 6000708
-0.01080994 -0.027074076 -0.044426754 12103569
-0.048776403 -0.028755298 -0.04967951 7190609
-0.047315575 -0.028690474 -0.049536157 13549208
-0.045854442 -0.028625537 -0.049392745 13025174
-0.044393003 -0.028560663 -0.049249329 13282438
-0.042931255 -0.028495787 -0.049105901 13612949
-0.041469201 -0.028430864 -0.048962418 11193749
-0.04000685 -0.028365893 -0.048818883 6268741
-0.038544185 -0.028300973 -0.048675366 8301917
-0.037081219 -0.028236011 -0.048531786 7121742
-0.035617948 -0.028170988 -0.048388176 4430886
-0.034154367 -0.02810603 -0.048244558 5021742
-0.032690484 -0.028041024 -0.048100885 7515733
-0.03122629 -0.027976016 -0.047957204 9349986
-0.029761795 -0.027910901 -0.047813453 9415779
-0.028296988 -0.027845902 -0.047669724 9415779
-0.026831878 -0.027780797 -0.047525924 6467143
-0.025366461 -0.027715748 -0.047382127 6073923
-0.023900738 -0.027650652 -0.047238283 8504171
-0.022434708 -0.027585562 -0.047094408 8700785
-0.02096837 -0.027520476 -0.046950515 8896369
-0.019501727 -0.027455276 -0.046806563 9415273
-0.018034777 -0.027390081 -0.046662584 8103773
-0.016567521 -0.027324898 -0.046518572 5938241
-0.015099955 -0.027259594 -0.046374515 5280566
-0.013632083 -0.027194362 -0.046230435 4491307
-0.012163903 -0.027129067 -0.04608633 5475130
-0.010695416 -0.027063785 -0.045942191 10202749
-0.050089531 -0.028808421 -0.051328175 9088888
-0.048630226 -0.028743612 -0.051185116 6665803
-0.047170617 -0.028678806 -0.051042031 12766877
-0.045710701 -0.028613947 -0.05089891 13480074
-0.044250481 -0.028549151 -0.05075578 13677455
-0.042789955 -0.028484242 -0.050612595 12635292
-0.041329123 -0.028419398 -0.050469402 9289846
-0.03986799 -0.028354505 -0.050326154 6662476
-0.038406551 -0.028289611 -0.050182898 8825440
-0.036944803 -0.028224722 -0.050039615 8432475
-0.035482753 -0.028159784 -0.049896281 7253073
-0.034020398 -0.028094845 -0.049752936 7777880
-0.032557733 -0.028029909 -0.049609564 9806946
-0.031094769 -0.027964927 -0.049466141 9022817
-0.029631495 -0.027899949 -0.049322695 7843929
-0.028167915 -0.027834969 -0.049179237 7778391
-0.026704032 -0.027769942 -0.049035724 6205508
-0.02523984 -0.027704921 -0.048892189 10014083
-0.023775345 -0.027639901 -0.048748631 12179876
-0.02231054 -0.02757483 -0.048605032 10736015
-0.020845432 -0.027509762 -0.048461407 9815939
-0.019380014 -0.0274447 -0.04831776 7711836
-0.017914293 -0.027379584 -0.048174072 6004035
-0.016448267 -0.027314359 -0.048030313 6003522
-0.01498193 -0.027249193 -0.047886562 6987086
-0.013515289 -0.02718398 -0.047742754 4359464
-0.012048339 -0.02711877 -0.047598924 5671739
-0.010581084 -0.027053507 -0.047455058 10005880
-0.049942385 -0.028796721 -0.052830957 9023096
-0.048484296 -0.028731931 -0.05268817 5352501
-0.047025904 -0.028667144 -0.052545361 12313514
-0.045567207 -0.028602364 -0.052402526 12761741
-0.044108201 -0.028537586 -0.052259669 11517573
-0.042648893 -0.028472822 -0.05211677 11325587
-0.041189283 -0.028407997 -0.05197385 9814395
-0.039729368 -0.028343124 -0.051830873 8106850
-0.038269147 -0.028278306 -0.051687904 9809515
-0.036808621 -0.028213436 -0.051544894 10855016
-0.03534779 -0.028148577 -0.051401846 11118446
-0.033886656 -0.028083663 -0.051258758 10789736
-0.032425214 -0.028018806 -0.051115677 10462054
-0.030963467 -0.027953902 -0.050972544 6664011
-0.029501418 -0.027889004 -0.050829384 4759850
-0.028039062 -0.02782399 -0.050686166 5284916
-0.0265764 -0.027759099 -0.050542962 5745211
-0.025113434 -0.027694097 -0.050399698 11323533
-0.023650162 -0.027629098 -0.050256409 14597795
-0.022186583 -0.027564105 -0.050113097 13492667
-0.020722698 -0.027499115 -0.049969763 7583066
-0.01925851 -0.027434079 -0.049826372 5545531
-0.017794015 -0.02736898 -0.049682956 5938754
-0.016329214 -0.027303893 -0.049539506 8627811
-0.014864106 -0.027238745 -0.049396023 9673827
-0.013398692 -0.02717361 -0.049252506 6067525
-0.011932972 -0.02710842 -0.049108949 7379799
-0.010466944 -0.027043292 -0.048965383 10597760
-0.04979549 -0.028785011 -0.054331217 10794627
-0.048338614 -0.028720247 -0.054188691 8896104
-0.046881434 -0.02865554 -0.054046165 8437866
-0.045423951 -0.028590837 -0.053903621 10932112
-0.043966163 -0.028526086 -0.05376102 11064215
-0.042508073 -0.028461341 -0.053618394 10276234
-0.041049674 -0.028396593 -0.05347576 7714142
-0.039590973 -0.028331857 -0.053333089 6991440
-0.038131971 -0.028267059 -0.053190388 7844700
-0.036672663 -0.028202215 -0.053047638 8042079
-0.035213053 -0.028137375 -0.052904863 9552244
-0.033753138 -0.028072599 -0.052762076 9157742
-0.032292917 -0.028007708 -0.052619237 8568167
-0.030832391 -0.027942825 -0.052476376 8438369
-0.029371561 -0.027877944 -0.052333485 5810745
-0.027910424 -0.027813127 -0.052190591 9481317
-0.026448986 -0.027748197 -0.05204764 7058771
-0.024987239 -0.027683271 -0.051904663 9554812
-0.023525191 -0.027618358 -0.051761653 13021063
-0.022062836 -0.027553383 -0.051618613 11587740
-0.020600175 -0.027488472 -0.051475566 8174438
-0.019137209 -0.027423514 -0.051332463 8105056
-0.017673939 -0.027358441 -0.051189307 11379313
-0.016210364 -0.027293375 -0.051046126 11639148
-0.014746481 -0.027228305 -0.050902933 11242848
-0.013282293 -0.027163187 -0.050759688 10654310
-0.011817799 -0.027098134 -0.050616436 10527863
-0.010352999 -0.027033027 -0.050473142 11317387
-0.04964884 -0.028773248 -0.05582891 11645063
-0.048193172 -0.028708674 -0.055686716 11845507
-0.046737205 -0.028643992 -0.055544451 10408064
-0.045280937 -0.028579315 -0.05540216 10210688
-0.04382436 -0.028514637 -0.055259861 10800775
-0.042367484 -0.028449969 -0.055117525 9421428
-0.040910304 -0.028385188 -0.05497513 7189072
-0.039452817 -0.02832053 -0.054832745 7516760
-0.037995033 -0.028255759 -0.054690305 7844700
-0.036536936 -0.028191052 -0.054547857 7779164
-0.035078544 -0.02812623 -0.054405354 9812340
-0.033619843 -0.028061474 -0.054262843 6991440
-0.032160841 -0.027996663 -0.054120291 6073153
-0.030701531 -0.027931914 -0.053977728 6138944
-0.029241921 -0.02786706 -0.053835101 5022254
-0.027782004 -0.027802203 -0.05369246 8958567
-0.026321786 -0.027737359 -0.053549781 5284918
-0.024861259 -0.027672512 -0.053407095 7452766
-0.02340043 -0.027607676 -0.053264372 10996626
-0.021939296 -0.027542779 -0.053121619 8371055
-0.020477857 -0.027477894 -0.052978829 5874757
-0.019016115 -0.027412895 -0.052835986 7186518
-0.017554067 -0.027347961 -0.052693132 9679988
-0.016091714 -0.027282972 -0.052550238 9810807
-0.014629055 -0.027217928 -0.052407306 9218414
-0.01316609 -0.027152888 -0.052264348 8692328
-0.011702822 -0.027087854 -0.052121367 9152367
-0.010239247 -0.027022773 -0.051978335 11056011
-0.049502436 -0.028761586 -0.057324126 11581064
-0.048047978 -0.028697038 -0.057182189 12297070
-0.046593223 -0.028632434 -0.057040211 11060866
-0.045138165 -0.028567778 -0.056898192 10734211
-0.043682799 -0.028503183 -0.056756165 12304777
-0.042227134 -0.028438536 -0.056614101 10142844
-0.040771168 -0.028373841 -0.056471981 7846491
-0.039314896 -0.028309202 -0.056329869 8895852
-0.037858319 -0.028244508 -0.056187715 8895339
-0.036401439 -0.028179821 -0.056045536 9158000
-0.034944259 -0.028115144 -0.055903323 11710587
-0.033486776 -0.028050346 -0.055761065 6730313
-0.032028988 -0.027985681 -0.055618804 7978077
-0.030570896 -0.027920892 -0.055476498 7122510
-0.029112501 -0.027856115 -0.055334158 5744697
-0.027653802 -0.027791345 -0.055191793 7649114
-0.0261948 -0.027726512 -0.055049401 5679673
-0.024735492 -0.02766175 -0.054906987 6992975
-0.02327588 -0.027596934 -0.054764532 9290357
-0.021815967 -0.027532063 -0.054622039 7976034
-0.020355746 -0.027467256 -0.054479539 7121750
-0.018895224 -0.027402395 -0.054336999 7055701
-0.017434396 -0.027337478 -0.054194417 6923345
-0.015973262 -0.027272509 -0.054051794 6857299
-0.014511826 -0.02720755 -0.053909138 6659151
-0.013050084 -0.02714259 -0.053766467 6592333
-0.011588037 -0.027077634 -0.053623773 8955499
-0.010125685 -0.027012572 -0.053481013 11122582
-0.049356282 -0.028749922 -0.058816805 14926762
-0.047903031 -0.028685452 -0.058675155 15446944
-0.046449482 -0.028620869 -0.058533445 14139038
-0.044995632 -0.028556297 -0.058391701 12701601
-0.04354148 -0.028491722 -0.058249947 11587989
-0.042087018 -0.028427152 -0.058108166 9816190
-0.040632263 -0.028362535 -0.057966337 8174435
-0.039177202 -0.028297924 -0.057824481 8699243
-0.037721839 -0.028233249 -0.057682596 8239461
-0.036266174 -0.028168587 -0.057540677 9223537
-0.034810204 -0.028103989 -0.057398751 11576433
-0.033353932 -0.028039329 -0.057256795 6597703
-0.031897359 -0.027974622 -0.057114791 11775866
-0.03044048 -0.02790992 -0.056972761 11056249
-0.028983297 -0.027845223 -0.056830704 6730057
-0.027525812 -0.027780529 -0.056688625 6138944
-0.026068026 -0.027715722 -0.056546491 5941820
-0.024609936 -0.027650978 -0.056404348 7780953
-0.023151543 -0.02758619 -0.056262154 11451522
-0.021692842 -0.027521456 -0.056119967 11773557
-0.020233842 -0.02745661 -0.055977721 10793079
-0.018774536 -0.027391825 -0.055835467 7712348
-0.017314926 -0.027327055 -0.055693176 5741627
-0.015855012 -0.027262103 -0.055550825 6267204
-0.014394796 -0.027197223 -0.055408455 5806140
-0.012934274 -0.027132288 -0.055266045 5279287
-0.011473446 -0.027067352 -0.055123623 9940343
-0.04921037 -0.028738299 -0.060306989 15985117
-0.047758322 -0.02867385 -0.060165606 16770790
-0.046305984 -0.02860935 -0.060024172 16575210
-0.044853341 -0.028544798 -0.0598827 14476759
-0.043400392 -0.028480303 -0.059741229 13952460
-0.041947145 -0.02841576 -0.059599709 12638392
-0.040493593 -0.028351221 -0.059458163 11259296
-0.039039742 -0.028286627 -0.059316579 11260063
-0.03758559 -0.028222039 -0.05917497 10602898
-0.036131132 -0.028157456 -0.059033338 11062422
-0.034676373 -0.028092876 -0.05889168 10996369
-0.033221312 -0.02802825 -0.058749974 9027701
-0.031765949 -0.027963622 -0.058608253 11518092
-0.030310281 -0.027898997 -0.058466509 12102525
-0.028854312 -0.027834319 -0.058324724 10142076
-0.027398042 -0.027769651 -0.058182906 10076027
-0.025941467 -0.027704982 -0.058041073 9551478
-0.024484592 -0.027640266 -0.057899192 8043361
-0.023027411 -0.027575487 -0.057757281 9880445
-0.021569928 -0.02751084 -0.057615366 10337664
-0.02011214 -0.027446071 -0.057473406 9484663
-0.01865405 -0.027381314 -0.057331409 7581022
-0.017195659 -0.027316563 -0.05718939 6726990
-0.015736962 -0.027251756 -0.057047334 6134853
-0.014277962 -0.027186835 -0.056905217 5805120
-0.012818658 -0.027121978 -0.056763094 6592331
-0.01135905 -0.027057126 -0.056620948 10203001
-0.049064696 -0.028726714 -0.061794687 16383224
-0.047613863 -0.028662289 -0.061653566 16776444
-0.046162724 -0.028597817 -0.061512388 16776444
-0.044711284 -0.028533343 -0.0613712 14013659
-0.043259542 -0.028468873 -0.061229989 14934504
-0.041807503 -0.028404409 -0.061088756 13355985
-0.040355157 -0.028339896 -0.060947467 12303555
-0.038902514 -0.028275382 -0.06080617 13158866
-0.037449565 -0.028210871 -0.060664847 12500934
-0.035996314 -0.028146373 -0.060523488 13158608
-0.034542765 -0.028081814 -0.060382102 14738665
-0.033088911 -0.028017266 -0.060240682 15463157
-0.031634759 -0.027952664 -0.060099218 15395819
-0.030180305 -0.027887998 -0.059957728 14927296
-0.028725546 -0.027823405 -0.059816219 14008502
-0.027270485 -0.027758818 -0.059674688 13946559
-0.025815122 -0.027694175 -0.059533112 13620159
-0.024359457 -0.02762953 -0.059391528 12835772
-0.022903487 -0.027564896 -0.059249908 12243890
-0.021447219 -0.027500208 -0.05910825 11980461
-0.019990643 -0.027435584 -0.058966581 12111791
-0.018533768 -0.027370786 -0.058824841 12045744
-0.017076589 -0.027306113 -0.058683109 12506040
-0.015619109 -0.027241332 -0.058541305 13227975
-0.014161324 -0.02717655 -0.058399495 14279129
-0.012703237 -0.027111718 -0.058257628 13949904
-0.011244845 -0.027046887 -0.058115754 12041881
-0.048919275 -0.028715117 -0.063279867 16777215
-0.047469642 -0.028650712 -0.063139014 16777215
-0.046019707 -0.028586319 -0.062998123 16777215
-0.04456947 -0.028521931 -0.062857211 13224400
-0.043118931 -0.02845748 -0.062716268 14012887
-0.041668091 -0.028393041 -0.062575288 11841972
-0.040216953 -0.028328607 -0.062434286 10263200
-0.038765516 -0.028264118 -0.062293246 11184814
-0.037313771 -0.028199695 -0.062152199 8684420
-0.035861727 -0.028135208 -0.062011123 9342608
-0.034409385 -0.028070735 -0.061870012 13027020
-0.032956738 -0.028006205 -0.061728857 15066607
-0.031503793 -0.027941681 -0.061587684 15066349
-0.030050544 -0.027877111 -0.061446454 13679810
-0.028596994 -0.027812596 -0.061305232 12492965
-0.027143141 -0.027748026 -0.061163969 13025478
-0.025688989 -0.027683403 -0.061022669 13945295
-0.024234533 -0.02761885 -0.060881346 15326435
-0.022779776 -0.027554236 -0.060739994 13815768
-0.021324715 -0.027489627 -0.060598623 12697800
-0.019869354 -0.027425028 -0.060457211 13157065
-0.018413689 -0.027360369 -0.060315773 12629947
-0.016957724 -0.027295662 -0.060174283 12432312
-0.015501454 -0.027231012 -0.0600328 12498360
-0.014044883 -0.027166255 -0.059891246 15524840
-0.012588009 -0.027101504 -0.059749667 14801878
-0.011130832 -0.027036697 -0.05960805 12434843
-0.048774097 -0.028703548 -0.06476257 16776701
-0.047325667 -0.028639177 -0.064621963 16776958
-0.045876928 -0.028574862 -0.064481355 16645117
-0.04442789 -0.028510492 -0.064340718 13947609
-0.042978555 -0.028446129 -0.064200044 13815507
-0.041528918 -0.028381769 -0.064059354 12301749
-0.040078979 -0.028317355 -0.063918628 11578285
-0.038628742 -0.028252952 -0.063777857 12433596
-0.037178203 -0.028188547 -0.063637078 9999251
-0.035727367 -0.028124094 -0.063496247 10131354
-0.034276228 -0.028059639 -0.063355409 13092300
-0.032824785 -0.027995195 -0.063214526 15066348
-0.031373043 -0.02793075 -0.063073643 14408417
-0.029921001 -0.027866257 -0.0629327 11907252
-0.028468657 -0.027801702 -0.062791727 9670546
-0.027016012 -0.027737219 -0.06265074 10592420
-0.025563067 -0.02767268 -0.062509708 11841972
-0.024109818 -0.027608199 -0.062368687 14472155
-0.022656269 -0.027543612 -0.062227596 11907768
-0.021202417 -0.027479086 -0.062086497 10658213
-0.019748265 -0.027414508 -0.061945356 11511979
-0.018293811 -0.027349934 -0.061804194 11248035
-0.016839055 -0.027285246 -0.061662976 11642536
-0.015383997 -0.027220681 -0.061521765 12235188
-0.013928638 -0.027155945 -0.061380479 15853548
-0.012472975 -0.02709127 -0.06123919 14802134
-0.011017011 -0.027026491 -0.061097831 12303512
-0.048629165 -0.028691962 -0.066242769 16773103
-0.047181923 -0.028627662 -0.06610246 16775416
-0.045734387 -0.028563434 -0.065962128 16576241
-0.044286549 -0.028499091 -0.065821737 14407644
-0.04283841 -0.028434806 -0.065681361 13683918
-0.041389976 -0.028370472 -0.065540925 12366258
-0.03994124 -0.028306143 -0.065400466 12103087
-0.038492203 -0.028241759 -0.065259971 13089470
-0.037042864 -0.02817744 -0.06511946 10590103
-0.035593227 -0.028113067 -0.06497892 10591904
-0.034143291 -0.028048638 -0.064838335 13486801
-0.032693055 -0.027984213 -0.064697728 15263470
-0.031242516 -0.027919795 -0.064557098 14144987
-0.029791676 -0.02785538 -0.064416438 10987176
-0.028340535 -0.027790971 -0.064275764 8816006
-0.026889095 -0.027726505 -0.064135045 10131869
-0.025437353 -0.027662046 -0.063994303 11118507
-0.023985315 -0.02759748 -0.063853487 14210525
-0.02253297 -0.02753303 -0.063712701 11250350
-0.021080326 -0.027468525 -0.06357187 10460577
-0.019627381 -0.027403973 -0.063430987 10658211
-0.018174136 -0.027339417 -0.063290097 10131609
-0.016720587 -0.027274875 -0.063149169 10592158
-0.015266738 -0.027210329 -0.063008226 11578800
-0.013812588 -0.027145678 -0.062867217 15789555
-0.012358135 -0.027081022 -0.0627262 14409428
-0.010903381 -0.027016381 -0.062585138 11319433
-0.048484471 -0.028680457 -0.067720525 16765650
-0.047038428 -0.028616192 -0.067580454 16769762
-0.045592085 -0.028551981 -0.067440398 16506337
-0.044145446 -0.028487718 -0.067300297 14604766
-0.042698506 -0.028423458 -0.067160167 13420491
-0.041251268 -0.02835921 -0.067020006 12103599
-0.039803728 -0.0282949 -0.066879824 12038064
-0.038355891 -0.028230596 -0.066739611 12958909
-0.036907755 -0.028166244 -0.066599347 10458774
-0.035459314 -0.028102007 -0.066459104 10723490
-0.034010578 -0.028037665 -0.066318788 13947351
-0.032561541 -0.027973261 -0.066178456 15460591
-0.031112203 -0.027908927 -0.066038094 13947351
-0.029662568 -0.027844479 -0.065897681 10328988
-0.028212629 -0.027780147 -0.06575729 8749955
-0.026762392 -0.027715769 -0.065616846 10131353
-0.025311856 -0.027651276 -0.065476343 10460574
-0.023861017 -0.027586848 -0.065335833 13815505
-0.022409879 -0.027522424 -0.0651953 10788768
-0.020958439 -0.027457938 -0.065054744 10526111
-0.0195067 -0.027393464 -0.064914145 10131611
-0.018054659 -0.027328996 -0.06477353 9407885
-0.016602317 -0.027264532 -0.064632885 9868435
-0.015149675 -0.027199952 -0.064492188 11315627
-0.013696731 -0.027135439 -0.064351477 15658224
-0.012243488 -0.027070818 -0.064210705 14015181
-0.010789942 -0.027006194 -0.064069919 10924157
-0.048340023 -0.028668867 -0.06919577 16772846
-0.046895172 -0.02860474 -0.069055997 16773103
-0.045450024 -0.028540557 -0.068916194 16248564
-0.044004578 -0.02847637 -0.068776377 14342622
-0.04255883 -0.028412197 -0.068636529 12697281
-0.041112788 -0.028347969 -0.068496637 10986404
-0.039666448 -0.028283685 -0.068356708 11052455
-0.038219806 -0.028219467 -0.068216763 12170935
-0.036772866 -0.028155195 -0.068076789 10196115
-0.035325628 -0.028090866 -0.067936771 11643305
-0.033878088 -0.028026609 -0.06779673 14735579
-0.03243025 -0.027962349 -0.067656681 15722476
-0.030982111 -0.027898034 -0.067516595 13815506
-0.029533675 -0.027833667 -0.067376465 10394266
-0.028084939 -0.027769301 -0.067236312 9078405
-0.026635904 -0.02770495 -0.067096129 10131092
-0.025186565 -0.027640594 -0.066955931 10459543
-0.02373693 -0.027576245 -0.066815704 13485765
-0.022286994 -0.027511848 -0.066675432 10458771
-0.020836756 -0.027447447 -0.066535145 11051424
-0.019386221 -0.027383059 -0.066394821 10328473
-0.017935382 -0.02731861 -0.066254474 9473420
-0.016484248 -0.027254112 -0.066114075 9933970
-0.015032808 -0.027189672 -0.065973677 11644590
-0.01358107 -0.027125243 -0.065833241 15789552
-0.012129032 -0.027060641 -0.065692738 13883850
-0.010676693 -0.026996044 -0.065552212 11187071
-0.049639169 -0.028721532 -0.070808053 12239789
-0.048195809 -0.028657418 -0.070668586 16775416
-0.046752155 -0.028593257 -0.070529059 16709880
-0.045308195 -0.028529152 -0.070389539 16183799
-0.043863945 -0.028465001 -0.070249967 14408415
-0.042419393 -0.028400846 -0.070110381 12170936
-0.040974542 -0.028336704 -0.069970764 10657438
-0.039529394 -0.0282725 -0.069831118 10789025
-0.038083952 -0.028208308 -0.069691435 11841713
-0.036638204 -0.028144112 -0.069551744 10721174
-0.035192158 -0.028079929 -0.069412015 12167848
-0.033745818 -0.028015692 -0.06927225 15193045
-0.032299176 -0.027951458 -0.069132455 15914198
-0.030852238 -0.027887112 -0.068992607 14077390
-0.029404996 -0.02782288 -0.068852782 10394008
-0.02795746 -0.027758602 -0.068712905 10262164
-0.026509622 -0.02769427 -0.068572983 11182238
-0.025061484 -0.027630001 -0.068433061 11445409
-0.023613049 -0.027565617 -0.06829308 14274250
-0.022164313 -0.027501298 -0.068153091 11182236
-0.020715278 -0.027436925 -0.068013057 12169647
-0.019265942 -0.027372556 -0.067873009 11709610
-0.017816307 -0.027308192 -0.06773293 10723229
-0.016366372 -0.027243832 -0.067592837 11183267
-0.014916138 -0.027179366 -0.067452669 12565435
-0.013465603 -0.027114958 -0.067312501 15855344
-0.012014768 -0.027050493 -0.067172304 13752261
-0.010563633 -0.026985982 -0.067032047 11055741
-0.049494009 -0.028709957 -0.072278127 13616303
-0.048051842 -0.028645929 -0.072138928 16776444
-0.046609372 -0.028581847 -0.071999691 16644601
-0.045166608 -0.028517777 -0.07186041 16249333
-0.043723546 -0.028453704 -0.071721122 14671327
-0.042280186 -0.028389635 -0.071581818 11775920
-0.040836528 -0.028325453 -0.071442448 10657181
-0.039392572 -0.028261334 -0.071303077 10854560
-0.037948322 -0.028197227 -0.071163669 11578282
-0.036503766 -0.028133059 -0.071024232 10721173
-0.035058919 -0.028068896 -0.070884772 11774632
-0.033613771 -0.028004685 -0.07074526 15194071
-0.032168321 -0.02794053 -0.070605755 16105150
-0.030722581 -0.027876269 -0.070466176 14337991
-0.029276537 -0.027812064 -0.070326611 10722458
-0.027830195 -0.027747814 -0.070186988 11509403
-0.026383553 -0.027683558 -0.070047356 12035747
-0.024936615 -0.027619315 -0.069907688 12626855
-0.023489375 -0.027555071 -0.069768004 14601414
-0.022041837 -0.027490778 -0.069628276 12100511
-0.020594001 -0.027426431 -0.069488503 12890286
-0.019145865 -0.027362142 -0.069348738 12758443
-0.017697429 -0.027297804 -0.06920892 11969441
-0.016248696 -0.02723347 -0.069069073 12102312
-0.014799662 -0.027169142 -0.06892921 13485509
-0.013350328 -0.02710476 -0.068789303 15921391
-0.011900696 -0.027040321 -0.068649359 13489596
-0.010450763 -0.026975829 -0.068509378 11383934
-0.049349092 -0.028698461 -0.073745757 14076852
-0.047908112 -0.028634461 -0.073606819 16775930
-0.046466831 -0.028570464 -0.073467851 16706539
-0.045025252 -0.028506473 -0.07332886 16507107
-0.043583382 -0.028442426 -0.073189825 14801626
-0.042141214 -0.028378325 -0.07305076 11249060
-0.040698744 -0.028314281 -0.072911695 10591130
-0.03925598 -0.028250189 -0.072772577 10854302
-0.037812915 -0.028186101 -0.072633438 10854300
-0.036369555 -0.028122019 -0.072494268 8814716
-0.0349259 -0.02805789 -0.072355054 10854556
-0.033481944 -0.027993757 -0.072215833 14736345
-0.03203769 -0.02792963 -0.072076581 16106435
-0.030593136 -0.027865507 -0.071937308 14790317
-0.02914829 -0.02780127 -0.071797974 11905189
-0.02770314 -0.027737096 -0.071658641 13146518
-0.026257696 -0.027672868 -0.071519263 12688794
-0.024811951 -0.027608711 -0.07137987 13668236
-0.023365909 -0.027544493 -0.071240447 14727862
-0.021919567 -0.02748022 -0.071100987 13014162
-0.020472929 -0.027415959 -0.070961483 14396071
-0.019025989 -0.027351696 -0.070821978 14064536
-0.017578751 -0.027287437 -0.070682444 13342099
-0.016131215 -0.027223188 -0.070542872 12886431
-0.01468338 -0.027158881 -0.070403278 14205120
-0.013235247 -0.027094524 -0.070263632 15920875
-0.011786814 -0.027030172 -0.070123956 13489079
-0.010338081 -0.026965758 -0.069984257 11910282
-0.049204417 -0.028686928 -0.075210921 13097658
-0.047764618 -0.028623005 -0.075072259 16776958
-0.046324525 -0.028559094 -0.074933566 16772589
-0.044884138 -0.028495064 -0.074794829 16371408
-0.043443453 -0.028431103 -0.074656069 14340046
-0.042002469 -0.028367087 -0.074517272 11051423
-0.040561192 -0.02830307 -0.074378461 11314338
-0.039119612 -0.028239064 -0.074239619 11380130
-0.037677739 -0.028175004 -0.074100733 11051164
-0.036235571 -0.028110949 -0.073961824 9340545
-0.034793101 -0.028046889 -0.073822908 11314334
-0.033350334 -0.027982844 -0.073683955 14735316
-0.031907275 -0.027918743 -0.073544964 15392732
-0.030463913 -0.027854646 -0.073405944 13089463
-0.029020255 -0.027790554 -0.073266901 12690593
-0.027576301 -0.027726408 -0.073127821 10590098
-0.026132047 -0.027662259 -0.072988734 11247770
-0.024687495 -0.02759812 -0.072849609 13019042
-0.023242647 -0.02753393 -0.07271044 13681598
-0.021797501 -0.027469741 -0.072571248 10458255
-0.020352056 -0.027405508 -0.072432011 13222076
-0.018906314 -0.02734133 -0.072292775 13218480
-0.017460272 -0.027277097 -0.072153494 12954022
-0.016013931 -0.027212869 -0.072014198 12952481
-0.014567293 -0.027148645 -0.071874872 14989238
-0.013120356 -0.027084367 -0.071735509 15919075
-0.011673121 -0.027020095 -0.071596123 13358006
-0.010225588 -0.026955714 -0.071456671 11974550
-0.049059983 -0.028675519 -0.076673687 14612688
-0.047621369 -0.028611563 -0.076535262 16777215
-0.046182461 -0.02854768 -0.076396823 15984359
-0.044743259 -0.028483734 -0.076258354 16244702
-0.043303758 -0.028419793 -0.07611987 13945029
-0.041863959 -0.028355865 -0.075981341 12300461
-0.040423863 -0.028291933 -0.075842805 12892855
-0.038983472 -0.028227953 -0.075704217 13484478
-0.037542786 -0.028163971 -0.075565614 13155768
-0.036101807 -0.028099943 -0.075426966 12958387
-0.034660526 -0.02803597 -0.075288318 12827058
-0.03321895 -0.027971892 -0.075149603 13419196
-0.031777073 -0.027907869 -0.075010896 14010820
-0.030334903 -0.027843859 -0.074872151 12958388
-0.028892435 -0.027779786 -0.074733384 13352375
-0.027449671 -0.027715666 -0.074594557 12432042
-0.026006609 -0.02765161 -0.074455731 12761008
-0.024563249 -0.027587499 -0.074316859 13155510
-0.023119593 -0.027523385 -0.074177973 12892849
-0.021675637 -0.027459284 -0.074039057 11642526
-0.020231387 -0.027395129 -0.073900104 13880264
-0.018786838 -0.027330918 -0.073761106 13024441
-0.01734199 -0.027266772 -0.0736221 13153714
-0.015896844 -0.027202623 -0.073483087 12694447
-0.0144514 -0.027138367 -0.073344007 14799827
-0.013005658 -0.027074235 -0.073204935 15984096
-0.011559619 -0.027009986 -0.073065802 13554615
-0.010113281 -0.026945686 -0.072926633 11712401
-0.048915789 -0.028664002 -0.07813397 11383461
-0.047478355 -0.028600194 -0.077995837 12499128
-0.046040632 -0.028536329 -0.077857666 10919064
-0.04460261 -0.02847247 -0.077719472 12432045
-0.043164287 -0.028408615 -0.077581257 12168614
-0.041725677 -0.028344706 -0.077442996 11971235
-0.040286765 -0.028280808 -0.077304706 12892338
-0.038847562 -0.028216848 -0.077166386 14076099
-0.037408061 -0.028152894 -0.077028036 14536391
-0.035968263 -0.028089002 -0.076889686 14930890
-0.034528166 -0.028025065 -0.076751284 15523027
-0.033087775 -0.027961064 -0.07661286 14668230
-0.03164709 -0.027897067 -0.076474406 14602182
-0.030206108 -0.027833084 -0.076335914 15325906
-0.028764827 -0.027769038 -0.076197401 14536647
-0.027323253 -0.027705004 -0.07605885 14207939
-0.02588138 -0.027640969 -0.075920291 14668491
-0.024439208 -0.027576944 -0.075781688 14405575
-0.022996742 -0.027512858 -0.075643063 14405576
-0.021553978 -0.027448783 -0.075504407 14405835
-0.020110916 -0.027384706 -0.075365737 16117227
-0.01866756 -0.027320581 -0.075227007 14867159
-0.017223904 -0.027256461 -0.075088263 14273994
-0.01577995 -0.027192337 -0.074949503 13090747
-0.0143357 -0.027128167 -0.074810699 14932954
-0.012891153 -0.027064003 -0.074671865 16313577
-0.011446306 -0.026999893 -0.074533038 14343363
-0.010001163 -0.026935618 -0.074394122 11384714
-0.04887389 -0.026590673 -0.078993864 9472872
-0.047416121 -0.026903246 -0.078964897 8616288
-0.045959353 -0.027215617 -0.078935966 6121546
-0.044503592 -0.027527742 -0.078907035 5595200
-0.043048836 -0.027839623 -0.078878112 5856585
-0.041595079 -0.028151304 -0.078849226 6579283
-0.040149897 -0.028269682 -0.078764185 8809568
-0.038711876 -0.028205749 -0.078626119 8874849
-0.037273552 -0.02814194 -0.078488059 9794413
-0.035834942 -0.028078023 -0.07834994 9860464
-0.034396034 -0.028014105 -0.078211807 9926770
-0.032956827 -0.02795019 -0.078073651 11700613
-0.031517327 -0.027886221 -0.07793545 12094857
-0.030077526 -0.027822316 -0.077797249 11574680
-0.028637435 -0.027758304 -0.077658974 11115413
-0.027197044 -0.02769435 -0.077520706 12035744
-0.025756359 -0.02763034 -0.077382401 12497067
-0.024315376 -0.027566394 -0.077244088 13482164
-0.022874096 -0.027502341 -0.077105708 13419454
-0.021432521 -0.027438344 -0.076967336 14340814
-0.019990649 -0.027374296 -0.076828919 16512244
-0.018548481 -0.027310256 -0.076690465 15787747
-0.017106015 -0.027246214 -0.076552004 15261658
-0.015663253 -0.027182067 -0.076413475 16511726
-0.014220193 -0.027118035 -0.076274969 16776185
-0.012776837 -0.027053896 -0.076136388 16776439
-0.011333182 -0.026989754 -0.0759978 15192770
-0.009889232 -0.026925625 -0.075859182 11845271
-0.048982926 -0.021447781 -0.078973599 9151600
-0.047517445 -0.021763826 -0.078944512 7902044
-0.046052985 -0.022079565 -0.078915402 7769690
-0.044589534 -0.02239511 -0.07888633 8360551
-0.043127101 -0.02271047 -0.078857273 9542263
-0.041665681 -0.023025509 -0.078828231 9935482
-0.04020527 -0.023340482 -0.078799233 9410678
-0.038745869 -0.023655083 -0.07877022 9212786
-0.037287477 -0.023969552 -0.078741252 7898465
-0.035830095 -0.024283832 -0.078712299 7174744
-0.034373719 -0.024597853 -0.078683376 6911061
-0.032918349 -0.024911629 -0.078654453 6910806
-0.031463984 -0.025225278 -0.078625567 7436381
-0.030010626 -0.025538608 -0.078596689 9077098
-0.028558271 -0.025851753 -0.078567825 8551268
-0.027106913 -0.026164696 -0.078538999 8613984
-0.025656562 -0.026477402 -0.078510165 8547934
-0.024207206 -0.026789907 -0.078481376 7759964
-0.022758851 -0.027102219 -0.078452617 4869438
-0.021311495 -0.027414285 -0.078423858 3751470
-0.019870581 -0.027363898 -0.078289658 4277302
-0.0184296 -0.027299939 -0.078151487 4474423
-0.016988322 -0.027235923 -0.078013286 4999488
-0.015546749 -0.027171861 -0.077875026 5526088
-0.014104878 -0.027107857 -0.077736773 7367268
-0.012662711 -0.027043797 -0.077598482 8618102
-0.011220247 -0.026979748 -0.077460155 10131334
-0.0097774873 -0.026915638 -0.077321798 10330760
-0.049093112 -0.01625051 -0.078953132 10660483
-0.047619846 -0.016569989 -0.078923866 10068862
-0.0461476 -0.016889269 -0.078894645 9805696
-0.044676386 -0.017208301 -0.078865424 10198922
-0.043206193 -0.017527081 -0.078836218 10396047
-0.041737024 -0.017845668 -0.078807041 10264463
-0.040268879 -0.018164001 -0.078777879 10132368
-0.038801752 -0.018482149 -0.078748733 10001037
-0.037335645 -0.018800102 -0.078719623 9606793
-0.03587056 -0.019117745 -0.078690514 9409412
-0.034406487 -0.019435251 -0.078661442 9475462
-0.032943439 -0.019752447 -0.078632377 10067853
-0.0314814 -0.020069515 -0.078603342 10923417
-0.030020379 -0.020386331 -0.078574322 11910310
-0.028560372 -0.020702895 -0.078545317 12699568
-0.027101375 -0.021019265 -0.078516342 13094324
-0.025643393 -0.021335389 -0.078487366 12896943
-0.024186417 -0.021651372 -0.078458451 13614503
-0.022730455 -0.02196705 -0.07842952 13417637
-0.0212755 -0.022282535 -0.078400627 13024675
-0.019821551 -0.022597834 -0.078371741 12630687
-0.018368607 -0.022912933 -0.0783429 12236440
-0.016916672 -0.023227725 -0.078314044 11776142
-0.01546574 -0.023542326 -0.078285217 11120261
-0.01401581 -0.023856793 -0.078256443 9610352
-0.012566882 -0.024170946 -0.078227654 7901779
-0.011118956 -0.024485094 -0.07819894 6916678
-0.049204472 -0.010997984 -0.078932449 9808510
-0.047723334 -0.011320945 -0.078903042 9084019
-0.046243228 -0.01164372 -0.078873649 10395783
-0.044764157 -0.0119663 -0.078844287 11050897
-0.043286126 -0.012288628 -0.078814939 11115922
-0.04180913 -0.012610711 -0.078785598 10459539
-0.040333163 -0.0129326 -0.078756288 9473675
-0.038858227 -0.013254227 -0.078727007 9276297
-0.037384324 -0.013575669 -0.078697748 10328986
-0.035911452 -0.013896865 -0.07866849 11513518
-0.034439605 -0.01421786 -0.078639276 12500157
-0.032968789 -0.014538609 -0.078610063 13157828
-0.031498998 -0.014859159 -0.078580894 13552328
-0.030030236 -0.015179461 -0.078551725 14013134
-0.028562495 -0.015499518 -0.078522563 14473684
-0.027095778 -0.015819434 -0.078493461 14671062
-0.025630083 -0.016139038 -0.078464352 14540245
-0.024165411 -0.016458396 -0.07843525 14409170
-0.022701757 -0.01677762 -0.078406192 14409170
-0.021239122 -0.01709659 -0.078377157 14474962
-0.019777505 -0.017415369 -0.078348145 14475217
-0.018316908 -0.0177339 -0.078319132 14540493
-0.016857322 -0.018052232 -0.078290172 14604997
-0.015398752 -0.018370554 -0.078261271 14342074
-0.013941196 -0.018688684 -0.0782324 14012333
-0.012484653 -0.019006679 -0.078203581 12500115
-0.011029122 -0.019324362 -0.078174755 10332280
-0.049317028 -0.0056891833 -0.078911535 10597001
-0.047827922 -0.0060158274 -0.078881986 12103572
-0.046339877 -0.0063421587 -0.078852437 12693918
-0.044852871 -0.0066682966 -0.078822918 13087655
-0.043366913 -0.0069941808 -0.078793414 12762803
-0.041882001 -0.0073199305 -0.078763962 11974574
-0.040398132 -0.0076453751 -0.078734495 11447722
-0.038915306 -0.0079705659 -0.07870505 11316136
-0.037433524 -0.0082956236 -0.07867565 12170932
