# .PCD v0.7 - Point Cloud Data file format
VERSION 0.7
FIELDS x y z rgb
SIZE 4 4 4 4
TYPE F F F U
COUNT 1 1 1 1
WIDTH 1043
HEIGHT 1
VIEWPOINT 0 0 0 1 0 0 0
POINTS 1043
DATA ascii
-0.083441049 0.01489408 0.028072627 7631731
-0.081912488 0.015448788 0.028038807 9931145
-0.080392398 0.016132917 0.02796424 9865866
-0.07887271 0.016850552 0.027879283 9537158
-0.077350795 0.017569257 0.027794203 9472136
-0.075826734 0.018290058 0.027708659 6842472
-0.074304581 0.019069672 0.027604781 6776679
-0.072779991 0.019850535 0.027500734 7829110
-0.071252972 0.020632649 0.027396521 9473678
-0.069724597 0.021432556 0.027286934 9408142
-0.06819661 0.02227848 0.027163096 9473935
-0.06666597 0.023125835 0.027039047 9079177
-0.065132655 0.023974681 0.026914785 8487040
-0.063596673 0.024825016 0.026790304 7829110
-0.062064216 0.025784489 0.026631786 8552833
-0.060526334 0.026703265 0.026486324 9932944
-0.05898257 0.027568908 0.026357817 9472650
-0.057449654 0.028695488 0.026147716 9538186
-0.055915147 0.029864496 0.025924645 5789784
-0.05143581 -0.029194299 0.044573113 11645558
-0.049947765 -0.02912809 0.04468656 12302710
-0.048459701 -0.029061878 0.044800006 12302197
-0.04697163 -0.028995611 0.044913437 11183467
-0.045483541 -0.028929455 0.04502691 9474149
-0.04399544 -0.028863186 0.045140341 9739886
-0.042507328 -0.028796973 0.045253795 10137209
-0.041019201 -0.028730759 0.045367245 6004806
-0.03953106 -0.028664546 0.045480698 5610299
-0.038042907 -0.028598273 0.045594137 5610041
-0.036554739 -0.028532058 0.045707598 5609785
-0.03506656 -0.028465841 0.045821056 5741626
-0.033578366 -0.028399626 0.045934513 6465606
-0.032090157 -0.028333351 0.046047952 7255379
-0.030601935 -0.028267192 0.046161432 6728520
-0.029113702 -0.028200975 0.046274893 6860112
-0.027625456 -0.028134698 0.046388336 7517024
-0.026137196 -0.028068477 0.046501804 8303972
-0.024648922 -0.028002258 0.046615269 9943674
-0.023160635 -0.027936039 0.046728734 10140257
-0.021672335 -0.027869761 0.04684218 9548094
-0.02018402 -0.02780354 0.046955649 8952626
-0.018695693 -0.027737318 0.047069117 9014846
-0.017207352 -0.027671095 0.047182593 12171136
-0.015719 -0.027604815 0.047296043 14730900
-0.014230632 -0.02753859 0.047409516 14138754
-0.01274225 -0.027472423 0.047523003 11118983
-0.084665768 0.012021814 0.027213685 9537415
-0.083164752 0.012847197 0.02709236 6645093
-0.081661075 0.01367298 0.026971158 8815748
-0.080154769 0.014499331 0.026850009 8684419
-0.07864587 0.015327053 0.026728669 8552833
-0.077134393 0.016156262 0.026607102 9735822
-0.075622588 0.017017787 0.026475515 9078663
-0.074110053 0.017908266 0.026335001 9012870
-0.072594941 0.018803557 0.026193226 9143685
-0.071077012 0.019700572 0.026051167 9077378
-0.069556259 0.020599198 0.025908859 8223097
-0.068032667 0.021499492 0.025766289 6513507
-0.06650722 0.02241702 0.025618527 5789784
-0.064981192 0.023374224 0.025458492 6710886
-0.063450627 0.024308035 0.025306139 7894903
-0.061917108 0.025243632 0.025153492 9603722
-0.060382172 0.026208842 0.024991767 9865609
-0.058845744 0.027205098 0.024820531 10652812
-0.057306137 0.028203381 0.024648951 11502467
-0.055765379 0.02924389 0.024464356 9143685
-0.051325142 -0.029184025 0.043022089 8498023
-0.049836617 -0.029117852 0.043135583 8630116
-0.048348084 -0.029051566 0.043249041 8695909
-0.046859533 -0.028985335 0.043362524 8891497
-0.04537097 -0.028919104 0.043476004 8232037
-0.043882392 -0.028852874 0.043589484 6653780
-0.042393807 -0.028786585 0.043702945 7116633
-0.040905204 -0.028720353 0.043816436 5412928
-0.039416593 -0.028654063 0.043929901 5544763
-0.037927963 -0.028587829 0.044043384 5544763
-0.036439318 -0.028521653 0.044156887 5544762
-0.034950662 -0.02845536 0.044270363 5479227
-0.033461995 -0.028389126 0.044383846 6071621
-0.031973314 -0.028322833 0.044497319 6795345
-0.030484617 -0.028256597 0.044610806 6400070
-0.028995907 -0.028190417 0.044724323 6137156
-0.027507186 -0.028124122 0.044837795 6136898
-0.02601845 -0.028057884 0.044951286 6333509
-0.024529701 -0.027991589 0.045064762 7908195
-0.023040939 -0.02792535 0.045178264 8231520
-0.021552164 -0.02785911 0.045291759 8030811
-0.020063374 -0.027792813 0.045405235 7373657
-0.018574571 -0.02772663 0.04551876 8230751
-0.017085757 -0.027660331 0.045632239 11256957
-0.015596927 -0.02759409 0.045745738 12043892
-0.014108085 -0.027527848 0.045859236 10661217
-0.01261923 -0.027461546 0.045972727 8624247
-0.084489033 0.011193015 0.025851602 8354683
-0.082993999 0.01208032 0.025708981 5526612
-0.081499226 0.013007137 0.025553985 5131854
-0.080002427 0.013946889 0.025395133 4802889
-0.078502677 0.014888542 0.025235942 4539717
-0.076999977 0.015831983 0.025076464 7629675
-0.075494304 0.016777327 0.024916658 8812664
-0.073985666 0.017724516 0.024756547 8155505
-0.072474033 0.01867355 0.024596119 8023919
-0.070959412 0.01962449 0.024435373 8547950
-0.069441788 0.020577334 0.024274299 9402488
-0.067893721 0.021106396 0.024248449 9208193
-0.066338949 0.021554515 0.024248512 8617341
-0.064782791 0.022002 0.024248891 8156276
-0.063336931 0.02433686 0.023649318 8418934
-0.061804276 0.02529888 0.023486728 10260110
-0.060268585 0.026263094 0.023323733 8749698
-0.058729842 0.027229443 0.023160344 9538186
-0.057188023 0.028197756 0.02299661 11109251
-0.055643123 0.029168034 0.022832546 9865352
-0.051214401 -0.029173799 0.041470096 6989140
-0.049725402 -0.029107496 0.041583583 6858062
-0.048236392 -0.029041246 0.041697092 6135618
-0.046747368 -0.028974999 0.041810602 6201414
-0.045258332 -0.028908692 0.041924089 6332235
-0.043769281 -0.028842442 0.042037606 4489268
-0.042280212 -0.028776249 0.042151134 3171617
-0.040791135 -0.028709941 0.042264629 4292652
-0.039302047 -0.028643688 0.042378146 5478198
-0.037812941 -0.028577436 0.04249166 5939004
-0.036323827 -0.028511127 0.042605154 6005053
-0.034834694 -0.028444873 0.042718679 5939775
-0.03334555 -0.028378619 0.042832192 6598220
-0.031856392 -0.028312309 0.042945694 7058000
-0.030367222 -0.028246053 0.043059219 6333504
-0.028878039 -0.028179741 0.043172721 6202432
-0.027388841 -0.028113483 0.043286245 6005052
-0.02589963 -0.028047226 0.04339977 6004795
-0.024410406 -0.027980912 0.043513272 6462542
-0.022921167 -0.027914654 0.043626804 6388564
-0.021431917 -0.027848396 0.043740328 9078641
-0.019942652 -0.027782138 0.043853853 8823423
-0.018453375 -0.027715879 0.043967385 7909228
-0.016964084 -0.027649619 0.044080913 7383889
-0.015474779 -0.027583301 0.044194423 5935152
-0.013985461 -0.027517039 0.044307962 5078070
-0.01249613 -0.027450778 0.04442149 6390631
-0.084375992 0.011122916 0.024247255 6052699
-0.082843773 0.011562342 0.024247311 6645093
-0.081310242 0.012001992 0.024247406 6579300
-0.079775438 0.012442159 0.024247466 6645093
-0.078239322 0.012882606 0.024247548 8553090
-0.076701909 0.013323396 0.024247641 10130323
-0.075163208 0.01376464 0.0242477 10130323
-0.073623195 0.014206228 0.02424778 10195859
-0.072081886 0.014648213 0.024247847 10327188
-0.070539266 0.01509054 0.024247926 11243664
-0.068995342 0.015533209 0.024248015 11178899
-0.067450114 0.015976276 0.024248099 10327188
-0.065903686 0.01642146 0.024247622 10261395
-0.064356014 0.016868243 0.024246762 10064016
-0.062856972 0.018161803 0.023975231 9208450
-0.061692227 0.025369255 0.021813918 6908008
-0.060155828 0.026333848 0.021649215 6842472
-0.058616374 0.027300633 0.021484086 7039851
-0.057073835 0.028269155 0.021318698 8683648
-0.055528201 0.029239411 0.021153044 8618112
-0.051103588 -0.029163511 0.039917093 8105056
-0.049614113 -0.029097246 0.040030625 8236382
-0.04812463 -0.029030921 0.040144149 6660934
-0.046635129 -0.028964654 0.040257685 5741112
-0.045145616 -0.028898386 0.040371232 5741627
-0.043656088 -0.028832059 0.040484753 5478456
-0.04216655 -0.02876579 0.040598296 3963174
-0.040676996 -0.028699521 0.040711839 3434527
-0.039187431 -0.028633194 0.04082536 6000702
-0.037697852 -0.028566923 0.04093891 7186511
-0.036208257 -0.028500652 0.041052453 7647316
-0.034718651 -0.028434379 0.041166004 7648345
-0.033229031 -0.02836805 0.041279532 8108385
-0.031739399 -0.028301775 0.041393086 8107869
-0.030249752 -0.028235503 0.041506633 7581523
-0.028760092 -0.02816917 0.041620173 7581780
-0.02727042 -0.028102895 0.041733719 7384658
-0.025780732 -0.02803662 0.041847277 7383888
-0.024291033 -0.027970288 0.041960813 7184216
-0.022801319 -0.027904011 0.042074364 6390118
-0.021311592 -0.027837733 0.042187925 9876890
-0.019821852 -0.027771456 0.04230148 9355660
-0.0183321 -0.02770512 0.042415023 8173674
-0.016842332 -0.027638841 0.042528581 6725964
-0.015352552 -0.027572505 0.042642128 5803325
-0.013862759 -0.027506225 0.042755686 4750149
-0.012372952 -0.027439887 0.042869236 6256994
-0.083848417 0.0060975379 0.024246905 8092539
-0.082324184 0.0065324404 0.02424698 8092539
-0.080798678 0.0069676829 0.024247056 8092539
-0.07927189 0.007403323 0.024247125 8158332
-0.077743821 0.0078393044 0.024247203 9407885
-0.07621447 0.0082756821 0.024247268 9867922
-0.07468383 0.0087124025 0.024247348 9867665
-0.073151901 0.009149462 0.024247434 9802129
-0.071618684 0.0095869191 0.024247505 10392467
-0.070084177 0.010024719 0.024247592 10982291
-0.068548553 0.010465545 0.024246814 10655125
-0.067011639 0.010906942 0.024245983 10392724
-0.065473422 0.011348737 0.024245139 10392724
-0.063933894 0.011790873 0.024244299 10326931
-0.062419977 0.012690437 0.02409647 9143942
-0.06102331 0.015693855 0.023272624 5657941
-0.060035478 0.026269067 0.020016961 6118749
-0.0584943 0.027212828 0.019857617 5329233
-0.056948226 0.028121881 0.019709695 6579300
-0.055394694 0.028941358 0.019590775 6846305
-0.050992709 -0.029153218 0.038363099 6464068
-0.049502756 -0.029086934 0.038476665 6464322
-0.048012797 -0.029020591 0.038590215 5872951
-0.046522819 -0.028954305 0.038703781 5807160
-0.045032829 -0.028888017 0.038817357 5938489
-0.043542828 -0.028821731 0.038930923 5872695
-0.042052813 -0.028755384 0.039044481 5149740
-0.040562782 -0.028689096 0.03915805 4292131
-0.039072741 -0.028622806 0.039271627 9342562
-0.037582684 -0.028556516 0.039385207 11375462
-0.036092617 -0.028490113 0.039498743 12033902
-0.034602534 -0.028423822 0.039612323 12166003
-0.03311244 -0.02835753 0.0397259 12363382
-0.031622328 -0.028291238 0.039839484 12363382
-0.030132208 -0.028224889 0.039953042 12231539
-0.028642071 -0.028158596 0.040066626 12231539
-0.027151922 -0.028092302 0.040180206 12231795
-0.025661761 -0.028025949 0.040293775 12231539
-0.024171585 -0.027959598 0.040407337 11707258
-0.022681395 -0.027893303 0.040520925 9876372
-0.021191193 -0.027827006 0.040634517 10994592
-0.019700976 -0.027760711 0.040748101 12494206
-0.018210746 -0.027694413 0.040861692 11836525
-0.016720504 -0.027628059 0.040975261 11244132
-0.015230248 -0.027561704 0.041088838 10914658
-0.013739978 -0.027495405 0.041202426 8163950
-0.012249695 -0.027429106 0.041316021 7835518
-0.084841505 0.00069563463 0.024246486 8158332
-0.083326459 0.0011257941 0.024246547 8092539
-0.081810147 0.0015562379 0.024246644 8092539
-0.080292568 0.001987135 0.024246706 8158332
-0.078773722 0.0024183136 0.024246788 8487297
-0.07725361 0.0028498911 0.024246868 9407885
-0.075732224 0.0032818075 0.02424695 9407885
-0.074209571 0.0037141202 0.024247015 9342349
-0.072685696 0.0041475175 0.024246857 9473678
-0.071160682 0.0045833103 0.024246028 10392467
-0.069634385 0.0050195027 0.024245197 10786197
-0.0681068 0.0054560918 0.024244353 10458260
-0.066577934 0.0058931354 0.024243476 10392724
-0.065047987 0.00633395 0.0242415 10327188
-0.063516736 0.0067751058 0.024239535 9604750
-0.062025718 0.0079236021 0.024008904 7434609
-0.060612522 0.010504368 0.023315588 5329233
-0.059680045 0.021949248 0.019758852 5000268
-0.058126308 0.022526769 0.019715536 5197647
-0.056639928 0.024441866 0.019240607 6052956
-0.055073325 0.024881296 0.01924238 6781026
-0.050881751 -0.029142976 0.036808129 5610552
-0.049391329 -0.029076615 0.03692171 5807673
-0.047900889 -0.029010311 0.037035305 6923854
-0.046410438 -0.028943948 0.037148889 9284971
-0.044919971 -0.028877642 0.037262492 10266991
-0.043429494 -0.028811337 0.037376087 10398318
-0.041939005 -0.028744971 0.037489675 10135658
-0.040448502 -0.028678607 0.037603263 10135142
-0.03895798 -0.028612301 0.037716862 10783580
-0.037467446 -0.028545991 0.037830472 8557152
-0.035976902 -0.028479682 0.037944082 8561768
-0.034486342 -0.028413372 0.038057685 9089650
-0.032995772 -0.028346948 0.038171258 9484667
-0.031505186 -0.028280638 0.038284864 9484925
-0.030014588 -0.028214326 0.038398478 9616254
-0.028523976 -0.028148014 0.038512092 9682303
-0.027033349 -0.028081644 0.03862568 9747582
-0.02554271 -0.028015332 0.038739298 10858106
-0.024052059 -0.027948961 0.038852897 10398846
-0.022561394 -0.027882647 0.038966507 9090951
-0.021070715 -0.027816275 0.039080109 10402954
-0.019580022 -0.027749959 0.039193731 11641970
-0.018089315 -0.027683644 0.039307345 9219175
-0.016598597 -0.027617328 0.039420966 8691809
-0.015107865 -0.027550895 0.039534554 8296542
-0.013617119 -0.027484579 0.039648172 7114599
-0.01212636 -0.02741826 0.039761797 7638649
-0.084801577 -0.016394932 0.028098335 7697781
-0.083316118 -0.015972944 0.028097672 7500402
-0.081906244 -0.014629507 0.027795322 7105644
-0.081301562 -0.0033670554 0.024246287 6645093
-0.079791844 -0.0029404976 0.024246356 8158332
-0.078280859 -0.0025136585 0.024246443 8750469
-0.076768614 -0.0020864238 0.024246512 8947591
-0.075255238 -0.0016572499 0.024246069 8882055
-0.073740676 -0.0012265941 0.024245258 8881798
-0.072224863 -0.00079548382 0.02424442 9473421
-0.070707761 -0.00036403423 0.024243586 10327188
-0.069189608 7.095412e-05 0.024241712 10523796
-0.067670189 0.00050656841 0.024239751 10392724
-0.066149481 0.00094258098 0.024237784 10327188
-0.064627483 0.0013789347 0.024235826 9670543
-0.06310419 0.0018156284 0.024233872 8421504
-0.061643764 0.0033468106 0.023876023 6579300
-0.060254384 0.0062183747 0.023082851 5789784
-0.058990847 0.011553508 0.021490017 4079166
-0.057736218 0.017404806 0.01973122 4605510
-0.056191377 0.018025104 0.019672461 4013373
-0.054912258 0.024019796 0.017869994 7305578
-0.050770726 -0.029132672 0.03525215 8103016
-0.049279824 -0.029066348 0.035365779 8234345
-0.047788914 -0.028999912 0.035479367 8300139
-0.046297986 -0.028933587 0.035592996 9282671
-0.044807043 -0.028867261 0.035706628 10525293
-0.043316089 -0.028800936 0.035820264 9807216
-0.041825119 -0.028734555 0.035933871 9153134
-0.040334139 -0.028668229 0.036047507 9153384
-0.038843144 -0.028601844 0.036161125 9284452
-0.037352134 -0.028535517 0.036274765 6460743
-0.035861112 -0.028469132 0.036388379 4026167
-0.03437008 -0.028402803 0.036502019 4359236
-0.032879028 -0.028336475 0.036615659 5084755
-0.03138797 -0.028270086 0.03672928 5545562
-0.029896893 -0.028203757 0.036842916 5677661
-0.028405802 -0.028137427 0.03695656 5875038
-0.026914703 -0.028070981 0.03707017 6006624
-0.025423586 -0.028004648 0.037183814 7712629
-0.023932459 -0.02793826 0.037297435 7908472
-0.022441316 -0.027871927 0.037411083 7120228
-0.020950159 -0.027805593 0.037524734 7711589
-0.019458991 -0.027739201 0.037638366 8629349
-0.017967809 -0.027672868 0.03775201 6329922
-0.016476613 -0.027606532 0.037865661 5999676
-0.014985404 -0.02754014 0.037979297 6392391
-0.013494181 -0.027473804 0.038092948 9083516
-0.084281869 -0.021192368 0.02809947 8224125
-0.082803987 -0.020775164 0.028098989 7960953
-0.081324928 -0.020357052 0.028098328 7697781
-0.079844646 -0.019938543 0.028097644 8552576
-0.078363135 -0.0195197 0.028096963 9012099
-0.076897301 -0.018883588 0.028024944 8552062
-0.07628914 -0.0069654025 0.02424448 7565167
-0.074783653 -0.0065393662 0.024243653 8487297
-0.073277101 -0.0061101918 0.024241919 8684676
-0.071769334 -0.0056799934 0.024239963 9605007
-0.070260301 -0.0052494546 0.024238016 10392981
-0.068749987 -0.0048185769 0.024236072 10195859
-0.067238405 -0.0043873596 0.024234127 9998994
-0.06572555 -0.0039556879 0.024232158 9736336
-0.064211421 -0.0035237325 0.024230216 8816005
-0.06269601 -0.0030913807 0.024228258 7566195
-0.061273832 -0.0010433669 0.023697911 5987163
-0.059906915 0.0021020893 0.022809379 5723991
-0.058715176 0.0086320899 0.020815771 4408131
-0.057349995 0.01233182 0.019748699 3881787
-0.055811729 0.012916503 0.019699788 6379865
-0.055067759 0.02952797 0.014421214 6646366
-0.050659634 -0.02912236 0.03369518 8887660
-0.049168255 -0.02905602 0.033808831 8887405
-0.047676865 -0.028989621 0.033922475 7839082
-0.04618546 -0.028923277 0.034036133 6921060
-0.04469404 -0.028856875 0.034149777 7642215
-0.043202609 -0.028790532 0.034263443 6855778
-0.041711167 -0.02872413 0.034377087 6396766
-0.040219706 -0.028657787 0.034490746 6527837
-0.038728233 -0.028591441 0.034604412 5150026
-0.03723675 -0.028525038 0.034718059 4165436
-0.035745252 -0.028458633 0.03483171 3701813
-0.034253739 -0.028392227 0.034945361 3434549
-0.032762215 -0.02832588 0.035059031 4884034
-0.031270675 -0.028259475 0.035172675 6332755
-0.029779123 -0.028193127 0.035286348 6991711
-0.028287558 -0.02812672 0.035400003 7255141
-0.026795978 -0.028060369 0.035513677 6599004
-0.025304386 -0.027994018 0.035627354 7386219
-0.02381278 -0.027927609 0.035741013 7055210
-0.022321161 -0.02786126 0.035854682 4951117
-0.020829529 -0.027794849 0.035968341 5017161
-0.019337883 -0.027728496 0.036082022 6067023
-0.017846223 -0.027662085 0.036195684 5015101
-0.016354552 -0.027595732 0.036309365 4685366
-0.014862864 -0.02752932 0.036423028 5078334
-0.013371164 -0.027462965 0.036536705 9144440
-0.083767869 -0.025936414 0.028099585 8158332
-0.082297452 -0.025524385 0.028099453 8224125
-0.080825821 -0.025112022 0.028099317 8487297
-0.079353042 -0.024698634 0.028098961 10196116
-0.077879108 -0.024283998 0.028098298 10196116
-0.076403975 -0.023868967 0.028097615 10130323
-0.074927442 -0.023455823 0.028097678 9932687
-0.073449567 -0.023044055 0.028098296 10585734
-0.071970485 -0.022631951 0.028098928 9602694
-0.07131885 -0.010509601 0.024234369 8946049
-0.06981755 -0.010083339 0.024232419 10064787
-0.068314984 -0.0096567357 0.024230486 9605007
-0.066811167 -0.0092297373 0.024228534 9342092
-0.065306082 -0.0088024568 0.024226602 8947591
-0.063799739 -0.0083747823 0.024224646 8289918
-0.062314618 -0.0075728013 0.024099628 7368816
-0.060907356 -0.005392516 0.023521448 6052956
-0.059586115 -0.0015607016 0.022400929 4737096
-0.058442526 0.0057531414 0.020137291 3684408
-0.057001669 0.0079492657 0.019557035 4934475
-0.055517029 0.009438863 0.019209417 9400432
-0.054952424 0.029600158 0.012735036 7242852
-0.050548468 -0.029112045 0.032137208 6791768
-0.049056612 -0.029045684 0.032250896 7053661
-0.047564745 -0.028979266 0.032364566 6593880
-0.046072863 -0.028912904 0.032478258 5806413
-0.044580966 -0.028846486 0.032591932 5610057
-0.043089058 -0.028780121 0.032705624 5741642
-0.041597135 -0.028713701 0.032819297 6857562
-0.040105201 -0.028647337 0.032932993 7382111
-0.038613252 -0.028580915 0.03304667 5151296
-0.037121288 -0.028514551 0.033160366 6004301
-0.035629313 -0.028448129 0.033274043 6856534
-0.034137323 -0.028381763 0.033387743 6788183
-0.032645322 -0.028315337 0.033501424 6652755
-0.031153306 -0.028248971 0.033615127 6980438
-0.029661277 -0.028182548 0.033728801 7440476
-0.028169235 -0.028116122 0.033842485 7638368
-0.026677178 -0.028049752 0.033956189 6195281
-0.025185108 -0.027983326 0.034069877 6195283
-0.023693025 -0.027916955 0.03418358 6457947
-0.022200929 -0.027850527 0.034297273 4423752
-0.02070882 -0.027784158 0.03441098 5540948
-0.019216698 -0.027717728 0.034524668 6195541
-0.017724561 -0.027651355 0.034638379 5998161
-0.01623241 -0.027584925 0.034752071 5275211
-0.014740247 -0.027518494 0.034865767 3500601
-0.01324807 -0.027452121 0.034979478 8291966
-0.011910668 0.052737895 0.0091458326 8360318
-0.084721208 -0.031036086 0.028099021 8158332
-0.083259381 -0.030629279 0.028099161 8158332
-0.081796356 -0.030222194 0.028099317 8224125
-0.080332145 -0.029814715 0.028099449 9407885
-0.078866802 -0.029406045 0.028099298 9999251
-0.077400267 -0.028997036 0.028099151 9933458
-0.075932547 -0.028587462 0.028098922 9867922
-0.074463718 -0.028176241 0.028098257 10392467
-0.072993629 -0.027765483 0.028097859 10916755
-0.071522102 -0.027357467 0.028098485 10654868
-0.070049375 -0.026949115 0.028099105 10326931
-0.068575598 -0.026538314 0.028099032 10261138
-0.067100652 -0.026126551 0.028098743 9801358
-0.065654531 -0.025254605 0.027946047 8487040
-0.06489078 -0.013602 0.024222231 7368816
-0.06339182 -0.013183733 0.024222013 8026746
-0.061945152 -0.011873497 0.023926694 7303023
-0.060544282 -0.0097013554 0.023346666 5658198
-0.059268989 -0.0051739542 0.02198858 4276545
-0.058083955 0.0012915555 0.019991439 3355443
-0.056569539 0.0019636317 0.01991 7299939
-0.055128671 0.0041147834 0.01934042 9135975
-0.054836988 0.029672246 0.011047594 5930325
-0.050437231 -0.029101782 0.030578263 4494139
-0.048944898 -0.029035345 0.030691963 6266194
-0.04745255 -0.028968908 0.030805664 7381086
-0.045960195 -0.028902469 0.030919366 6790999
-0.044467818 -0.028836144 0.03103311 5281858
-0.042975433 -0.028769705 0.031146815 5479236
-0.041483033 -0.028703269 0.031260513 7251804
-0.039990619 -0.028636884 0.031374242 8105061
-0.038498197 -0.028570443 0.031487949 6465359
-0.037005756 -0.028504003 0.031601656 7253082
-0.035513304 -0.028437618 0.031715386 8105573
-0.034020837 -0.028371176 0.031829093 8236648
-0.032528356 -0.028304791 0.031942822 7971686
-0.031035863 -0.028238349 0.032056533 6981981
-0.029543357 -0.028171904 0.032170247 6453336
-0.028050836 -0.028105518 0.03228398 6254675
-0.026558302 -0.028039072 0.032397695 4481087
-0.025065757 -0.027972626 0.032511409 4218429
-0.023573196 -0.027906237 0.032625146 6387799
-0.022080623 -0.027839791 0.032738864 7181151
-0.020588035 -0.027773401 0.032852601 8493418
-0.019095432 -0.027707011 0.032966338 6589780
-0.01760282 -0.027640563 0.03308006 6457938
-0.016110193 -0.027574113 0.033193782 5800781
-0.01461755 -0.027507721 0.033307523 3237679
-0.013124896 -0.027441271 0.033421248 5407093
-0.011766016 0.047532972 0.0091393972 8161404
-0.010141484 0.047988784 0.0091383271 10653840
-0.0085130343 0.049918402 0.0086578829 10525338
-0.084216602 -0.035608411 0.02807585 8158332
-0.082758166 -0.035250377 0.02809101 8224125
-0.0813004 -0.034871999 0.028099446 8421504
-0.079843692 -0.034467403 0.028099213 9473678
-0.078385793 -0.034062527 0.028098984 9473678
-0.076926678 -0.033657659 0.028098876 9407885
-0.075466305 -0.033253253 0.028099028 9539214
-0.074004792 -0.032847997 0.028099008 10458003
-0.072542116 -0.032442067 0.028098868 10851733
-0.071078353 -0.032034311 0.028098239 10458260
-0.069613159 -0.031629417 0.028098667 10392467
-0.06814684 -0.031223388 0.028098833 10261395
-0.066679388 -0.030815996 0.028098647 9736336
-0.065210737 -0.030408269 0.028098464 8750469
-0.063740887 -0.030000202 0.028098278 9013127
-0.062280893 -0.02941248 0.028038392 10325646
-0.060830995 -0.0286252 0.027912257 7827825
-0.060217094 -0.013410763 0.022987368 5658198
-0.058968849 -0.0085012093 0.021493467 4144959
-0.057718236 -0.0033209673 0.019911153 4539460
-0.056198791 -0.002887991 0.019907314 9002847
-0.05483035 0.00052859762 0.018913053 8017494
-0.054721463 0.029744403 0.009358841 2773804
-0.050325923 -0.029091455 0.029018303 4428872
-0.048833113 -0.029025 0.029132033 6659938
-0.047340289 -0.028958544 0.029245762 9147753
-0.045847453 -0.028892143 0.029359519 8949603
-0.044354603 -0.028825687 0.029473251 6986081
-0.042861741 -0.02875923 0.029586984 6068570
-0.041368861 -0.028692771 0.029700719 5477975
-0.039875969 -0.028626427 0.029814489 6003291
-0.038383067 -0.028559968 0.029928226 4559177
-0.036890149 -0.028493509 0.030041963 3574587
-0.035397217 -0.028427048 0.030155702 4034369
-0.033904273 -0.028360642 0.030269464 6332510
-0.032411315 -0.028294181 0.030383205 7251306
-0.030918347 -0.02822772 0.030496947 4820815
-0.029425362 -0.028161258 0.03061069 3767617
-0.027932361 -0.028094908 0.03072447 3437114
-0.02643935 -0.028028445 0.030838214 3041587
-0.024946326 -0.027961981 0.030951958 2909745
-0.023453288 -0.027895516 0.031065706 5078861
-0.021960236 -0.027829107 0.031179478 7312737
-0.020467171 -0.02776264 0.031293228 6065489
-0.018974094 -0.027696174 0.031406976 4028466
-0.017481001 -0.027629707 0.031520728 3502379
-0.015987894 -0.027563354 0.031634513 3895343
-0.014494776 -0.027496886 0.031748269 5799756
-0.013001644 -0.027430417 0.03186202 3042398
-0.01162284 0.042352863 0.009142871 7634031
-0.010006877 0.042803276 0.0091420934 8549749
-0.0083895633 0.043254033 0.0091413092 7434352
-0.0067709018 0.043705191 0.0091405213 6776679
-0.0051508904 0.044156693 0.0091397567 9867408
-0.083787054 -0.039340764 0.027785342 8289918
-0.082321696 -0.039133832 0.02785033 8355711
-0.080856457 -0.038919412 0.027912829 8816262
-0.079396971 -0.038628981 0.02794979 9079177
-0.077940285 -0.038293991 0.027971826 9013384
-0.076481663 -0.037971281 0.027998082 8947848
-0.075022124 -0.037648354 0.028024361 9539471
-0.073561683 -0.037325222 0.028050635 10392724
-0.072100326 -0.037001882 0.028076934 10524053
-0.070639066 -0.036664527 0.028098604 10458260
-0.06918136 -0.036262687 0.028098721 10392724
-0.067722514 -0.035859939 0.028098654 9736336
-0.066263437 -0.03544265 0.028093815 8750212
-0.064809225 -0.034931187 0.028057534 8421504
-0.063359603 -0.034322158 0.027988704 9539214
-0.061913777 -0.033619989 0.027888888 10064530
-0.06047336 -0.032789405 0.027746286 10130066
-0.059045166 -0.031701066 0.027517725 9604750
-0.057635892 -0.030211793 0.027155463 5921113
-0.057366088 -0.0077050412 0.019770538 5788756
-0.055953592 -0.0053794063 0.019133216 8284007
-0.054520987 -0.0032916279 0.018576035 5261127
-0.051707819 -0.029147539 0.027343579 2050593
-0.050214548 -0.029081067 0.027457329 6730090
-0.048721258 -0.029014651 0.027571104 7714167
-0.047227956 -0.028948175 0.027684871 10140565
-0.04573464 -0.028881697 0.02779864 9742977
-0.044241313 -0.028815279 0.027912419 8957565
-0.042747971 -0.028748805 0.028026175 7841648
-0.041254614 -0.028682327 0.028139945 6134877
-0.039761245 -0.028615907 0.028253729 6134622
-0.038267862 -0.028549485 0.028367512 4821582
-0.036774468 -0.028483005 0.028481286 4429130
-0.035281058 -0.028416527 0.028595045 6400616
-0.033787638 -0.028350048 0.028708821 7121519
-0.032294203 -0.028283568 0.028822584 8171128
-0.030800752 -0.028217142 0.028936388 4494412
-0.029307287 -0.028150719 0.029050177 3114553
-0.027813813 -0.028084237 0.029163944 2982454
-0.026320323 -0.028017754 0.029277725 2916405
-0.024826819 -0.027951272 0.029391492 3704386
-0.023333304 -0.027884787 0.029505275 5148760
-0.021839773 -0.027818361 0.02961907 6789484
-0.02034623 -0.027751934 0.029732866 6853480
-0.018852673 -0.027685447 0.029846653 5341266
-0.017359104 -0.027618963 0.029960426 4421188
-0.01586552 -0.027552474 0.030074215 4551493
-0.014371923 -0.027486045 0.030188015 7830367
-0.012878313 -0.027419556 0.030301806 4293506
-0.011470957 0.030386932 0.011399213 6909281
-0.0098755108 0.030855814 0.011389775 5263183
-0.0082786502 0.031325042 0.01138035 3881787
-0.0066803684 0.031794786 0.011370878 3881787
-0.0050806692 0.032264877 0.011361433 3947580
-0.0034795462 0.03273537 0.011351977 3947580
-0.0018769989 0.033206381 0.011342489 4013116
-0.00027302752 0.033677738 0.011333014 5920856
0.0013323735 0.034149557 0.011323518 10254456
0.0029392056 0.034621775 0.01131401 9793391
0.0045474665 0.035094343 0.011304532 11304060
-0.084885344 -0.042519104 0.027185427 8487297
-0.08341907 -0.04238297 0.027273651 8487297
-0.08195322 -0.04223885 0.027359212 8684676
-0.080492273 -0.042033173 0.027423942 8750469
-0.079030834 -0.041827366 0.027488664 8816005
-0.077568889 -0.04162148 0.027553411 8816262
-0.076106891 -0.041409757 0.027616236 8882055
-0.0746461 -0.041175555 0.027671518 9605264
-0.073184706 -0.040941328 0.027726831 10393238
-0.071722701 -0.040706959 0.027782155 10327702
-0.0702601 -0.040472452 0.027837491 10064787
-0.068797447 -0.040229995 0.027890194 9933715
-0.067356698 -0.039658338 0.027831919 9079177
-0.065912977 -0.039104223 0.027779736 8421504
-0.064463608 -0.038610257 0.027747964 8421504
-0.063031465 -0.037819318 0.027616311 9473678
-0.061596829 -0.037026953 0.027484434 9342349
-0.06016513 -0.036142021 0.027321624 10393752
-0.058753043 -0.034867693 0.027028114 10196630
-0.057343163 -0.033477601 0.02669609 10196116
-0.055934925 -0.031970747 0.026325269 10129295
-0.055494908 -0.011943899 0.019735195 8285035
-0.054466691 -0.0021078361 0.016572352 3815223
-0.05159685 -0.029137222 0.025781594 4286012
-0.050103094 -0.029070729 0.025895381 5876059
-0.048609331 -0.029004237 0.02600917 5677658
-0.047115549 -0.028937802 0.026122969 6793579
-0.045621753 -0.028871365 0.026236784 6398307
-0.044127945 -0.02880487 0.026350576 6660708
-0.042634126 -0.02873843 0.026464393 6462559
-0.041140292 -0.028671935 0.026578186 5544020
-0.039646447 -0.028605439 0.026691981 5347156
-0.038152587 -0.028538942 0.026805775 4690765
-0.036658712 -0.028472502 0.026919598 4362567
-0.035164826 -0.028406003 0.027033394 5874269
-0.033670925 -0.028339505 0.027147193 6267746
-0.032177009 -0.028273007 0.027260993 7581811
-0.030683082 -0.028206563 0.027374817 3968066
-0.029189141 -0.028140062 0.027488619 2719792
-0.027695186 -0.028073562 0.027602421 2719535
-0.026201218 -0.02800706 0.027716225 3639359
-0.024707237 -0.027940616 0.027830055 5413213
-0.023213243 -0.027874112 0.027943861 6463597
-0.021719234 -0.02780761 0.028057666 7578745
-0.020225214 -0.027741104 0.028171489 8495229
-0.018731177 -0.027674658 0.028285308 8428155
-0.017237129 -0.027608154 0.028399117 7374948
-0.015743067 -0.027541649 0.028512929 6782296
-0.014248992 -0.027475141 0.028626755 9661267
-0.012754902 -0.027408693 0.028740577 7442319
-0.011335691 0.028216606 0.010454338 5722963
-0.0097436728 0.028319072 0.010565152 4736839
-0.0081515275 0.028421544 0.010675977 4736839
-0.0065592583 0.028523961 0.010786821 4868425
-0.0049666851 0.028657733 0.010887329 4934218
-0.0033738255 0.028798204 0.010985643 5000011
-0.0017807053 0.0289388 0.011083926 4342338
-0.00018718209 0.029092336 0.011177964 6314843
0.001407414 0.029306246 0.011252115 8743016
0.0030062096 0.029773999 0.011242613 8611173
0.0046064202 0.030242098 0.011233124 7168867
0.0062099216 0.030814469 0.011189425 5723477
0.0078326305 0.03226804 0.010855727 6117464
-0.084556058 -0.045082051 0.02652115 8553090
-0.08309333 -0.044952035 0.026610961 8816262
-0.081630372 -0.044821952 0.026700767 9868436
-0.080167159 -0.044691917 0.026790615 9868436
-0.078703716 -0.044561755 0.026880447 9933972
-0.077240027 -0.044431642 0.026970308 9868436
-0.075776093 -0.044301517 0.027060203 9736850
-0.074311927 -0.044171326 0.027150091 9736850
-0.072847515 -0.044041127 0.027239982 9999508
-0.071384743 -0.043885328 0.02732121 9605521
-0.069931239 -0.043596093 0.02735718 9210763
-0.068477891 -0.043293085 0.027388556 9013641
-0.067028798 -0.04291537 0.027394662 8684676
-0.065598398 -0.042240035 0.027299991 8487297
-0.064168394 -0.041525159 0.027192112 8553090
-0.062743962 -0.040685091 0.027042063 8487297
-0.061324168 -0.039724316 0.026851386 9013384
-0.059904315 -0.038711172 0.026643308 11115676
-0.058483716 -0.037652496 0.026420113 11311513
-0.057064373 -0.036508292 0.026168345 11572886
-0.055657692 -0.035059813 0.025814131 11899281
-0.05425065 -0.033524543 0.025431043 10196116
-0.054456219 -5.1355826e-05 0.014268782 6376524
-0.051485803 -0.029126957 0.024218624 4882500
-0.049991574 -0.02906039 0.024332423 6861162
-0.048497327 -0.028993936 0.024446258 5414482
-0.047003068 -0.028927421 0.024560085 6662503
-0.045508798 -0.028860908 0.024673911 4822343
-0.04401451 -0.028794453 0.02478775 5479251
-0.042520214 -0.028727939 0.024901565 6463328
-0.041025899 -0.028661424 0.025015395 6529123
-0.039531574 -0.028594967 0.025129236 5544021
-0.038037237 -0.02852845 0.025243068 4689994
-0.036542885 -0.028461933 0.025356902 5018190
-0.035048515 -0.028395474 0.025470745 6135388
-0.033554137 -0.028328955 0.02558458 5544023
-0.032059744 -0.028262438 0.025698403 8041853
-0.030565338 -0.028195919 0.02581224 4032833
-0.029070919 -0.028129399 0.025926078 3506744
-0.027576486 -0.028062882 0.026039902 3506744
-0.026082039 -0.027996359 0.026153743 5806688
-0.024587579 -0.027929896 0.026267596 5346391
-0.023093106 -0.027863374 0.026381437 5411415
-0.021598618 -0.027796851 0.02649528 8301702
-0.020104118 -0.027730387 0.026609136 8167804
-0.018609604 -0.027663864 0.026722966 6063194
-0.017115077 -0.02759734 0.026836812 7966320
-0.015620534 -0.027530873 0.02695067 6125907
-0.014125981 -0.027464349 0.027064519 9727574
-0.012631414 -0.027397823 0.027178369 8556433
-0.011202703 0.027481088 0.0090386076 7495005
-0.0096115302 0.027505362 0.0091753062 9394521
-0.0080204615 0.027549241 0.0093054743 9394521
-0.0064294711 0.027593456 0.0094355149 9394521
-0.0048385635 0.027637672 0.0095655639 9394521
-0.0032477321 0.027681824 0.0096956166 9330013
-0.001656852 0.027739756 0.0098210797 5262412
-6.5975153e-05 0.02780026 0.0099456925 3026478
0.0015252915 0.027892679 0.01005971 3355443
0.0031166791 0.027987277 0.010173033 3684408
0.0047081662 0.028081877 0.010286348 3487029
0.0063004135 0.02821275 0.010387645 3552822
0.0079007335 0.02873761 0.010358538 5789013
0.0095193349 0.030030856 0.01007528 7102046
-0.084250815 -0.047382649 0.025775433 8882055
-0.082788333 -0.047291066 0.025877962 9868436
-0.081325755 -0.04719948 0.025980501 11050397
-0.079863071 -0.047107834 0.02608302 10984861
-0.078400277 -0.047016241 0.026185576 10853532
-0.076937869 -0.046918437 0.026286012 10656924
-0.075477846 -0.046788841 0.026375594 10000022
-0.074017584 -0.046659235 0.026465194 9802643
-0.072557472 -0.046524435 0.026553042 9868436
-0.071098432 -0.046371508 0.026634708 9145227
-0.069652274 -0.046034589 0.026653631 8618883
-0.068212114 -0.04559803 0.026638636 8553090
-0.066770673 -0.045160845 0.026623549 8553090
-0.065338917 -0.044557825 0.02655207 8553090
-0.063911743 -0.043854356 0.026446547 8553090
-0.062482361 -0.043149825 0.02634087 8487297
-0.061063208 -0.04224062 0.026165735 10327959
-0.059645519 -0.041256379 0.025965367 12291726
-0.058239207 -0.040017799 0.025678804 12550529
-0.056829371 -0.038767699 0.025388708 12810103
-0.055415519 -0.037514057 0.025097795 12616065
-0.054014392 -0.035936348 0.024697237 10787739
-0.052617293 -0.03417268 0.024234049 8684162
-0.051374685 -0.029116632 0.022654632 5472076
-0.049879979 -0.029050045 0.022768468 6269019
-0.048385255 -0.028983571 0.02288234 4494654
-0.04689052 -0.028917041 0.022996189 6071387
-0.045395765 -0.028850509 0.023110038 5019210
-0.043901 -0.028784033 0.023223912 6135386
-0.042406224 -0.028717501 0.023337765 7970921
-0.040911432 -0.028650967 0.023451617 8954739
-0.03941663 -0.028584432 0.023565484 7906671
-0.037921809 -0.028517952 0.023679363 7117668
-0.03642698 -0.028451419 0.023793219 7183206
-0.034932137 -0.028384827 0.02390705 7774575
-0.033437278 -0.028318347 0.024020933 7511402
-0.031942405 -0.02825181 0.024134791 9154950
-0.03044752 -0.028185271 0.024248665 6723679
-0.028952619 -0.028118791 0.024362536 6461021
-0.027457708 -0.028052252 0.024476413 6460765
-0.025962781 -0.02798577 0.024590285 7708532
-0.024467843 -0.027919173 0.024704138 6856042
-0.022972891 -0.027852634 0.024818003 5870942
-0.021477925 -0.027786149 0.024931895 7053171
-0.019982945 -0.027719608 0.02504576 6590826
-0.018487951 -0.027653066 0.025159629 5274452
-0.016992945 -0.027586579 0.025273522 4025153
-0.015497927 -0.027519979 0.025387382 1724956
-0.014002893 -0.027453491 0.025501277 9208167
-0.012507846 -0.027386948 0.02561515 5869972
-0.011070569 0.027427312 0.0073962756 9396320
-0.0094790254 0.027428299 0.0075408919 8217186
-0.0078877127 0.027429273 0.0076854755 8085600
-0.0062966319 0.027430298 0.0078300312 7495262
-0.0047057834 0.027431313 0.0079745688 5196876
-0.003115165 0.027432317 0.0081190886 5262412
-0.0015247803 0.027433312 0.0082635898 3881530
6.5373817e-05 0.027434353 0.0084080491 2829099
0.0016552964 0.027435329 0.0085525149 2829099
0.0032449872 0.027436296 0.0086969631 2763306
0.0048344475 0.027437307 0.0088413684 2697513
0.0064251148 0.027516894 0.0089595951 2565927
0.0080187004 0.027739527 0.0090301894 4998983
0.0096212905 0.028349202 0.0089720367 8346973
0.011249427 0.029960377 0.0085809473 8082002
-0.08395049 -0.049633659 0.025020191 10000022
-0.082491532 -0.049542349 0.025122441 11508635
-0.081032462 -0.049451094 0.02522471 12226961
-0.079573289 -0.049359776 0.025326962 11639450
-0.078114018 -0.049268451 0.025429238 10918297
-0.076654628 -0.049177181 0.02553153 10721689
-0.075195141 -0.049085852 0.025633808 9802643
-0.07373555 -0.048994515 0.025736107 10327959
-0.072281405 -0.048829198 0.025812993 10984347
-0.070829235 -0.048632082 0.025879001 9408399
-0.069388889 -0.048263274 0.025886141 8618883
-0.067952059 -0.047828574 0.025870768 8553090
-0.066513263 -0.047403101 0.025858684 8553090
-0.065089509 -0.046731625 0.025762437 8553090
-0.063665487 -0.046030723 0.025656294 8553090
-0.062239222 -0.045329437 0.025550229 8487297
-0.060822949 -0.044427246 0.025375621 11769494
-0.059408508 -0.043443833 0.025173517 12812159
-0.058005203 -0.04220986 0.024886044 12942974
-0.056598049 -0.040970359 0.024597066 12877438
-0.05518692 -0.039727259 0.02430724 12094347
-0.053788003 -0.038169771 0.02391047 10524567
-0.052391935 -0.036450613 0.023459019 10064787
-0.051067032 -0.033147085 0.022467757 9078907
-0.04976831 -0.029039754 0.021203527 7253350
-0.048273113 -0.028973145 0.0213174 5874516
-0.046777893 -0.028906653 0.021431295 7714163
-0.045282666 -0.028840102 0.021545181 6136154
-0.04378742 -0.028773552 0.021659054 6398302
-0.042292163 -0.028707055 0.021772966 8298603
-0.040796895 -0.028640447 0.021886831 10851183
-0.039301608 -0.028573951 0.022000732 10785392
-0.037806313 -0.028507397 0.022114621 10522219
-0.036311001 -0.0284409 0.022228526 10326381
-0.034815677 -0.028374286 0.022342408 10326639
-0.033320341 -0.028307734 0.022456286 9866342
-0.031824987 -0.028241232 0.022570208 10195052
-0.030329624 -0.028174676 0.022684105 9602396
-0.028834246 -0.02810812 0.022797987 9668191
-0.027338855 -0.028041562 0.022911886 9800549
-0.025843451 -0.027975004 0.023025785 9800553
-0.02434803 -0.027908502 0.023139697 8889213
-0.0228526 -0.027841887 0.023253571 6789995
-0.021357154 -0.027775383 0.0233675 6394984
-0.019861694 -0.027708825 0.02348139 5473368
-0.018366221 -0.027642261 0.023595294 6720615
-0.016870737 -0.0275757 0.023709198 3500089
-0.015375237 -0.027509196 0.023823116 1791004
-0.013879724 -0.027442632 0.023937024 4420427
-0.012384198 -0.027376013 0.024050908 9143944
-0.01093842 0.027428182 0.0057347226 6445401
-0.0093463939 0.027429208 0.005879479 5262669
-0.0077545987 0.027430225 0.0060242177 6510937
-0.0061630383 0.027431175 0.0061689634 6445401
-0.0045717093 0.027432175 0.0063136807 2894892
-0.0029806113 0.027433218 0.0064583402 2829099
-0.0013897449 0.027434254 0.006602997 2829099
0.00020088824 0.027435225 0.0067476607 2894892
0.0017912907 0.027436184 0.0068922918 2894892
0.0033814628 0.027437245 0.0070368699 2894892
0.0049714013 0.027438244 0.0071814549 2894892
0.0065611131 0.027439402 0.0073259622 2894892
0.0081504844 0.027435234 0.0074722334 4407874
0.0097455699 0.027702158 0.0075277663 6379351
0.011355248 0.028553618 0.0073878681 6443602
-0.083651505 -0.051875077 0.024269015 11116447
-0.082196072 -0.051783752 0.024370873 12748679
-0.080740541 -0.05169237 0.024472715 12877181
-0.079284899 -0.051601037 0.024574591 11442328
-0.077829137 -0.051509812 0.024676526 10327702
-0.076373257 -0.051418815 0.024778526 10327702
-0.074917272 -0.051327754 0.02488054 9802643
-0.073461175 -0.051236745 0.024982557 10983833
-0.072012037 -0.051051684 0.02505211 11704986
-0.070564307 -0.050841372 0.025113007 10065558
-0.06912677 -0.05048123 0.025122249 9276556
-0.0676926 -0.050057497 0.025109654 9342606
-0.066258661 -0.049611609 0.02508954 9408399
-0.064840779 -0.048902597 0.02497891 9408399
-0.06342037 -0.04819702 0.024869662 8553090
-0.061997201 -0.04749909 0.024763262 8750469
-0.060584351 -0.046594679 0.024586027 12161425
-0.059175324 -0.045574948 0.024369417 12880265
-0.057772964 -0.044379763 0.02409281 12946315
-0.056368724 -0.043146122 0.023803364 12683143
-0.05496205 -0.041880567 0.023503326 11833231
-0.053568121 -0.040288005 0.023091456 11440786
-0.052176103 -0.03854949 0.022630012 11309971
-0.050780352 -0.036765527 0.022153521 9933715
-0.049656577 -0.029029343 0.019637551 6784095
-0.048160892 -0.028962832 0.019751484 4757821
-0.046665199 -0.028896205 0.019865379 4821825
-0.045169491 -0.028829692 0.019979313 4755778
-0.043673765 -0.028763123 0.020093223 6134870
-0.042178031 -0.028696552 0.020207133 5213509
-0.040682279 -0.028630037 0.020321069 6394965
-0.039186519 -0.028563408 0.02043497 8756590
-0.03769074 -0.028496891 0.02054891 9017709
-0.036194947 -0.02843032 0.020662824 6460249
-0.034699146 -0.028363688 0.020776728 6526043
-0.03320333 -0.028297171 0.02089067 5803344
-0.031707499 -0.028230596 0.021004587 6394969
-0.030211654 -0.02816402 0.021118522 7703385
-0.028715797 -0.028097445 0.021232441 8361575
-0.027219925 -0.028030924 0.021346387 7051618
-0.02572404 -0.027964292 0.021460284 5408842
-0.024228141 -0.027897771 0.021574231 5606741
-0.02273223 -0.027831135 0.021688145 6264161
-0.021236304 -0.027764613 0.021802094 6395236
-0.019740365 -0.027698034 0.021916021 7314289
-0.018244416 -0.027631452 0.022029962 9016690
-0.016748449 -0.027564874 0.022143889 7440222
-0.01525247 -0.02749835 0.022257844 2580263
-0.013756477 -0.027431712 0.022371748 7241827
-0.012260471 -0.027365187 0.022485705 9732222
-0.010806195 0.027437504 0.0040692813 3026478
-0.0092136795 0.027430348 0.0042169695 3947580
-0.0076214056 0.027431119 0.0043619587 6773081
-0.0060293633 0.027432112 0.0045068595 7429469
-0.0044375514 0.02743315 0.0046517169 4670789
-0.0028459742 0.027434181 0.0047965711 4671046
-0.0012546262 0.027435141 0.0049414034 4671046
0.00033648993 0.02743615 0.0050862073 4670789
0.0019273711 0.027437152 0.0052310079 4605253
0.0035180233 0.027438141 0.005375776 4539460
0.0051084417 0.027439121 0.0055205263 4473667
0.0066986317 0.027440147 0.0056652338 4473667
0.0082886918 0.027446369 0.0058081914 3947323
0.0098783309 0.027443031 0.0059543229 3092271
0.011481227 0.02800452 0.0059105093 4078909
-0.084805772 -0.054196987 0.023419943 12032409
-0.083353937 -0.054105882 0.02352149 12359832
-0.081901997 -0.054014828 0.023623072 12880265
-0.080449939 -0.053923827 0.023724673 12224905
-0.078997783 -0.053832766 0.023826271 10393752
-0.077545524 -0.053741641 0.023927853 9408399
-0.07609316 -0.053650573 0.024029452 9736850
-0.074640684 -0.053559497 0.024131075 10065301
-0.073188454 -0.053463861 0.024231127 11572886
-0.071744911 -0.053250581 0.02429034 12096403
-0.070300631 -0.05304018 0.024350597 10985118
-0.068865299 -0.052696843 0.024364796 10460316
-0.067434035 -0.052280877 0.024353908 10525852
-0.066008002 -0.051769216 0.024309976 10657181
-0.064593188 -0.051063616 0.024199022 9934229
-0.063176163 -0.050356783 0.024087841 8553090
-0.061756302 -0.049658682 0.0239799 9408142
-0.060349077 -0.048715435 0.023787361 11312027
-0.05894319 -0.047696479 0.023568951 11181212
-0.057541795 -0.046539661 0.0233032 10656153
-0.056140497 -0.045311131 0.023013042 12030867
-0.054740608 -0.043979153 0.022687541 12356748
-0.053349208 -0.042396944 0.02227612 12746623
-0.051959846 -0.040666547 0.021814065 11703444
-0.050567869 -0.038867988 0.021329055 9473678
-0.049173623 -0.036985915 0.020815834 7368816
-0.048048608 -0.028952399 0.018184533 7773547
-0.046552435 -0.028885812 0.018298477 6463831
-0.045056242 -0.028819278 0.018412448 4032050
-0.043560043 -0.028752632 0.01852637 5411399
-0.042063821 -0.028686101 0.018640326 3701804
-0.040567592 -0.028619509 0.018754276 4227125
-0.039071351 -0.028552918 0.018868225 5737805
-0.037575092 -0.028486326 0.018982174 5737292
-0.036078822 -0.028419733 0.019096127 3963956
-0.03458254 -0.028353142 0.019210078 4423739
-0.033086244 -0.02828655 0.019324018 4095029
-0.031589933 -0.028219955 0.019437972 5343816
-0.030093608 -0.02815336 0.019551927 5145921
-0.028597271 -0.028086765 0.019665884 6000208
-0.027100917 -0.028020229 0.019779852 5015361
-0.025604554 -0.027953632 0.01989381 4160562
-0.024108175 -0.027887035 0.020007771 6656603
-0.022611784 -0.027820438 0.020121731 8429684
-0.021115379 -0.027753839 0.020235693 9020797
-0.01961896 -0.02768724 0.020349655 8888696
-0.01812253 -0.027620642 0.020463619 7965794
-0.016626082 -0.027554044 0.02057757 8290142
-0.015129624 -0.027487444 0.020691536 4874292
-0.013633152 -0.027420899 0.020805528 5734750
-0.012136666 -0.02735424 0.02091947 5470580
-0.010673878 0.027435688 0.0024065629 3421236
-0.0090808775 0.027437825 0.0025512807 6511451
-0.0074881087 0.027439155 0.0026962587 9854301
-0.0058956053 0.027433047 0.0028437299 9919323
-0.0043033133 0.027434012 0.0029887776 9987172
-0.0027112514 0.027435083 0.0031337722 9986915
-0.0011194249 0.027436027 0.0032787842 10052451
0.00047217126 0.027437078 0.0034237429 10052708
0.0020635359 0.027438063 0.0035687089 10118244
0.0036546681 0.027439093 0.0037136318 10117987
0.0052455673 0.027440058 0.0038585619 10183523
0.0068362369 0.027441125 0.0040034242 10183523
0.0084267408 0.027445499 0.0041471557 7825255
0.010017107 0.027453406 0.0042896587 3947580
0.011614432 0.027759122 0.0043314546 4934218
0.013258738 0.029851571 0.0037694755 9996424
-0.084506162 -0.056416806 0.022676265 11639964
-0.083057798 -0.056326024 0.022777561 11706014
-0.081609316 -0.056235299 0.022878878 12228246
-0.080160737 -0.056144513 0.022980178 11899795
-0.078712054 -0.05605372 0.023081485 10131351
-0.077263258 -0.05596298 0.023182826 9736850
-0.075814404 -0.05587161 0.023283955 9999765
-0.074365459 -0.055780005 0.023385018 10459288
-0.072917245 -0.055677589 0.023482317 12226190
-0.071475133 -0.055491526 0.023550432 12422798
-0.070034504 -0.055279098 0.023609383 11771550
-0.068605095 -0.054901678 0.023610856 11640735
-0.067177184 -0.054486707 0.023599347 11706271
-0.065755732 -0.05395769 0.023548203 11837600
-0.064345472 -0.053233821 0.023429381 9737107
-0.062932789 -0.052511103 0.023311179 8487297
-0.061516501 -0.051808387 0.023200132 9473935
-0.060115103 -0.050822683 0.022990901 9539728
-0.058712099 -0.049808487 0.022772072 8684676
-0.057311688 -0.048689727 0.02251721 9276556
-0.055915192 -0.047432259 0.022214539 11246234
-0.0545206 -0.046060093 0.021872446 11311513
-0.053131271 -0.044496484 0.021464368 12552842
-0.051744554 -0.042774141 0.021001725 11180441
-0.05035631 -0.040961329 0.020508273 8947591
-0.048964672 -0.039088096 0.019994454 8421247
-0.04756698 -0.037206568 0.019478342 8159859
-0.046439588 -0.028875466 0.016730605 7645541
-0.044942923 -0.028808804 0.016844546 4425782
-0.043446239 -0.028742194 0.016958529 6724958
-0.04194954 -0.028675644 0.017072525 5015618
-0.04045283 -0.028609036 0.017186495 5803855
-0.038956109 -0.028542368 0.017300455 4423482
-0.03745937 -0.028475814 0.017414454 3437353
-0.035962623 -0.028409204 0.017528428 4029235
-0.034465861 -0.028342534 0.017642392 4423480
-0.03296908 -0.02827598 0.017756393 4357686
-0.031472292 -0.02820931 0.017870359 4883775
-0.029975485 -0.028142754 0.017984362 4357428
-0.028478667 -0.02807614 0.018098341 5999948
-0.026981836 -0.028009525 0.018212335 6197071
-0.02548499 -0.027942911 0.018326316 6064713
-0.023988133 -0.027876237 0.018440288 9018482
-0.022491261 -0.027809678 0.018554296 10591096
-0.020994376 -0.027743062 0.018668279 12033931
-0.019497477 -0.027676445 0.01878228 9741441
-0.018000565 -0.027609827 0.018896265 6386500
-0.016503638 -0.027543265 0.019010277 8410691
-0.0150067 -0.027476588 0.019124256 7496006
-0.013509747 -0.027409971 0.019238245 2979651
-0.012012781 -0.02734335 0.01935225 3240036
-0.010541481 0.027435187 0.00074238837 3881530
-0.0089480039 0.027435824 0.00088779151 4342338
-0.0073547545 0.027437706 0.0010327278 6708316
-0.0057617351 0.027439749 0.0011776004 6773852
-0.0041689519 0.027440755 0.0013228038 6774109
-0.002576449 0.027435986 0.0014699622 6774109
-0.00098413881 0.027436974 0.0016151292 6839645
0.00060793903 0.027438005 0.0017602531 7037281
0.0021997837 0.027439032 0.0019053738 7102817
0.003791396 0.027439989 0.0020504869 6905438
