# .PCD v0.7 - Point Cloud Data file format
VERSION 0.7
FIELDS x y z rgb
SIZE 4 4 4 4
TYPE F F F U
COUNT 1 1 1 1
WIDTH 1041
HEIGHT 1
VIEWPOINT 0 0 0 1 0 0 0
POINTS 1041
DATA ascii
0.015845977 -0.0050405469 0.10207711 11315625
0.015917314 -0.006524377 0.10202415 11249832
0.015988754 -0.008008535 0.10197113 11249832
0.016060084 -0.0094930213 0.10191816 11249832
0.016131518 -0.010977834 0.10186514 11840941
0.016202897 -0.012462976 0.10181214 12037806
0.016274376 -0.013948446 0.10175908 11972013
0.016345801 -0.015434244 0.10170606 11643819
0.016417274 -0.016920369 0.101653 11381161
0.016488746 -0.018406823 0.10159994 11446954
0.016560266 -0.019893607 0.10154685 11250089
0.016631732 -0.021380717 0.10149379 11841198
0.016703298 -0.022868158 0.10144067 12692652
0.016774861 -0.024355927 0.10138755 12692652
0.01684637 -0.025844024 0.10133445 11709612
0.016917981 -0.027332451 0.10128129 10855588
0.016989587 -0.028821206 0.10122814 11446954
0.015034827 0.011295084 0.10098779 4275086
0.015106213 0.0098135518 0.10093464 4471694
0.015177491 0.0083316909 0.10088154 5390991
0.015248766 0.0068495004 0.10082845 4407946
0.015320091 0.0053669852 0.10077532 10197915
0.015391359 0.0038841411 0.10072222 10526880
0.015462677 0.0024009687 0.10066908 11184553
0.015533993 0.00091747032 0.10061595 10790052
0.015605357 -0.00056635618 0.10056279 10263708
0.015676718 -0.0020505106 0.10050962 10197915
0.01574813 -0.003534992 0.10045642 10197915
0.015819486 -0.0050198031 0.10040326 10197915
0.015890943 -0.0065049403 0.10035003 10197915
0.015962346 -0.0079904059 0.10029683 10197915
0.016033849 -0.0094762007 0.10024358 10197915
0.016105298 -0.010962323 0.10019034 10263708
0.016176743 -0.012448775 0.10013711 10263708
0.016248237 -0.013935555 0.10008385 10263708
0.016319729 -0.015422664 0.10003059 10263708
0.016391322 -0.0169101 0.099977262 10461087
0.016462861 -0.018397868 0.099923968 11381418
0.016534396 -0.019885963 0.099870667 12103856
0.016605981 -0.021374388 0.099817343 13021103
0.016677562 -0.02286314 0.099764012 13735317
0.01674914 -0.024352223 0.099710681 13733261
0.016820768 -0.025841637 0.099657327 12168364
0.016892444 -0.027331378 0.099603936 10526880
0.016964067 -0.02882145 0.099550568 11447211
0.017035738 -0.030311851 0.099497177 11972527
0.015007663 0.011330233 0.09931352 3749003
0.015079116 0.0098473979 0.099260129 2565508
0.015150408 0.0083642323 0.099206828 3288712
0.01522175 0.0068807383 0.099153489 3222920
0.015293142 0.0053969179 0.099100128 8881304
0.015364477 0.0039127665 0.099046789 10724259
0.015435811 0.0024282893 0.09899345 12234671
0.015507245 0.00094348332 0.098940052 12365486
0.015578625 -0.00054164999 0.098886684 10592673
0.015650054 -0.0020271132 0.098833285 10197915
0.015721532 -0.0035129029 0.09877985 10197915
0.015793007 -0.004999022 0.098726422 10197915
0.015864426 -0.0064854696 0.098673016 10197915
0.015936 -0.0079722451 0.098619521 10197915
0.016007466 -0.0094593512 0.098566085 10197915
0.016078983 -0.010946785 0.09851262 10197915
0.016150547 -0.012434549 0.098459117 10197915
0.016222108 -0.013922641 0.098405622 10197915
0.016293615 -0.015411063 0.098352149 10197915
0.016365275 -0.016899815 0.098298587 10658209
0.01643688 -0.018388895 0.098245054 12234414
0.016508482 -0.019878305 0.098191522 13084583
0.016580081 -0.021368045 0.09813799 12234928
0.016651781 -0.022858115 0.098084398 12562351
0.016723426 -0.024348514 0.098030828 12561066
0.016795121 -0.025839245 0.097977228 10921381
0.01686676 -0.027330304 0.097923659 10789795
0.016938552 -0.028821696 0.097870007 12562094
0.017010238 -0.030313415 0.0978164 13150119
0.014980456 0.011365443 0.097636282 1052793
0.015051924 0.0098813036 0.09758269 1184378
0.015123336 0.0083968323 0.097529121 2894214
0.015194693 0.0069120298 0.097475581 4996749
0.015266099 0.0054269009 0.097422004 6182289
0.015337554 0.0039414437 0.097368404 10921381
0.015409006 0.002455659 0.097314797 12758445
0.015480455 0.0009695426 0.09726119 13280163
0.015551901 -0.00051690155 0.097207583 11578540
0.015623397 -0.0020036721 0.097153947 10461087
0.01569489 -0.003490774 0.09710031 10461087
0.015766433 -0.0049782041 0.097046643 10461087
0.015837971 -0.006465964 0.09699297 10724002
0.015909506 -0.0079540536 0.096939296 10724259
0.015981091 -0.0094424719 0.096885599 10724259
0.016052673 -0.010931219 0.096831895 10724002
0.016124252 -0.012420297 0.096778184 10724002
0.01619588 -0.013909705 0.096724451 10724002
0.016267506 -0.015399442 0.096670717 10461087
0.016339179 -0.016889509 0.096616946 10592673
0.016410852 -0.018379906 0.096563175 11906734
0.016482521 -0.019870633 0.096509404 12431022
0.016554186 -0.021361692 0.096455634 11513004
0.0166259 -0.022853078 0.096401833 11447468
0.016697664 -0.024344798 0.096348003 11381161
0.016769372 -0.025836848 0.096294194 10263708
0.01684113 -0.027329227 0.096240357 10658466
0.016912937 -0.02882194 0.096186496 12300207
0.016984742 -0.030314982 0.096132629 12758445
0.014953206 0.011400717 0.095956087 3354504
0.01502474 0.0099152699 0.095902249 2171009
0.015096166 0.0084294882 0.095848471 4537229
0.01516759 0.0069433767 0.095794693 7030406
0.015239063 0.0054569389 0.095740885 5788048
0.015310585 0.0039701713 0.095687047 10921381
0.015382051 0.0024830739 0.095633231 12758702
0.015453619 0.00099565019 0.095579363 13736345
0.015525131 -0.00049210672 0.095525518 13216940
0.015596641 -0.0019801913 0.095471673 11184296
0.015668252 -0.0034686064 0.095417768 11118760
0.015739808 -0.0049573509 0.095363893 11118760
0.015811414 -0.0064464244 0.09530998 11907505
0.015883015 -0.0079358285 0.095256075 11973041
0.015954616 -0.0094255619 0.095202163 11973041
0.016026264 -0.010915627 0.095148221 11973041
0.016097961 -0.01240602 0.095094249 11973041
0.016169656 -0.013896745 0.095040277 11973041
0.016241295 -0.0153878 0.094986334 11118760
0.016313035 -0.016879186 0.094932325 10197915
0.016384721 -0.018370902 0.094878346 10197915
0.016456455 -0.019862948 0.094824344 10395294
0.016528239 -0.021355325 0.094770305 11052967
0.01660002 -0.022848036 0.094716266 10197915
0.016671797 -0.024341075 0.094662219 10197915
0.016743625 -0.025834447 0.09460815 10197915
0.016815396 -0.027328148 0.094554104 10197915
0.01688727 -0.028822184 0.094500005 10263708
0.01695914 -0.030316548 0.094445899 10263708
0.014925908 0.011436054 0.094272912 4405387
0.014997456 0.0099492949 0.094218872 2565508
0.015068949 0.0084622018 0.094164856 2762885
0.015140491 0.0069747814 0.094110809 6768265
0.01521203 0.0054870308 0.094056763 3157127
0.015283514 0.0039989492 0.094002746 8618649
0.015355098 0.0025105407 0.093948662 10987174
0.01542668 0.0010218008 0.093894586 11315882
0.015498259 -0.00046726881 0.093840502 11644076
0.015569887 -0.0019566684 0.093786389 13019047
0.015641512 -0.0034463995 0.093732275 12953511
0.015713135 -0.0049364595 0.093678162 12953511
0.015784806 -0.0064268503 0.093624018 13215141
0.015856475 -0.0079175709 0.093569867 13215141
0.01592814 -0.009408623 0.093515724 13213856
0.015999906 -0.010900005 0.093461514 13214370
0.016071618 -0.012391718 0.093407333 13215141
0.016143378 -0.013883762 0.093353122 13215141
0.016215084 -0.015376138 0.093298934 12431022
0.016286837 -0.016868843 0.093244724 10790052
0.016358642 -0.018361881 0.093190476 10197915
0.016430441 -0.01985525 0.093136236 10592416
0.016502239 -0.02134895 0.093081988 11972270
0.016574087 -0.022842983 0.093027711 11709355
0.016645929 -0.024337346 0.092973426 10724259
0.016717771 -0.02583204 0.092919149 10724259
0.01678966 -0.027327068 0.092864834 10724259
0.016861599 -0.028822429 0.092810497 10329501
0.016933482 -0.030318119 0.092756182 10526880
0.014898559 0.011471453 0.092586756 1644925
0.014970173 0.0099833803 0.092532478 855415
0.01504168 0.0084949732 0.092478253 723830
0.015113288 0.0070062401 0.092423975 2565252
0.015184892 0.005517175 0.092369691 2631300
0.015256494 0.0040277801 0.092315406 5328270
0.015328093 0.0025380538 0.092261113 10197915
0.015399741 0.0010479994 0.092206798 10197915
0.015471386 -0.00044238847 0.092152476 10789795
0.015543028 -0.001933106 0.092098154 12627116
0.015614719 -0.0034241534 0.092043802 12627116
0.01568646 -0.0049155313 0.09198942 12627116
0.015758196 -0.0064072399 0.091935039 12627116
0.015829878 -0.0078992816 0.091880679 12626859
0.015901661 -0.0093916534 0.091826268 13538966
0.015973389 -0.010884357 0.091771878 13149348
0.016045166 -0.012377391 0.091717459 12692395
0.016116992 -0.013870757 0.09166301 12626859
0.016188763 -0.015364454 0.091608584 12103599
0.016260635 -0.016858483 0.091554105 11052710
0.016332453 -0.018352844 0.091499649 10789795
0.01640432 -0.019847538 0.091445163 11052967
0.016476234 -0.021342563 0.091390647 12365229
0.016548093 -0.02283792 0.091336161 13083812
0.016620003 -0.024333609 0.091281645 12103342
0.016691962 -0.025829632 0.091227092 12037806
0.016763864 -0.027325986 0.091172576 11972270
0.016835868 -0.028822673 0.091117993 11381161
0.016907819 -0.030319693 0.09106344 11972270
0.014871156 0.011506914 0.09089762 1315963
0.014942784 0.010017526 0.090843134 1118329
0.015014408 0.008527806 0.09078864 2762885
0.01508603 0.0070377546 0.090734147 2894471
0.015157701 0.0055473731 0.090679623 2631300
0.015229315 0.0040566605 0.09062513 3946124
0.015301032 0.0025656172 0.090570576 10197915
0.015372746 0.0010742426 0.090516016 10197915
0.015444456 -0.00041746156 0.090461455 10197915
0.015516164 -0.0019094993 0.090406895 10197915
0.01558792 -0.0034018669 0.090352312 10197915
0.015659725 -0.0048945653 0.090297684 10197915
0.015731476 -0.0063875965 0.090243094 10197915
0.015803276 -0.0078809587 0.090188466 10197915
0.015875071 -0.009374653 0.090133846 13216426
0.015946917 -0.010868679 0.090079188 11841198
0.016018759 -0.012363037 0.090024531 10461087
0.0160906 -0.013857728 0.089969866 10263708
0.016162436 -0.01535275 0.089915209 10197915
0.016234374 -0.016848104 0.089860491 10855845
0.016306255 -0.018343791 0.089805797 12168878
0.016378187 -0.019839812 0.089751072 11775405
0.016450115 -0.021336164 0.089696348 12496558
0.016522093 -0.02283285 0.089641586 13734546
0.016594067 -0.024329867 0.089586832 13735060
0.016666038 -0.025827218 0.08953207 13735060
0.016738059 -0.027324902 0.089477286 13735317
0.016810076 -0.028822919 0.089422494 13670038
0.01688209 -0.03032127 0.089367703 13670038
0.014843747 0.011542441 0.089205466 3880587
0.014915336 0.010051731 0.089150794 4143757
0.014987078 0.0085606948 0.089096032 6376850
0.015058765 0.0070693246 0.0890413 6507150
0.015130449 0.0055776234 0.088986568 3814796
0.015202182 0.004085592 0.088931806 3157384
0.015273912 0.0025932293 0.088877037 9996449
0.015345691 0.0011005345 0.088822246 11775662
0.015417415 -0.0003924933 0.088767476 10329501
0.015489239 -0.0018858514 0.088712648 11118503
0.015561009 -0.0033795426 0.088657849 12299693
0.015632879 -0.0048735631 0.088602982 10197915
0.015704695 -0.0063679176 0.088548154 10197915
0.01577656 -0.0078626042 0.088493288 10197915
0.015848421 -0.0093576228 0.088438421 11184296
0.015920332 -0.010852975 0.088383526 10658466
0.015992239 -0.012348659 0.08832863 10263708
0.016064145 -0.013844676 0.088273734 10197915
0.016136099 -0.015341026 0.088218801 10197915
0.016208049 -0.016837709 0.088163868 10461087
0.016279995 -0.018334724 0.088108934 10790052
0.016351992 -0.019832073 0.088053972 10724259
0.016423985 -0.021329753 0.087999009 10921381
0.016496027 -0.022827771 0.087944016 11315625
0.016568014 -0.024326118 0.087889045 11315625
0.016640102 -0.0258248 0.087834015 11315625
0.016712137 -0.027323816 0.087779015 11315625
0.016784219 -0.028823165 0.087723985 11446954
0.01685635 -0.03032285 0.087668926 11446954
0.014816226 0.011578027 0.08751034 7425160
0.014887881 0.010085998 0.087455429 7359626
0.014959635 0.0085936412 0.087400459 5063826
0.015031439 0.0071009528 0.087345459 5129104
0.015103187 0.0056079295 0.087290488 3946124
0.015174986 0.0041145761 0.087235481 1842303
0.015246781 0.0026208893 0.087180473 6903698
0.015318573 0.0011268711 0.087125473 11644333
0.015390413 -0.00036747899 0.087070435 10461087
0.01546225 -0.0018621606 0.08701539 11972270
0.015534137 -0.003357176 0.086960323 13343900
0.015606021 -0.004852524 0.086905248 11250089
0.015677901 -0.0063482043 0.086850181 10197915
0.015749831 -0.0078442171 0.086795077 10197915
0.015821809 -0.0093405629 0.086739942 10197915
0.015893733 -0.010837242 0.086684838 10197915
0.015965706 -0.012334255 0.086629696 10197915
0.016037675 -0.013831601 0.086574562 10197915
0.016109642 -0.01532928 0.08651942 10197915
0.016181707 -0.016827293 0.086464219 10197915
0.016253721 -0.018325638 0.086409047 10197915
0.016325781 -0.019824319 0.086353838 10197915
0.016397839 -0.021323333 0.086298637 10197915
0.016469894 -0.02282268 0.086243428 10197915
0.016541999 -0.024322363 0.08618819 10197915
0.016614098 -0.025822379 0.086132951 10197915
0.016686197 -0.027322728 0.086077712 10197915
0.016758343 -0.028823413 0.086022437 10197915
0.016830539 -0.030324433 0.085967138 10197915
0.01690268 -0.031825785 0.085911863 10197915
0.014788588 0.011613674 0.085812233 2565508
0.014860411 0.010120328 0.085757025 1973631
0.014932179 0.0086266473 0.085701846 1250170
0.015004047 0.007132635 0.085646607 1184378
0.015075809 0.0056382879 0.085591421 1184378
0.015147724 0.0041436106 0.085536152 1447548
0.015219583 0.0026485999 0.085480906 5849995
0.01529144 0.001153256 0.08542566 10197915
0.015363294 -0.00034241949 0.085370407 10461087
0.015435248 -0.001838429 0.085315101 11972013
0.015507199 -0.0033347702 0.085259795 13731719
0.015579147 -0.0048314454 0.085204482 13279649
0.015651092 -0.0063284552 0.085149169 10263708
0.015723087 -0.0078257974 0.085093826 10263708
0.015795026 -0.0093234731 0.085038505 10263708
0.015867066 -0.010821482 0.084983133 10263708
0.015939102 -0.012319826 0.084927753 10263708
0.016011136 -0.013818502 0.084872372 10263708
0.016083166 -0.015317514 0.084816992 10263708
0.016155247 -0.016816858 0.084761582 10263708
0.016227374 -0.018316537 0.084706135 10263708
0.016299447 -0.019816551 0.084650718 10263708
0.016371571 -0.021316899 0.084595278 10263708
0.016443742 -0.022817582 0.084539801 10263708
0.016515858 -0.0243186 0.084484346 10263708
0.016588023 -0.025819952 0.084428869 10263708
0.016660238 -0.027321639 0.084373355 10263708
0.016732449 -0.028823661 0.084317848 10197915
0.016804656 -0.030326018 0.084262334 10197915
0.016876912 -0.031828709 0.08420679 10197915
0.014760987 0.011649389 0.084111065 526453
0.014832822 0.010154717 0.084055647 112
0.014904707 0.0086597111 0.0840002 65905
0.014976588 0.0071643731 0.083944745 2433923
0.015048466 0.0056687021 0.083889291 5915531
0.015120393 0.0041726972 0.083833806 6176645
0.015192317 0.0026763591 0.083778322 3157127
0.015264289 0.0011796892 0.083722807 9078168
0.015336207 -0.00031731569 0.083667316 10461087
0.015408174 -0.0018146543 0.083611794 12103342
0.01548019 -0.0033123249 0.083556242 13731719
0.015552202 -0.0048103309 0.083500691 13602960
0.015624212 -0.0063086706 0.083445139 12692138
0.01569627 -0.0078073437 0.08338955 12692395
0.015768325 -0.0093063517 0.083333969 12692395
0.015840378 -0.010805693 0.08327838 12692395
0.015912479 -0.012305371 0.083222762 12692395
0.015984524 -0.013805381 0.083167166 12692138
0.016056672 -0.015305726 0.083111517 12692138
0.016128814 -0.016806405 0.083055861 12626859
0.016200956 -0.018307421 0.083000205 12626859
0.016273145 -0.019808771 0.08294452 12692395
0.016345331 -0.021310456 0.082888834 12692395
0.016417515 -0.022812475 0.082833149 12692395
0.016489694 -0.02431483 0.082777455 12692395
0.016490676 -0.025816433 0.082761891 12692395
0.016467094 -0.027317671 0.08276017 12692652
0.016443511 -0.028818872 0.082758449 12561580
0.01641988 -0.030320033 0.082756765 12561580
0.016396351 -0.031821158 0.082755014 12561837
0.013938283 0.011658563 0.082856379 1907839
0.013915005 0.010161113 0.082854547 112
0.013891675 0.0086636981 0.082852744 112
0.013868345 0.0071663209 0.082850941 394868
0.013845015 0.0056689805 0.082849145 1315963
0.013821687 0.0041716774 0.082847342 1776254
0.013798358 0.0026744117 0.082845539 2499715
0.013774978 0.0011771836 0.082843773 6117268
0.013751649 -0.00032000762 0.08284197 11118503
0.013728322 -0.0018171616 0.082840167 11381418
0.013704995 -0.0033142783 0.082838371 13148320
0.013681668 -0.0048113586 0.082836568 13602960
0.013658341 -0.006308401 0.082834773 12822953
0.013633821 -0.0078054159 0.082833648 12626859
0.013610184 -0.0093023833 0.082832024 12626859
0.013586496 -0.010799313 0.082830429 12888746
0.013562859 -0.012296204 0.082828805 12954025
0.010823027 0.011590909 0.082903489 1052793
0.010799801 0.010098146 0.082901701 131697
0.010776627 0.0086054206 0.082899876 65905
0.010753245 0.007112728 0.08289817 131697
0.010729657 0.0056200665 0.08289659 1249914
0.010706121 0.0041274456 0.082894973 4734606
0.010682585 0.002634862 0.082893357 6702986
0.010658998 0.001142316 0.082891777 2697093
0.010635463 -0.00035018942 0.08289016 10063782
0.010611927 -0.0018426576 0.082888544 9735308
0.01058834 -0.0033350883 0.082886957 6249564
0.010564808 -0.0048274808 0.082885347 4997441
0.010541222 -0.0063198353 0.08288376 5460562
0.01051774 -0.0078121489 0.082882121 3026478
0.010494155 -0.0093044266 0.082880534 6381921
0.010470622 -0.010796666 0.082878925 11052967
0.010447037 -0.012288866 0.082877338 11118760
0.0087307421 0.01155735 0.082378432 526452
0.0088023581 0.010070284 0.082322642 460660
0.0088739712 0.0085828817 0.082266845 460660
0.0089455796 0.0070951483 0.082211047 460660
0.0090172384 0.005607083 0.08215522 526196
0.0090888944 0.0041186842 0.082099393 1315707
0.0091605466 0.002629952 0.082043566 3945867
0.0092322482 0.001140888 0.081987701 2039424
0.009303946 -0.00034850938 0.081931837 7761536
0.0093756933 -0.0018382405 0.081875943 7431525
0.0094473846 -0.0033283047 0.081820078 4276545
0.0095191775 -0.0048187021 0.081764147 3618615
0.0095909666 -0.0063094329 0.081708223 3355443
0.0096627008 -0.0078004985 0.081652321 2171169
0.0097345365 -0.0092918975 0.08159636 5591120
0.0098063163 -0.010783629 0.081540421 10786711
0.0098781968 -0.012275697 0.08148443 10526880
0.0087031787 0.011593041 0.080678344 5982351
0.0087748058 0.010104649 0.08062233 6507408
0.0088464823 0.008615925 0.080566294 6638736
0.008918209 0.0071268696 0.080510229 6770063
0.0089898789 0.0056374767 0.080454193 6835599
0.0090615982 0.0041477527 0.08039812 3880588
0.0091333147 0.0026576947 0.080342047 921208
0.0092050787 0.0011673031 0.080285944 1842047
0.0092768418 -0.00032342187 0.080229834 4868168
0.0093486514 -0.0018144805 0.080173701 5460305
0.0094204592 -0.0033058727 0.080117561 3750201
0.0094922641 -0.0047975997 0.080061421 3684408
0.0095640644 -0.0062896614 0.080005281 3421236
0.009635915 -0.0077820569 0.079949111 3749944
0.0097078132 -0.0092747873 0.079892904 8874345
0.0097796572 -0.010767851 0.079836726 10583935
0.009851601 -0.01226125 0.079780489 11702673
0.0086755399 0.011628797 0.078975223 7163275
0.0087472312 0.010139078 0.078918971 7819402
0.0088189719 0.0086490288 0.078862697 7623569
0.0088907098 0.0071586436 0.078806415 5917844
0.008962444 0.0056679253 0.078750134 6376850
0.0090342266 0.0041768714 0.078693822 7490955
0.0091060577 0.0026854875 0.078637473 7360398
0.0091778347 0.0011937651 0.078581154 5063295
0.0092497114 -0.00029828958 0.078524776 5065290
0.0093215331 -0.0017906792 0.078468427 7957098
0.0093934042 -0.0032834026 0.078412049 7169124
0.0094652716 -0.004776461 0.078355663 6906466
0.0095371874 -0.0062698545 0.078299254 6315100
0.0096091013 -0.0077635818 0.078242838 6774109
0.0096810106 -0.0092576453 0.078186423 7694697
0.009752919 -0.010752045 0.078129999 10391953
0.009824926 -0.012246778 0.078073524 11115419
0.0086478237 0.011664614 0.077269077 6114194
0.0087196305 0.01017357 0.07721255 6836883
0.0087913824 0.0086821895 0.077156059 5720981
0.0088631827 0.0071904752 0.077099539 2697093
0.0089350324 0.0056984276 0.077042982 3025799
0.0090068774 0.004206046 0.076986425 5982095
0.0090787206 0.0027133275 0.076929867 6047629
0.0091506122 0.0012202753 0.07687328 4143738
0.009222501 -0.00027311221 0.076816685 5591634
0.009294386 -0.0017668331 0.076760098 9727855
0.0093663195 -0.0032608914 0.076703474 9924463
0.0094382502 -0.0047552842 0.076646842 9989742
0.0095102293 -0.0062500113 0.076590188 9923435
0.0095821545 -0.0077450755 0.076533563 7692898
0.0096541792 -0.0092404746 0.076476872 5789527
0.009726149 -0.010736209 0.07642021 9144713
0.0097982194 -0.012232279 0.076363482 10000022
0.0086200265 0.011700496 0.075559892 2236802
0.0086918967 0.010208122 0.075503126 5392275
0.0087637622 0.0087154107 0.07544636 5786260
0.0088356258 0.0072223651 0.075389594 2171009
0.0089075379 0.0057289861 0.075332798 1118585
0.0089794463 0.0042352695 0.075275995 2894214
0.0090513527 0.0027412197 0.075219199 2499716
0.0091232555 0.0012468329 0.075162396 1644904
0.0091952579 -0.00024788806 0.075105526 5525841
0.0092672054 -0.0017429459 0.075048693 7760490
0.0093392022 -0.0032383392 0.074991822 7892076
0.0094111441 -0.0047340691 0.074934982 7891819
0.0094831865 -0.0062301336 0.074878082 7628390
0.0095552253 -0.0077265347 0.074821182 4933961
0.0096272603 -0.0092232721 0.074764274 3289650
0.0096993446 -0.010720345 0.074707337 7960953
0.0097714784 -0.012217755 0.07465037 8882055
0.008592248 0.011736443 0.073847607 131697
0.0086641284 0.010242733 0.073790632 1513340
0.0087360572 0.0087486897 0.07373362 7885967
0.0088080345 0.0072543127 0.073676579 5456783
0.0088799577 0.0057595973 0.073619567 3288712
0.0089519285 0.0042645456 0.073562525 2105217
0.0090238973 0.0027691592 0.073505476 526452
0.0090959147 0.0012734369 0.073448405 723807
0.0091679282 -0.00022262054 0.073391318 4407874
0.009239939 -0.001719017 0.073334239 5591891
0.0093119973 -0.0032157472 0.073277131 5723477
0.0093840538 -0.0047128154 0.073220015 5855063
0.0094561577 -0.0062102191 0.073162869 5723477
0.0095282076 -0.0077079609 0.073105752 4013116
0.009600305 -0.0092060389 0.073048607 4802375
0.0096724527 -0.010704453 0.072991423 8881541
0.0097446991 -0.012203205 0.07293418 9473935
0.0085644322 0.011772456 0.072132245 131697
0.008636375 0.010277411 0.072075024 131697
0.0087083662 0.0087820329 0.072017767 4472207
0.0087803546 0.0072863153 0.071960516 4997262
0.0088523403 0.0057902643 0.071903259 4405900
0.0089243744 0.0042938762 0.071845971 2565508
0.0089964047 0.002797151 0.071788676 526452
0.0090684835 0.00130009 0.071731359 789599
0.0091405595 -0.00019730804 0.071674034 3158064
0.0092126317 -0.0016950432 0.071616709 3618615
0.0092847534 -0.0031931158 0.071559355 3618615
0.0093568712 -0.0046915244 0.071501993 3750201
0.0094289863 -0.0061902707 0.071444631 3684151
0.0095011499 -0.007689354 0.071387239 5919314
0.0095733618 -0.009188775 0.071329817 6773338
0.0096455188 -0.010688533 0.071272425 9932173
0.0097177755 -0.012188628 0.071214966 10524053
0.0085365251 0.01180853 0.070413828 1315907
0.0086085815 0.01031215 0.070356332 131697
0.0086805839 0.008815432 0.070298865 987000
0.0087526338 0.0073183775 0.070241362 1513084
0.0088246819 0.0058209863 0.070183866 2433923
0.0088968286 0.004323259 0.070126295 3551882
0.0089688692 0.0028251915 0.070068792 3551626
0.0090410104 0.00132679 0.070011228 3223153
0.0091131479 -0.00017195048 0.069953658 3223857
0.0091852825 -0.0016710281 0.069896087 3421236
0.0092575168 -0.0031704416 0.069838457 3487029
0.009329645 -0.0046701944 0.069780879 3552822
0.0094018737 -0.0061702849 0.069723241 3618615
0.0094740987 -0.0076707127 0.069665603 6510937
0.0095463209 -0.0091714794 0.069607966 6445144
0.0096185915 -0.010672583 0.069550298 9932687
0.0096909106 -0.012174026 0.069492593 10524567
0.0085085761 0.01184467 0.068692327 5129319
0.0085806418 0.01034695 0.068634614 3946637
0.008652756 0.0088488925 0.068576865 3288969
0.0087248692 0.007350496 0.068519123 3420298
0.008797029 0.0058517638 0.068461344 4340622
0.0088691358 0.004352693 0.068403594 6311572
0.0089413403 0.0028532844 0.068345778 7361426
0.0090135429 0.0013535385 0.068287969 5719672
0.0090856906 -0.00014654595 0.068230182 3289650
0.0091578877 -0.0016469678 0.068172373 3487029
0.0092301313 -0.003147729 0.068114519 4539460
0.0093024252 -0.0046488256 0.068056643 4473667
0.0093746632 -0.0061502634 0.067998789 4671046
0.0094468985 -0.0076520396 0.067940935 6116950
0.0095191812 -0.0091541531 0.067883052 4341824
0.0095915645 -0.010656605 0.067825101 9012870
0.0096639441 -0.012159398 0.067767158 9670800
0.0084805787 0.011880876 0.066967726 3486042
0.0085527068 0.010381812 0.06690976 7821941
0.0086248824 0.0088824118 0.066851772 7426961
0.0086970571 0.0073826727 0.066793777 7426704
0.0087692263 0.0058825947 0.066735782 6967442
0.008841496 0.004382181 0.066677727 4603792
0.0089136604 0.0028814266 0.066619731 2762885
0.0089859236 0.0013803347 0.066561677 2697328
0.009058184 -0.00012109622 0.066503614 3355443
0.0091304425 -0.0016228661 0.066445552 3947580
0.0092027476 -0.0031249735 0.066387452 6643294
0.0092750508 -0.0046274206 0.06632936 6577758
0.0093473503 -0.0061302069 0.06627126 6446172
0.0094197486 -0.0076333312 0.066213101 5131083
0.0094920937 -0.009136796 0.066154972 2565927
0.0095645376 -0.010640599 0.066096775 7566195
0.0096369265 -0.012144743 0.066038609 8223868
0.0084524797 0.011917147 0.065240048 197429
0.0085247206 0.01041674 0.065181807 3157335
0.0085969577 0.0089159934 0.065123573 3091590
0.0086691407 0.0074149063 0.065065362 3025798
0.0087414756 0.0059134853 0.065007061 3091335
0.0088137034 0.0044117202 0.06494882 4341136
0.0088860318 0.002909621 0.064890519 592245
0.0089583043 0.0014071795 0.06483224 1578856
0.0090306262 -9.5601288e-05 0.064773932 3487029
0.0091029443 -0.0015987192 0.064715624 4539460
0.0091753108 -0.0031021782 0.064657278 7037281
0.0092476737 -0.0046059755 0.06459894 7037281
0.0093200859 -0.0061101126 0.064540565 6839902
0.0093924431 -0.0076145907 0.06448222 5393741
0.0094649 -0.0091194073 0.064423807 4736325
0.0095374044 -0.010624564 0.064365365 8947334
0.0096099051 -0.012130061 0.064306922 9342092
0.0084244292 0.011953483 0.063509196 51
0.0084966803 0.010451727 0.063450746 65843
0.0085689779 0.0089496346 0.063392259 65905
0.0086412737 0.007447199 0.06333378 131697
0.008713617 0.0059444285 0.063275255 2368130
0.0087859575 0.0044413153 0.063216738 6376337
0.0088582952 0.0029378647 0.063158214 3814795
0.0089306794 0.001434073 0.06309966 2236014
0.0090030106 -7.0059185e-05 0.063041136 4737096
0.0090754395 -0.0015745291 0.062982552 5197133
0.0091478173 -0.0030793415 0.06292399 6380379
0.0092202397 -0.0045844922 0.062865399 6840159
0.0092927124 -0.006089983 0.062806778 6905438
0.0093651814 -0.0075958148 0.062748156 6576730
0.0094376979 -0.0091019869 0.062689498 6970974
0.0095102638 -0.010608499 0.06263081 9801101
0.0095828269 -0.012115352 0.062572122 9012099
0.0083962707 0.011989885 0.061775267 329015
0.0084686335 0.010486782 0.061716534 394551
0.0085409414 0.0089833355 0.061657835 1052736
0.0086132968 0.0074795508 0.061599102 1579133
0.0086856484 0.0059754252 0.061540361 1710462
0.0087581007 0.0044709635 0.061481565 2499715
0.008830498 0.0029661593 0.061422795 1973632
0.0089028915 0.0014610125 0.061364025 2563695
0.0089753857 -4.4470155e-05 0.061305191 6840673
0.0090478258 -0.0015502971 0.061246388 5131597
0.0091203135 -0.0030564633 0.06118755 4276545
0.0091928486 -0.0045629689 0.06112868 6380893
0.0092652785 -0.0060698176 0.061069869 6972259
0.0093378071 -0.0075770053 0.061010998 7759205
0.0094104363 -0.0090845348 0.060952064 8086114
0.0094830114 -0.010592406 0.060893156 8747642
0.0095556844 -0.012100618 0.060834188 9538186
0.0083681038 0.012026353 0.060038183 4996963
0.008440475 0.010521895 0.059979234 5128548
0.0085128937 0.0090170987 0.059920251 5654120
0.0085853096 0.0075119603 0.059861269 6179473
0.008657773 0.006006483 0.059802257 4866192
0.0087301824 0.0045006624 0.05974327 1710718
0.0088026915 0.0029945045 0.059684221 65904
0.0088751456 0.0014880042 0.059625201 2037867
0.0089476993 -1.883758e-05 0.059566118 8613486
0.0090201991 -0.00152602 0.059507068 5000011
0.0090927463 -0.0030335435 0.059447981 3552822
0.0091652907 -0.0045414078 0.059388895 7760747
0.0092378827 -0.0060496144 0.059329774 8285035
0.0093104718 -0.0075581628 0.059270654 7759719
0.0093831085 -0.009067052 0.059211496 6905438
0.0094557935 -0.010576283 0.059152313 8945792
0.009528527 -0.012085856 0.059093092 8681849
0.0083398204 0.012062884 0.058297995 7818857
0.0084122512 0.010557072 0.058238801 4865891
0.0084847808 0.0090509225 0.058179539 3748699
0.0085572051 0.0075444272 0.05812034 3551625
0.0086297281 0.0060375943 0.058061074 3091335
0.0087022502 0.0045304182 0.058001813 1907839
0.0087747667 0.0030229012 0.057942543 3288712
0.0088473838 0.001515043 0.057883214 5457278
0.008919945 6.8442205e-06 0.057823911 7759719
0.0089925053 -0.0015016992 0.057764612 4210752
0.0090651121 -0.0030105819 0.057705276 3355443
0.0091377143 -0.0045198081 0.057645939 9924206
0.0092103677 -0.0060293758 0.057586573 9985373
0.0092830164 -0.0075392849 0.057527203 6578015
0.009355763 -0.0090495367 0.057467766 7234660
0.0094285086 -0.010560131 0.057408333 9997966
0.0095011983 -0.012071068 0.057348926 6841187
0.0083115203 0.012099483 0.056554645 3880284
0.0083840108 0.010592315 0.056495201 1315907
0.0084565999 0.0090848068 0.056435693 131637
0.008529136 0.0075769555 0.056376211 51
0.0086016674 0.0060687619 0.05631673 112
0.0086742472 0.0045602266 0.056257214 131697
0.0087468745 0.0030513504 0.056197666 1907839
0.0088194478 0.0015421299 0.056138147 3157359
0.0088921217 3.2569693e-05 0.056078568 3355186
0.00896479 -0.0014773331 0.056018982 2368548
0.0090374062 -0.0029875804 0.055959433 2039583
0.0091101211 -0.0044981679 0.055899814 4407617
0.00918278 -0.0060091 0.055840224 9658978
0.0092555396 -0.0075203739 0.055780575 9332583
0.0093283458 -0.0090319905 0.055720888 9856871
0.009401151 -0.010543951 0.055661205 10846850
0.0094739515 -0.012056254 0.055601519 7038823
0.0082831495 0.012136148 0.054808155 3288663
0.0083557507 0.010627623 0.054748431 4603234
0.008428297 0.0091187516 0.054688729 4734306
0.008500942 0.0076095392 0.054628968 3091798
0.0085735852 0.0060999859 0.054569207 855415
0.0086462228 0.0045900899 0.054509442 329075
0.0087189097 0.0030798507 0.054449644 460660
0.0087915938 0.0015692688 0.054389846 1315684
0.0088642742 5.8344205e-05 0.054330043 1381653
0.0089369519 -0.0014529249 0.054270241 2500134
0.009009677 -0.0029645353 0.054210406 2631720
0.0090824515 -0.0044764895 0.05415054 2829099
0.0091551701 -0.0059887879 0.054090705 5919828
0.0092280377 -0.0075014275 0.054030769 5590863
0.0093008541 -0.0090144118 0.053970866 4473667
0.009373717 -0.01052774 0.05391093 8611944
0.0094466275 -0.012041412 0.053850964 8089969
0.0082547553 0.012172881 0.053058483 3157334
0.0083274143 0.010662992 0.052998506 6377069
0.0084000202 0.0091527589 0.052938558 7950957
0.0084727239 0.0076421848 0.052878547 7819629
0.0085454267 0.0061312667 0.052818537 5785449
0.0086181741 0.0046200077 0.052758489 4931727
0.0086908182 0.0031084006 0.0526985 5062799
0.0087635601 0.0015964539 0.052638449 5128591
0.0088363513 8.4162522e-05 0.052578371 4735576
0.0089091379 -0.0014284716 0.052518282 5130055
0.0089819226 -0.0029414503 0.052458201 5459020
0.0090547036 -0.004454772 0.052398112 5589835
0.0091275824 -0.0059684375 0.052337959 3486772
0.0092004584 -0.0074824477 0.052277807 4341824
0.0092733325 -0.0089968015 0.052217651 9004389
0.0093462532 -0.010511501 0.052157465 9472136
0.0094192233 -0.012026544 0.05209725 10326160
0.0082262829 0.012209679 0.051305659 657979
0.0082990006 0.010698427 0.051245429 1841993
0.0083717164 0.0091868294 0.051185202 3617627
0.0084444778 0.0076748892 0.051124938 5917034
0.008517188 0.0061626029 0.051064704 6442605
0.0085899942 0.0046499767 0.051004406 6245780
0.0086627984 0.0031370064 0.050944105 6180243
0.0087356009 0.0016236895 0.050883807 6114451
0.0088083968 0.00011003001 0.050823502 5655169
0.0088812429 -0.0014039745 0.050763167 8150622
0.0089540854 -0.0029183216 0.050702833 7560027
0.0090269251 -0.0044330154 0.050642494 8477531
0.0090998635 -0.0059480513 0.050582089 7297626
0.0091727981 -0.0074634328 0.050521687 4472896
0.0092458306 -0.0089791594 0.050461214 9929860
0.0093188109 -0.010495231 0.050400779 9209478
0.0093917875 -0.012011648 0.05034034 10523796
0.0081977798 0.012246544 0.049549643 3091542
0.0082705552 0.010733924 0.049489159 65844
0.0083433799 0.0092209606 0.049428649 263222
0.0084161488 0.0077076522 0.049368162 1447236
0.0084889671 0.0061939987 0.049307648 2302542
0.0085617825 0.0046800012 0.049247131 2236802
0.0086346455 0.0031656604 0.04918658 2171010
0.0087075029 0.0016509751 0.049126025 2171009
0.0087804105 0.00013594482 0.049065437 2697093
0.0088533144 -0.0013794318 0.049004853 4144702
0.0089262147 -0.0028951531 0.048944265 4473153
0.0089991121 -0.0044112178 0.048883673 5590349
0.0090721082 -0.0059276288 0.048823018 4473667
0.0091451006 -0.0074443845 0.048762362 3158064
0.0092181927 -0.0089614857 0.048701644 6118749
0.0092912298 -0.010478932 0.048640952 8684162
0.0093643144 -0.011996726 0.048580226 11048084
0.0081692412 0.012283476 0.047790423 6246255
0.008242025 0.010769485 0.047729723 3749212
0.0083149066 0.0092551522 0.047668956 2959956
0.0083877854 0.0077404734 0.047608189 3091285
0.0084606111 0.0062254486 0.047547452 3222870
0.0085335337 0.004710082 0.047486648 3288663
0.0086064544 0.0031943673 0.047425848 3485833
0.0086794225 0.0016783094 0.04736501 4603535
0.0087523367 0.00016190365 0.047304206 4734864
0.0088252984 -0.0013548451 0.047243364 2894398
0.0088983076 -0.0028719408 0.047182493 2039583
0.0089712618 -0.0043893815 0.047121648 6574160
0.0090443147 -0.0059071681 0.047060739 7561826
0.0091173649 -0.0074253008 0.046999831 6248279
0.0091905156 -0.0089437794 0.046938859 4934218
0.0092636105 -0.010462604 0.046877917 8487040
0.0093368031 -0.011981775 0.046816908 10851476
0.0081406152 0.012320475 0.046028033 2565456
0.008213507 0.010805113 0.045967046 5917548
0.008286397 0.0092894072 0.045906059 6179691
0.0083593326 0.007773356 0.045845039 5850984
0.0084322663 0.0062569585 0.045784019 5785448
0.0085052466 0.0047402158 0.045722961 5785448
0.008578225 0.0032231272 0.045661908 5785232
0.0086511988 0.0017056919 0.04560085 6639250
0.008724221 0.00018791182 0.045539759 6770578
0.0087972395 -0.0013302147 0.045478664 5457533
0.0088702561 -0.0028486878 0.04541757 3223600
0.0089433705 -0.0043675052 0.045356411 4472896
0.0090164803 -0.0058866707 0.04529525 9593442
0.0090896394 -0.0074061817 0.045234058 8742759
0.0091627948 -0.0089260405 0.045172863 6315614
0.0092359474 -0.010446246 0.045111667 7829367
0.0093091475 -0.011966798 0.045050438 9801615
0.0088598207 0.012383442 0.043798514 3682906
0.0081848959 0.010840806 0.044201188 2565456
0.0082578929 0.0093237255 0.044139914 3026005
0.008330836 0.0078062969 0.044078674 2959956
0.0084038787 0.0062885252 0.044017371 2894163
0.0084769167 0.0047704051 0.04395606 2828371
0.008549951 0.0032519402 0.043894753 2762885
0.0086229825 0.0017331273 0.043833438 2696837
0.0086960616 0.00021396756 0.043772094 2565508
0.0087691899 -0.0013055371 0.04371072 4736397
0.0088422624 -0.0028253896 0.043649372 5392481
0.0089153824 -0.0043455889 0.04358799 5195591
0.0089886002 -0.0058661355 0.043526541 9134947
0.0090617668 -0.007387029 0.04346513 9660263
0.0091350283 -0.008908269 0.043403648 8743530
0.009208288 -0.010429858 0.043342162 9341321
0.0092814956 -0.011951794 0.043280713 9013384
0.011052784 0.012497669 0.040644605 6440550
0.0081562912 0.010876564 0.042432081 3617370
0.0082292948 0.0093581043 0.042370588 1710407
0.0083023449 0.0078392997 0.042309057 3881821
0.0083754435 0.0063201487 0.0422475 3881821
0.008448489 0.0048006494 0.04218597 6118772
0.0085216304 0.0032808047 0.042124372 8355722
0.0085947197 0.0017606101 0.042062808 8684444
0.0086678565 0.00024007088 0.04200121 13211800
0.0087409876 -0.0012808167 0.041939609 13213085
0.0088141691 -0.0028020511 0.041877978 8551291
0.0088873971 -0.0043236329 0.041816309 7888478
0.0089606717 -0.0058455621 0.041754607 5853521
0.0090339445 -0.00736784 0.041692909 7299939
0.0091072144 -0.0088904658 0.041631203 8806753
0.009180529 -0.01041344 0.041569468 9274757
0.0092538437 -0.011936762 0.041507728 8289918
0.013262604 0.012612771 0.037466466 9800854
0.0081275366 0.010912387 0.040659811 10715018
0.0082006454 0.0093925484 0.040598027 12625831
0.0082737533 0.0078723626 0.040536247 11052967
0.0083469078 0.0063518295 0.04047443 10526880
0.0084200595 0.0048309504 0.040412616 11907248
0.0084932083 0.0033097207 0.040350795 12037549
0.0085664038 0.0017881446 0.040288944 10395294
0.0086395973 0.0002662219 0.040227093 11446954
0.0087128375 -0.0012560494 0.040165205 10790052
0.0087860236 -0.0027786705 0.04010335 10329501
0.0088593587 -0.004301636 0.040041398 8747385
0.0089326398 -0.0058249524 0.039979473 5787214
0.0090059694 -0.0073486175 0.039917517 3881787
0.0090793455 -0.0088726301 0.039855529 7692127
0.009152717 -0.010396992 0.039793532 8288119
0.0092260865 -0.011921704 0.03973154 7367274
0.015555823 0.012731068 0.034222208 11118760
0.0080987783 0.010948272 0.038884275 12691110
0.0081719458 0.0094270529 0.038822237 13148063
0.0082451086 0.0079054832 0.0387602 12430765
0.0083183199 0.0063835676 0.038698129 12234671
0.0083915275 0.0048613027 0.038636059 13019818
0.0084647834 0.0033386918 0.038573954 12889260
0.0085380347 0.0018157304 0.038511846 10263708
0.0086112842 0.00029242065 0.038449738 10592673
0.0086845802 -0.0012312377 0.038387597 10197915
0.0087578734 -0.0027552443 0.038325455 10197915
0.0088312142 -0.0042796005 0.038263276 11972270
0.0089046024 -0.005804305 0.038201068 5327691
0.0089779869 -0.0073293592 0.038138855 3552565
0.0090514189 -0.0088547617 0.038076609 4539460
0.0091248481 -0.010380514 0.038014363 5723991
0.0091983248 -0.011906616 0.037952084 8089969
0.0080699641 0.010984226 0.037105497 11578283
0.0081431866 0.0094616199 0.037043206 13082527
0.0082164584 0.0079386672 0.036980882 13603988
0.0082897255 0.0064153657 0.036918558 13605273
0.0083629899 0.0048917141 0.03685623 13474972
0.0084363008 0.0033677141 0.036793869 12889774
0.0085096089 0.0018433657 0.036731508 10197915
0.0085829133 0.00031866532 0.036669143 10197915
0.0086562661 -0.0012063818 0.036606748 10197915
0.0087296152 -0.0027317791 0.036544345 10197915
0.0088030603 -0.0042575235 0.03648188 10724259
0.0088765044 -0.0057836198 0.036419414 5394769
0.008949996 -0.007310065 0.036356915 2960685
0.0090234336 -0.0088368608 0.036294445 2368548
0.0090969168 -0.010364006 0.036231939 7564139
0.0091704493 -0.011891502 0.036169406 10522511
0.0080411406 0.011020247 0.035323441 10855588
0.0081144189 0.0094962539 0.035260893 12102571
0.0081876945 0.0079719098 0.035198346 13083555
0.0082610687 0.0064472212 0.035135735 12823467
0.0083343377 0.0049221795 0.035073183 12234928
0.0084077558 0.00339679 0.035010535 11250089
0.0084811198 0.0018710509 0.034947917 10197915
0.00855448 0.00034495976 0.034885298 10197915
0.0086278869 -0.00118148 0.034822639 10197915
0.0087013431 -0.0027082684 0.034759954 10197915
0.008774844 -0.0042354073 0.034697231 10329501
0.008848344 -0.0057628965 0.034634512 8684419
0.0089218896 -0.0072907358 0.034571752 3684151
0.0089954343 -0.0088189263 0.034508996 9668487
0.0090690237 -0.010347468 0.034446202 11506065
0.0091426102 -0.011876361 0.034383409 10589846
0.0080122054 0.01105633 0.03353817 10395294
0.0080855386 0.0095309485 0.033475365 11118760
0.0081589213 0.0080052158 0.033412531 12102828
0.0082323002 0.0064791325 0.033349693 11512747
0.0083057247 0.0049527013 0.033286817 10987174
0.0083791465 0.0034259195 0.033223946 10987174
0.0084525645 0.0018987859 0.033161066 10986917
0.0085260319 0.00037130181 0.033098161 10986917
0.0085994927 -0.0011565306 0.033035245 10986917
0.0086730057 -0.0026847152 0.032972306 10263708
0.0087465616 -0.0042132493 0.032909326 10197915
0.0088201175 -0.0057421359 0.032846346 8289404
0.0088937674 -0.0072713718 0.0327833 9605264
0.0089673661 -0.0088009601 0.032720286 11115162
0.0090410104 -0.0103309 0.032657232 11180698
0.0091146016 -0.011861191 0.032594215 9802386
0.0079832505 0.011092482 0.031749599 10395294
0.0080566388 0.0095657073 0.031686537 10724259
0.0081300773 0.0080385804 0.031623449 10921638
0.0082035614 0.0065111062 0.03156032 10592673
0.0082769897 0.0049832785 0.031497221 10461087
0.0083504664 0.0034551008 0.031434089 11447211
0.0084239934 0.0019265723 0.031370927 12102057
0.0084974645 0.00039769217 0.031307794 12102314
0.0085710296 -0.0011315368 0.031244589 12102828
0.0086446479 -0.0026611183 0.03118136 10263708
0.0087182596 -0.0041910517 0.031118123 7763574
0.0087918676 -0.0057213362 0.031054884 8553090
0.0088655744 -0.0072519723 0.03099158 8947848
0.008939228 -0.0087829605 0.030928308 9539728
0.0090129282 -0.010314301 0.030865002 9539728
0.0090866247 -0.011845994 0.030801693 8947848
0.0079542249 0.011128698 0.029957764 11381161
0.00802767 0.0096005276 0.029894449 11315625
0.0081011606 0.0080720074 0.029831095 10658466
0.0081747007 0.0065431353 0.029767713 10263708
0.008248237 0.0050139115 0.029704327 10461087
0.0083217667 0.0034843371 0.029640935 11513004
0.0083953459 0.0019544105 0.029577512 12102828
0.0084689735 0.00042413341 0.029514059 12103085
0.0085425461 -0.0011064972 0.029450633 12037806
0.0086162137 -0.0026374785 0.029387135 6974058
0.0086898804 -0.0041688131 0.029323641 7566195
0.0087635936 -0.0057004988 0.029260112 8487297
0.0088373069 -0.0072325366 0.029196588 8882055
0.008911062 -0.0087649273 0.02913302 9276813
0.0089848181 -0.010297672 0.029069457 9211020
0.0090585705 -0.011830768 0.029005893 9473935
0.0079251267 0.011164982 0.028162658 11906220
0.007998676 0.009635414 0.028099051 11709612
0.0080722226 0.0081054959 0.028035443 10592673
0.0081458148 0.0065752235 0.027971799 10197915
0.0082194041 0.0050446014 0.027908152 10329501
0.008293042 0.0035136268 0.027844474 10658466
0.0083666248 0.0019822987 0.027780823 10987174
0.0084403045 0.0004506197 0.02771711 10987174
0.0085139293 -0.0010814128 0.02765342 9539985
0.008587705 -0.0026137964 0.02758964 6250335
0.0086614769 -0.0041465331 0.027525855 8289918
0.0087351939 -0.0056796232 0.027462099 8553090
0.0088090086 -0.0072130659 0.027398277 9802643
0.0088828718 -0.0087468615 0.027334426 10393752
0.0089566307 -0.010281011 0.027270636 10197144
0.0090304846 -0.011815514 0.027206773 11770522
0.0078960005 0.011201333 0.026364241 11578283
0.0079696551 0.0096703665 0.026300343 11446954
0.0080432538 0.008139045 0.026236473 10790052
0.0081168525 0.0066073714 0.026172606 10526880
0.0081905462 0.0050753467 0.026108669 10526880
0.0082642371 0.0035429704 0.02604473 10526880
0.0083379243 0.00201024 0.025980789 10460830
0.0084116571 0.0004771573 0.025916811 8355711
0.0084853899 -0.0010562793 0.02585284 6513507
0.0085591655 -0.00259007 0.025788823 7368816
0.0086329896 -0.0041242121 0.025724778 8487297
0.0087068146 -0.0056587085 0.025660738 9473935
0.0087806815 -0.0071935584 0.025596654 11377306
0.0088545484 -0.0087287631 0.025532575 11115162
0.0089284088 -0.01026432 0.025468487 10000022
0.0090023186 -0.011800233 0.025404369 12294810
0.0078668427 0.011237749 0.024562502 11644076
0.007940501 0.0097053796 0.024498377 11775405
0.008014204 0.0081726573 0.024434216 11709612
0.0080879051 0.0066395798 0.024370054 11644076
0.0081616016 0.0051061497 0.024305889 11644076
0.0082353968 0.0035723674 0.02424166 11644076
0.0083091361 0.0020382316 0.024177456 10458003
0.0083828764 0.00050373969 0.024113258 10850962
0.0084567107 -0.0010311028 0.02404899 5526612
0.0085305944 -0.0025662996 0.023984689 8224125
0.0086044706 -0.0041018501 0.023920381 9079434
0.0086783478 -0.0056377565 0.023856079 10722203
0.0087522706 -0.007174016 0.02379174 12227475
0.0088261859 -0.0087106302 0.023727391 10984347
0.0089001544 -0.0102476 0.02366302 9408142
0.0089741657 -0.011784923 0.023598606 11837343
0.0078375526 0.011274233 0.02275751 12495530
0.0079113608 0.0097404588 0.022693053 12299179
0.0079850676 0.0082063293 0.022628665 10589075
0.008058873 0.0066718473 0.02256421 9405315
0.0081326216 0.0051370086 0.022499783 9470851
0.0082064206 0.0036018188 0.022435326 10259853
0.0082802651 0.0020662732 0.022370834 10916755
0.008354106 0.00053037552 0.022306338 8483442
0.0084279962 -0.0010058782 0.022241814 7829367
0.0085019805 -0.0025424846 0.022177218 8421504
0.0085759135 -0.0040794471 0.022112653 10327959
0.0086498419 -0.005616765 0.022048088 11444127
0.0087238168 -0.0071544377 0.021983486 10919325
0.0087978374 -0.0086924639 0.021918848 9736850
0.0088718589 -0.010230848 0.021854214 9013641
0.0089458721 -0.011769586 0.021789573 10525595
0.007808269 0.011310784 0.020949142 8219499
0.0078821331 0.0097756023 0.02088443 9998480
0.007955892 0.0082400627 0.020819779 6118749
0.0080297496 0.0067041712 0.020755064 9012613
0.0081036035 0.0051679262 0.020690346 9538443
0.0081775067 0.003631325 0.020625599 9866380
0.0082514035 0.0020943701 0.020560844 10915984
0.0083252965 0.00055705744 0.020496085 5789784
0.0083992388 -0.00098060747 0.020431299 8487297
0.0084732268 -0.0025186285 0.020366475 8618883
0.0085472604 -0.0040570037 0.020301614 10065558
0.0086212913 -0.0055957343 0.020236751 10328473
0.0086953221 -0.0071348222 0.020171894 9539728
0.0087693948 -0.0086742658 0.020106994 9013641
0.0088434676 -0.010214065 0.020042097 8684676
0.0089175859 -0.01175422 0.019977165 9671314
0.007778944 0.011347403 0.019137437 7039594
0.0078528114 0.0098108081 0.019072497 7237230
0.0079266755 0.0082738604 0.019007556 9407885
0.0080005843 0.0067365579 0.018942578 9933458
0.0080745434 0.0051988992 0.01887757 10327702
0.0081484467 0.0036608838 0.018812589 10525081
0.0082223956 0.0021225156 0.01874757 9927290
0.0082963929 0.00058378972 0.018682523 7895160
0.0083704367 -0.00095529039 0.018617438 9079434
0.0084444769 -0.0024947263 0.018552352 9079434
0.0085185627 -0.0040345183 0.01848723 9473935
0.0085926978 -0.005574666 0.018422076 9079177
0.0086667808 -0.0071151713 0.018356957 8618883
0.0087408563 -0.0086560333 0.018291829 8618883
0.0088150827 -0.01019725 0.018226609 8684676
0.0088892011 -0.011738826 0.018161442 8947848
0.0077495766 0.011384089 0.017322391 8553090
0.007823444 0.009846081 0.017257219 8684676
0.0078974087 0.0083077196 0.01719198 8947591
0.0079714227 0.0067690033 0.017126711 9079177
0.0080453819 0.0052299285 0.01706147 9145227
0.0081193857 0.0036904996 0.016996192 9671314
0.0081933904 0.002150713 0.016930919 10587276
0.0082674399 0.00061057211 0.016865607 10130066
0.0083415844 -0.00092992501 0.016800227 10262166
0.0084156767 -0.0024707795 0.016734878 9933972
0.0084898677 -0.0040119905 0.016669465 9144970
0.0085640019 -0.0055535585 0.016604077 8618883
0.0086381864 -0.0070954836 0.016538661 8947848
0.0087123672 -0.0086377664 0.016473243 9736850
0.0087865926 -0.010180405 0.016407788 9868179
0.0088608162 -0.011723403 0.016342331 10459545
0.007720104 0.011420842 0.015504017 9079434
0.0077940756 0.0098814201 0.015438554 9671314
0.0078680934 0.0083416412 0.015373053 9671057
0.0079421597 0.0068015093 0.015307522 9539728
0.00801617 0.0052610156 0.015242019 9210763
0.0080902753 0.0037201694 0.015176443 7171180
0.0081643322 0.0021789642 0.015110907 9928318
0.0082384832 0.00063740253 0.0150453 10852504
0.0083126314 -0.0009045148 0.014979691 10459031
0.0083868243 -0.00244679 0.014914045 9933715
0.0084610675 -0.0039894213 0.014848369 8882055
0.0085353069 -0.0055324114 0.014782692 8816262
0.0086095389 -0.0070757596 0.014717006 9736850
0.0086837718 -0.0086194659 0.014651326 10524824
0.0087580504 -0.01016353 0.014585609 10656153
0.0088323252 -0.011707951 0.014519889 11573914
0.01261182 0.020939965 0.010531977 11508121
0.01177584 0.019350737 0.011067356 10262423
0.01150738 0.017788423 0.011227829 8882055
0.011293754 0.016229311 0.011352072 8487297
0.011398379 0.014682947 0.011266059 8487297
0.0076906318 0.011457665 0.013682256 9539728
0.0077646519 0.0099168243 0.013616524 10525081
0.0078387214 0.008375627 0.013550761 10590617
0.0079128398 0.0068340721 0.013484968 10656410
0.0079869516 0.0052921618 0.013419167 9868179
0.0080610607 0.0037498935 0.013353364 7368559
0.0081352666 0.0022072671 0.013287496 11046799
0.0082094213 0.00066428346 0.013221662 10459288
0.0082836701 -0.00087905652 0.013155756 10065301
0.008357916 -0.0024227542 0.013089848 9539728
0.0084322104 -0.0039668116 0.013023909 8684676
0.008506502 -0.0055112266 0.01295797 9408142
0.0085807862 -0.0070560002 0.012892022 10525081
