# .PCD v0.7 - Point Cloud Data file format
VERSION 0.7
FIELDS x y z rgb
SIZE 4 4 4 4
TYPE F F F U
COUNT 1 1 1 1
WIDTH 1030
HEIGHT 1
VIEWPOINT 0 0 0 1 0 0 0
POINTS 1030
DATA ascii
-0.0010802856 0.024043305 0.0091808187 10197915
0.00045662298 0.024039872 0.009180353 10197915
0.0019935241 0.024036458 0.0091798306 10197915
0.0035304185 0.024033055 0.0091792494 10197915
0.0050673084 0.024029633 0.0091787241 10197915
0.0066041909 0.024026221 0.0091782017 10197915
0.0081410687 0.024022788 0.009177736 10197915
0.01046426 0.0082547311 0.083629332 12234414
0.011923929 0.0070205769 0.089442767 12628144
0.013321986 0.0070234868 0.089413866 10921638
0.014720134 0.0070265168 0.089384384 11052967
0.016118376 0.0070295753 0.089354783 12953768
0.017605051 -0.0026694462 0.13514975 13408665
0.018936455 -0.015407614 0.19530112 13344157
0.020313667 0.0070380755 0.089269131 13214113
-0.049448736 0.020474467 0.01926128 10197915
-0.048629001 0.022400567 0.010078759 10197915
-0.047286954 0.022941338 0.0074885124 10197915
-0.045937061 0.023485264 0.0048831962 10197915
-0.044555843 0.023962997 0.0025927483 10197915
-0.043167863 0.024444183 0.00028582677 10197915
-0.041820232 0.025075665 -0.0027364863 10197915
-0.040371753 0.025418358 -0.0043844813 10197915
-0.037802041 0.022102524 0.011380025 10197915
-0.036215633 0.021917397 0.012244428 10197915
-0.034677096 0.021887837 0.012368429 10197915
-0.033145826 0.021882638 0.01237647 10197915
-0.03161459 0.02187744 0.012384512 10197915
-0.030083362 0.02187214 0.012393022 10197915
-0.02855216 0.021866804 0.012401707 10197915
-0.027021011 0.021861505 0.012410217 10197915
-0.02549004 0.021856824 0.012415798 10197915
-0.023978192 0.021934791 0.012027967 10987174
-0.022417203 0.021798162 0.012661638 12430765
-0.021219037 0.023342058 0.0052953376 10197915
-0.020189185 0.025824593 -0.0065396829 10197915
-0.018583465 0.025607223 -0.0055219545 10197915
-0.01646011 0.022646334 0.0085569369 10197915
-0.014923604 0.022647092 0.0085365493 10790052
-0.013358111 0.022481149 0.0093097994 10921381
-0.011815608 0.022438109 0.0094979629 10986917
-0.010277723 0.022420267 0.0095661161 10986917
-0.0087400815 0.022402432 0.0096342722 10921381
-0.0072026844 0.022384599 0.0097024292 10789795
-0.0056655295 0.022366775 0.0097705266 10461087
-0.0041286298 0.022349041 0.0098382151 10197915
-0.0025919767 0.022331359 0.0099056698 10197915
-0.0010555636 0.022313658 0.0099731823 10197915
0.00048060721 0.022295985 0.010040578 10197915
0.0020165378 0.022278298 0.010108032 10197915
0.0035522282 0.022260604 0.010175548 10197915
0.0050876765 0.022242934 0.010242946 10197915
0.0066227196 0.022227721 0.010298622 10197915
0.0081571713 0.022219222 0.010322365 10197915
0.010457988 0.0069697713 0.082927018 10658466
0.011924297 0.0055995332 0.089437142 10724259
0.013321645 0.0056024231 0.089408107 10395294
0.014719083 0.0056054015 0.08937867 10395294
0.016116619 0.0056081703 0.089350224 10855588
0.017601663 -0.0038952797 0.13459682 10986917
0.018933592 -0.016539365 0.19480328 10921381
0.020309778 0.0056167771 0.089263424 10921381
-0.049646005 0.01954327 0.01631997 10064787
-0.049098186 0.02221033 0.0035042628 10524824
-0.047748677 0.022755435 0.00087134173 10656410
-0.046390381 0.023301374 -0.0017656974 8815234
-0.045009527 0.023807738 -0.0042129252 9999765
-0.043608617 0.024279097 -0.0064922054 10592673
-0.042235434 0.024860281 -0.0092987092 11775405
-0.040853027 0.025442891 -0.012112144 11775148
-0.037775353 0.020541266 0.011396109 11709612
-0.03622264 0.02046752 0.011733215 11709612
-0.034683961 0.020437993 0.011858102 11709612
-0.033144064 0.020402631 0.012011011 11118760
-0.031605389 0.020369761 0.012151963 10395294
-0.030068509 0.020341773 0.012269462 10658209
-0.0285351 0.020325651 0.01233004 11447211
-0.0270037 0.020316722 0.012356086 11709612
-0.025475724 0.020321593 0.012315885 11118503
-0.023969401 0.02042 0.011826666 11315625
-0.02250603 0.020717142 0.010383419 13278878
-0.021353431 0.022473931 0.0019330169 11644076
-0.016370654 0.020693034 0.010431713 10263708
-0.014807635 0.020527072 0.011211642 11578540
-0.013274396 0.020515928 0.011248297 11118760
-0.01174237 0.020511281 0.011253762 10395294
-0.010210369 0.020506624 0.011259288 10658209
-0.0086783953 0.020501949 0.011264869 11052710
-0.0071464498 0.02049729 0.011270395 10526880
-0.0056145284 0.020492623 0.011275979 10197915
-0.0040826369 0.020487966 0.011281504 10197915
-0.0025507736 0.020483321 0.01128697 10197915
-0.0010189341 0.020478645 0.011292553 10197915
0.00051287725 0.020473987 0.011298077 10197915
0.0020446626 0.020469321 0.011303662 10197915
0.003576417 0.020464705 0.01130895 10197915
0.0051081413 0.020460138 0.011314067 10197915
0.0066398396 0.020455563 0.011319181 10197915
0.0081715127 0.020450998 0.011324235 10197915
0.010451712 0.0056839231 0.082224168 10197915
0.011924663 0.0041799513 0.089431405 10197915
0.013321303 0.004182789 0.089402422 10197915
0.014718032 0.0041857366 0.089372911 10197915
0.016114857 0.004188695 0.089343339 10197915
0.017598275 -0.0051216111 0.1340436 10197915
0.018930728 -0.017671566 0.1943053 10197915
0.020305894 0.0041969083 0.089257792 10197915
-0.049574655 0.022019571 -0.0031714812 12490390
-0.048215751 0.022563981 -0.0058234842 12098202
-0.046850093 0.023115147 -0.0085082883 10065558
-0.045466013 0.023639565 -0.011063775 8289918
-0.044059731 0.024123987 -0.013425712 7829367
-0.042662594 0.024661293 -0.016043751 11505808
-0.037962276 0.019671056 0.0080753313 13605787
-0.036356229 0.019437335 0.0091896094 13605787
-0.034804683 0.019376406 0.0094675273 13670038
-0.033240579 0.019267991 0.0099753169 12496044
-0.031673934 0.019144034 0.010558365 10855588
-0.030118659 0.019054947 0.010972666 11381675
-0.02855189 0.018916095 0.011627866 13020075
-0.027008969 0.018863078 0.01186755 13541536
-0.025474029 0.018839471 0.011964877 12103599
-0.023969498 0.018943926 0.011442268 11315625
-0.022540851 0.019391507 0.0092585068 13538709
-0.021488704 0.02160017 -0.00145123 13474715
-0.01634484 0.01907721 0.010712187 10263708
-0.01478775 0.018937785 0.011370277 13019047
-0.013255384 0.018925652 0.011412056 12366514
-0.011724621 0.018922176 0.011411957 10855588
-0.01019387 0.018918721 0.011411739 11446954
-0.0086631225 0.018915236 0.011411637 12299436
-0.0071323868 0.018911781 0.011411419 11184296
-0.0056016543 0.018908298 0.011411318 10461087
-0.0040709311 0.018904833 0.011411158 10461087
-0.0025402138 0.018901359 0.011410998 10461087
-0.0010095056 0.018897893 0.011410839 10461087
0.00052119506 0.018894421 0.011410678 10526880
0.0020518901 0.018890955 0.011410519 10526880
0.003582577 0.01888749 0.011410361 10526880
0.0051130005 0.018887389 0.011393894 10526880
0.0066434713 0.018887311 0.01137731 10526623
0.0081739891 0.018887253 0.011360607 10526623
0.010445431 0.0043971711 0.081520915 10526623
0.011925029 0.0027618092 0.089425683 10526623
0.013320961 0.0027646057 0.089396685 10461087
0.014716984 0.0027674944 0.089367218 10461087
0.016113104 0.0027701522 0.089338869 10461087
0.017594885 -0.0063484581 0.13349018 10461087
0.018927861 -0.018804196 0.19380711 10526880
0.020302014 0.0027784721 0.089252166 10526880
-0.04869014 0.022372015 -0.012622364 10525081
-0.047316253 0.022926304 -0.015345476 9539728
-0.045928732 0.023468265 -0.018008508 9868179
-0.03850932 0.019944374 -0.00087669573 12419714
-0.036806118 0.019440968 0.0015634794 11374993
-0.035251353 0.019411387 0.0016906445 10850191
-0.033676963 0.01931191 0.0021590064 11307144
-0.032087259 0.019151665 0.0029240863 13084326
-0.030475339 0.018899433 0.0041382927 12889260
-0.028848918 0.018575855 0.0057008644 11972270
-0.027212851 0.01819291 0.0075532929 11972784
-0.0255644 0.017733382 0.0097797401 10921381
-0.024030821 0.017726827 0.0097946618 10790052
-0.022680717 0.018523885 0.0058858586 11578283
-0.021824345 0.021628179 -0.0092885168 11512490
-0.016325243 0.017495802 0.010837253 10197915
-0.014771467 0.017369898 0.011434941 11315625
-0.013240297 0.017359527 0.01146853 12496558
-0.01171042 0.017356064 0.011468372 12954282
-0.01018055 0.0173526 0.011468215 13279392
-0.0086506875 0.017349135 0.011468058 13343386
-0.0071208342 0.017345682 0.011467841 13149348
-0.0055909851 0.017342208 0.011467743 13019561
-0.0040611448 0.017338743 0.011467585 13019561
-0.0025315068 0.017336912 0.011459446 13019561
-0.0010020401 0.017336844 0.01144274 13019304
0.00052747689 0.017336745 0.01142615 13019304
0.0020570422 0.017336657 0.011409501 13019304
0.003586659 0.017336559 0.011392911 13019304
0.005116323 0.017336471 0.011376262 13019304
0.0066460376 0.017336382 0.011359612 13019304
0.0081758015 0.017336294 0.011342962 13019304
0.010439146 0.003109541 0.080817074 13019304
0.011925395 0.0013451071 0.089419968 13019304
0.01332062 0.0013478553 0.089390956 12953768
0.014715935 0.0013507027 0.089361481 12953768
0.016111344 0.0013535712 0.08933188 13019304
0.017591493 -0.0075758211 0.13293651 13019561
0.018924994 -0.019937253 0.19330868 13019304
0.020298138 0.00136148 0.089246497 13019304
-0.048923016 0.02149871 -0.016176036 8487297
-0.047524627 0.021994773 -0.018635985 9276813
-0.037272912 0.019476006 -0.0063407458 8816005
-0.035700969 0.019431986 -0.0061415499 8289918
-0.034119193 0.019351602 -0.0057632695 8158332
-0.032518391 0.019198852 -0.0050286413 7631988
-0.030890126 0.018936004 -0.0037518244 10130066
-0.029266462 0.018673887 -0.0024785849 8026489
-0.027621094 0.018309657 -0.00070243387 9144713
-0.025952654 0.017827272 0.0016556047 10395294
-0.024322392 0.017470825 0.0033935502 10395294
-0.022942271 0.018175416 -9.3631614e-05 10658209
-0.016307825 0.015927445 0.010908013 10197915
-0.014755253 0.015804108 0.01149826 10592673
-0.01322523 0.015795214 0.01152488 11840941
-0.011696236 0.015791768 0.011524668 12889517
-0.010167247 0.015788296 0.01152457 13085097
-0.0086387731 0.015788129 0.01150821 13084840
-0.0071102581 0.015788022 0.011491556 13085354
-0.0055816928 0.015787898 0.011474958 13085611
-0.0040530814 0.01578779 0.011458304 13085611
-0.0025244174 0.015787672 0.011441709 13216169
-0.00099570525 0.015787564 0.011425054 13476257
0.00053305738 0.015787439 0.011408457 13605273
0.0020618702 0.01578732 0.01139186 13020075
0.0035907316 0.015787201 0.011375265 13085354
0.0051196432 0.015787076 0.011358667 13734546
0.006648602 0.015786968 0.011342012 13150376
0.0081776129 0.015786849 0.011325416 13085354
0.010432856 0.0018210182 0.08011277 13085354
0.01192576 -7.0158494e-05 0.089414209 13540765
0.013320279 -6.7472858e-05 0.089385301 13733518
0.014714888 -6.4656066e-05 0.089355752 13605016
0.016109597 -6.2109255e-05 0.089327492 13280934
0.017588101 -0.0088037066 0.13238263 13085354
0.018899282 -5.6757028e-05 0.089269742 13150376
0.020294266 -5.4072309e-05 0.089240834 13410207
-0.049022984 0.020254733 -0.017942579 8487297
-0.028022751 0.018374972 -0.0088380976 8158332
-0.026353689 0.017946994 -0.0067299493 8421504
-0.024692835 0.017522966 -0.0046413532 7763060
-0.023218701 0.017872719 -0.0063963132 8421504
-0.016295755 0.01438787 0.01084496 10526880
-0.014744245 0.014267562 0.011425288 10263708
-0.013216123 0.014265588 0.011417793 11052967
-0.011687984 0.014263626 0.011410238 11775919
-0.010159828 0.014261663 0.011402683 11775919
-0.0086316513 0.014259689 0.011395187 11710383
-0.0071034604 0.014257737 0.011387574 11710383
-0.0055752466 0.014255757 0.011380075 11710383
-0.0040470185 0.014253804 0.011372461 11710383
-0.0025187694 0.014251831 0.011364966 11973041
-0.0009905037 0.014249868 0.011357411 13021360
0.00053778064 0.014247905 0.011349855 13215398
0.0020660837 0.014245931 0.01134236 11710126
0.0035944025 0.014243979 0.011334745 11841455
0.0051227417 0.014241998 0.011327247 13539737
0.0066510979 0.014240045 0.011319633 11841455
0.0081794197 0.014238955 0.011307729 11710383
0.010426563 0.00053159549 0.07940799 11710383
0.011926125 -0.0014840018 0.089408509 13020075
0.013319939 -0.0014813574 0.089379594 13537681
0.014713842 -0.0014785783 0.08934997 13149091
0.01610784 -0.0014758314 0.089320526 12169649
0.017584708 -0.010032101 0.13182853 11710383
0.01889612 -0.0014708244 0.089264043 11972784
0.020290397 -0.0014681916 0.089235187 12823724
-0.016321911 0.01304124 0.0098218843 10982548
-0.014765578 0.012901764 0.010503374 10790052
-0.013237074 0.012902088 0.010484294 11709612
-0.011708513 0.012902416 0.010465216 11841198
-0.010179893 0.012902739 0.010446135 10790052
-0.0086512156 0.012903061 0.010427055 10526880
-0.0071225399 0.012903797 0.010405919 10526880
-0.0055939076 0.012905309 0.010380902 10592416
-0.004065197 0.012906813 0.010355884 10592416
-0.0025364084 0.012908312 0.010330928 10658209
-0.0010075413 0.012909823 0.010305911 11250089
0.0005214038 0.012911327 0.010280893 12038320
0.0020504291 0.012912827 0.010255936 10526880
0.0035795297 0.012914347 0.01023086 10724259
0.0051087094 0.012915851 0.010205842 12431793
0.0066379686 0.01291735 0.010180884 10658209
0.008167305 0.012918852 0.010155865 10526880
0.010420265 -0.00075873401 0.078702748 10526880
0.01192649 -0.002896412 0.089402832 11250089
0.013319599 -0.002893816 0.089373901 12300207
0.014712797 -0.0028910888 0.089344323 12103856
0.016106095 -0.002888646 0.089316152 10987174
0.017581312 -0.011261011 0.13127419 10592416
0.018892961 -0.0028834695 0.08925841 10790052
0.020286532 -0.0028808957 0.089229599 11710126
-0.016545834 0.012676003 0.0038274501 12225162
-0.014900717 0.012125775 0.0065914257 9012613
-0.01336992 0.012145916 0.0064719436 12692138
-0.011838777 0.012166404 0.0063506961 11906477
-0.010307364 0.012187726 0.0062252749 10461087
-0.0087741474 0.01220029 0.0061440747 10197915
-0.0072415955 0.012219139 0.0060311188 10197915
-0.0057089776 0.012240228 0.0059068105 10197915
-0.0041759429 0.012261333 0.0057824445 10197915
-0.0026424888 0.012282441 0.0056580165 10197915
-0.0011086138 0.012303555 0.0055335904 10526880
0.00042567839 0.01232468 0.0054091047 10790052
0.0019603914 0.012345813 0.005284559 10197915
0.0034955235 0.012366946 0.0051600127 10329501
0.0050310767 0.012388078 0.0050354656 11052967
0.0065670498 0.01240922 0.0049108588 10197915
0.0081034424 0.012430379 0.0047861948 10197915
0.010413962 -0.0020499455 0.077996977 10197915
0.011926855 -0.0043074037 0.089397155 10526880
0.01331926 -0.0043048593 0.089368269 10921381
0.014711753 -0.0043021524 0.089338563 10855588
0.016104342 -0.0042995056 0.089309148 10395294
0.017577915 -0.012490432 0.13071959 10197915
0.018889803 -0.0042946958 0.089252792 10658209
0.020282671 -0.0042921635 0.089223966 11578540
-0.016889239 0.012881386 -0.0051757405 10718605
-0.015184936 0.012106451 -0.001241259 9276556
-0.013639176 0.012114044 -0.0012979221 9336952
-0.012095471 0.012134347 -0.0014194256 12103599
-0.010551358 0.012154656 -0.0015409274 10461087
-0.0090068374 0.012174968 -0.0016624912 10197915
-0.0074619045 0.012195279 -0.0017840556 10263708
-0.0059165643 0.012215607 -0.0019056776 10329501
-0.0043708142 0.012235927 -0.0020273023 10329501
-0.0028246562 0.012256265 -0.0021489845 10329501
-0.0012780867 0.012276594 -0.0022706697 10395294
0.0002688907 0.01229695 -0.0023924713 10461087
0.0018162265 0.012317839 -0.0025169796 10461087
0.003363858 0.012340125 -0.0026486698 10395294
0.0049119326 0.012362438 -0.0027804764 10395037
0.0064604515 0.012384752 -0.0029122839 10197915
0.008009417 0.012407064 -0.0030440919 10197915
0.010407655 -0.0033420566 0.077290736 10197915
0.011927218 -0.0057169516 0.089391425 10197915
0.013318921 -0.0057144593 0.089362592 10329501
0.01471071 -0.0057118004 0.089332864 10395294
0.016102601 -0.0057094721 0.08930485 10395294
0.017574515 -0.013720362 0.13016474 10329501
0.018886652 -0.0057044965 0.089247175 10855588
0.020278813 -0.0057020052 0.089218341 12300207
0.010401345 -0.0046350751 0.076584034 10197915
0.011927582 -0.0071250913 0.089385763 10197915
0.013318582 -0.0071226405 0.089356914 11052967
0.014709669 -0.0071200337 0.089327239 12103342
0.016100852 -0.0071174875 0.089297861 11709355
0.017571116 -0.014950837 0.12960981 11118503
0.0188835 -0.0071128532 0.089241512 10987174
0.020274961 -0.0071104211 0.089212716 11841198
0.010395029 -0.0059289713 0.075876735 10197915
0.011927946 -0.0085317949 0.089380048 10197915
0.013318243 -0.0085294032 0.089351244 11841198
0.014708628 -0.0085268375 0.089321561 12496301
0.016099114 -0.0085246088 0.089293577 12364972
0.017567715 -0.016181795 0.12905447 11775148
0.018880354 -0.0085198088 0.089235909 10790052
0.020271111 -0.0085174181 0.089207105 10921381
0.010388709 -0.0072237854 0.075169027 10395294
0.011928308 -0.0099370973 0.089374401 10395294
0.013317904 -0.0099347467 0.089345582 11578540
0.014707589 -0.0099322116 0.089315824 11775405
0.016097369 -0.0099297874 0.089286596 11775148
0.017564312 -0.017413279 0.12849896 11446954
0.01887721 -0.0099253459 0.089230314 10724259
0.020267267 -0.0099229971 0.089201495 10724259
0.010382385 -0.008519507 0.074460857 11447211
0.011928671 -0.01134098 0.089368761 11447211
0.013317567 -0.011338672 0.089339927 11709869
0.014706555 -0.011336373 0.08931116 11315882
0.016095635 -0.011334064 0.089282326 11184296
0.017560909 -0.018645287 0.12794323 11446954
0.01887407 -0.011329447 0.089224666 11578540
0.020263424 -0.011327167 0.089195952 11841198
0.01037599 -0.009814945 0.073745899 12168364
0.011929032 -0.012743435 0.089363061 12168364
0.013317229 -0.012741177 0.089334279 12757160
0.014705517 -0.012738927 0.08930549 12300207
0.016093893 -0.012736398 0.089275233 11447211
0.017557502 -0.019877791 0.12738721 12037292
0.018870914 -0.012719083 0.089149296 12364715
0.020259744 -0.012709822 0.089083113 12757674
0.0103694 -0.011107951 0.073012345 11709098
0.011862289 -0.012733633 0.081755072 11709098
0.013262539 -0.012724308 0.081687771 13343386
0.014663013 -0.012714978 0.081620477 13149862
0.016092157 -0.014137592 0.089269616 12234414
0.017554095 -0.021110827 0.12683097 11774891
0.018865775 -0.012686953 0.081418343 12167850
0.020267144 -0.01267761 0.08135093 12886947
0.010362804 -0.012401917 0.072278112 10592416
0.011793279 -0.012701371 0.073889531 10592416
0.013206276 -0.012691948 0.073820941 12299436
0.014619501 -0.012682537 0.073752411 12887461
0.016090423 -0.015537376 0.089264005 11972013
0.017550686 -0.022344388 0.12627457 10789795
0.018860543 -0.012654244 0.073546529 10987174
0.02027468 -0.012644812 0.073477872 12364715
0.010297275 -0.01267839 0.06595128 10855588
0.011723004 -0.012668592 0.065879859 10855588
0.013148979 -0.012658993 0.065809503 11644076
0.01457519 -0.012649483 0.065739684 12103342
0.016088691 -0.016935747 0.089258403 11250089
0.017547278 -0.023578454 0.12571788 10921381
0.018855214 -0.012620935 0.065529965 10921638
0.010212482 -0.012645124 0.057794537 11840427
0.011651427 -0.012635238 0.05772176 11840427
0.013090619 -0.012625432 0.05764946 12169392
0.014530057 -0.012615828 0.057578281 11447211
0.01608696 -0.018332722 0.089252792 11052967
0.017543865 -0.024813043 0.12516096 11906991
0.018849786 -0.012587015 0.05736468 11710126
0.0101261 -0.012611226 0.049485013 13212828
0.011578511 -0.012601246 0.04941088 13212828
0.013031168 -0.012591278 0.049336806 13410207
0.014484079 -0.012581549 0.049264092 12038320
0.016085232 -0.019728284 0.089247182 11644076
0.017540453 -0.026048156 0.12460383 13018790
0.018844258 -0.01255244 0.049046304 12496558
0.010038087 -0.012576697 0.04101846 12168878
0.011504216 -0.012566625 0.040942971 12168878
0.012970596 -0.01255655 0.040867422 12168878
0.01443723 -0.012546613 0.04079264 11315882
0.016083505 -0.021122443 0.089241579 11118503
0.017537039 -0.027283773 0.12404641 11972270
0.018838624 -0.012517221 0.040570721 11513004
0.0099483952 -0.012541516 0.032390457 10197915
0.011428504 -0.012531344 0.032313488 10197915
0.012908868 -0.012521168 0.032236461 10197915
0.014389488 -0.012511008 0.032159548 10197915
0.01608178 -0.022515204 0.089235976 10197915
0.017533623 -0.028519923 0.12348882 10197915
0.018832881 -0.012481342 0.031933371 10197915
0.0098569738 -0.01250564 0.023596143 6579300
0.011351332 -0.012495376 0.023517694 10197915
0.01284595 -0.012485101 0.023439184 10197915
0.014340829 -0.012474816 0.023360614 10197915
0.016080057 -0.023906566 0.089230374 10197915
0.017331373 -0.012454739 0.023206318 10197915
0.01882703 -0.012444757 0.023129465 10197915
-0.014560314 -0.011644665 0.010148118 7695725
-0.013042701 -0.011649251 0.010155052 7562854
-0.011525515 -0.011651852 0.010150429 7432553
-0.010008337 -0.01165438 0.010145392 6052699
-0.0084922751 -0.011650663 0.010104029 5329233
-0.0069766785 -0.011643435 0.010042221 8156790
-0.0054620113 -0.011629148 0.0099393455 9664118
-0.0039470014 -0.011614869 0.009836467 7958640
-0.0024316488 -0.011600584 0.0097335903 11246234
-0.00091529801 -0.0115913 0.00965981 12226447
0.00060147012 -0.011583444 0.0095943259 11768466
0.0021184525 -0.011575588 0.0095288409 11245720
0.0036356517 -0.011567732 0.0094633559 9868436
0.005153066 -0.011559866 0.0093978113 8487297
0.0066706967 -0.011552012 0.0093323253 8487297
0.0097637754 -0.012469075 0.014630836 8750469
0.01127266 -0.012458708 0.014550843 10524567
0.012781809 -0.012448321 0.014470733 11440272
0.014291224 -0.012437944 0.014390681 11774891
0.016078334 -0.025296547 0.089224882 11774891
0.017310854 -0.012417552 0.014232649 11774891
0.018821064 -0.012407469 0.014154254 7170207
-0.016038161 -0.013275042 0.010785632 10518142
-0.014500131 -0.013379733 0.011381024 7954014
-0.012985801 -0.01338235 0.011376523 6115408
-0.011471469 -0.013384967 0.011372023 8346716
-0.0099571291 -0.013387574 0.011367464 9010300
-0.008442834 -0.013389885 0.011361186 5526612
-0.0069286749 -0.013391331 0.011349808 6250078
-0.0054144864 -0.013392773 0.01133837 7697524
-0.003900266 -0.013394219 0.011326992 7960953
-0.002386014 -0.013395655 0.011315555 9079177
-0.00087173213 -0.01339709 0.011304119 11442328
0.00064258144 -0.013398536 0.011292741 12291983
0.0021569266 -0.013399978 0.011281301 12161425
0.0036713043 -0.013401425 0.011269923 9999765
0.0051857117 -0.01340286 0.011258487 8355711
0.0067001511 -0.013404296 0.01124705 8421504
0.0082146218 -0.01340575 0.011235669 8421504
0.0097291227 -0.013407185 0.011224233 8816262
0.01124235 -0.013383454 0.0110648 10328473
0.0127541 -0.013311609 0.010622483 11311513
0.014265178 -0.013171447 0.0097784558 11176329
0.016076615 -0.026685115 0.089219272 13342358
0.017289933 -0.012379639 0.0050826259 13342358
0.018814981 -0.012369435 0.0050026309 7625363
-0.016020034 -0.014813988 0.010882366 6443602
-0.014485057 -0.014908258 0.011422008 5064262
-0.012971469 -0.014911341 0.011420235 2171169
-0.011457887 -0.014914419 0.011418465 4670789
-0.0099443011 -0.014917506 0.011416753 6445915
-0.0084307194 -0.014920582 0.011414982 5788756
-0.0069171404 -0.014923667 0.011413209 5920599
-0.0054035624 -0.014926743 0.011411439 7761775
-0.0038899868 -0.01492983 0.011409727 4605510
-0.0023764111 -0.014932907 0.011407956 5329233
-0.00086283701 -0.014935995 0.011406245 6052956
0.00065073313 -0.014939079 0.011404471 9274757
0.0021643033 -0.014942166 0.01140276 11045514
0.0036778708 -0.014945243 0.011400989 8486783
0.0051914374 -0.01494832 0.011399219 6974058
0.0067050061 -0.01495146 0.011397802 7171437
0.0082185809 -0.014954722 0.011397098 7368816
0.0097321505 -0.014957965 0.011396336 7434609
0.011244593 -0.014939804 0.011268385 7500402
0.012755495 -0.014875058 0.010863752 7895160
0.014266081 -0.014757819 0.010147316 9473164
0.016074898 -0.028072303 0.089213721 9802129
0.017290987 -0.014223232 0.0069317152 6973596
-0.016008075 -0.016325098 0.01082339 4012602
-0.014473794 -0.016418349 0.011362476 7098448
-0.012960874 -0.016421435 0.011360765 6969689
-0.011447956 -0.016424522 0.011359055 2763306
-0.0099350391 -0.016427597 0.011357285 6577244
-0.0084221242 -0.016430683 0.011355574 4802632
-0.006909214 -0.016433747 0.011353745 7628904
-0.0053963028 -0.016436841 0.011352032 6183257
-0.0038833939 -0.016439917 0.011350263 5525841
-0.0023704851 -0.016443003 0.011348552 4342338
-0.00085757003 -0.016446145 0.011347198 3552822
0.00065535499 -0.016449388 0.011346438 7891048
0.0021682726 -0.016452637 0.011345675 8743273
0.0036811873 -0.016455879 0.011344915 6970974
0.0051940954 -0.01645912 0.011344154 6315614
0.0067070001 -0.01646238 0.011343451 3618358
0.0082198987 -0.016465623 0.011342691 3026478
0.0097327922 -0.016468866 0.01134193 2894892
0.011244503 -0.016449837 0.011207506 3881787
0.012754687 -0.016384559 0.010795548 3684408
0.014264536 -0.016265977 0.010063735 5263183
0.01607318 -0.029458093 0.089208111 6579300
0.017288102 -0.015730374 0.0068090516 7367835
-0.028053936 -0.017958339 0.011675834 6443602
-0.026533522 -0.017989533 0.011844423 2434084
-0.025026048 -0.017979668 0.011764275 1842204
-0.023537599 -0.017903483 0.011282247 1776411
-0.015996182 -0.017834658 0.010763149 6248793
-0.01446254 -0.017927125 0.011303104 6313044
-0.012950289 -0.017930198 0.011301336 7820372
-0.011438039 -0.017933272 0.011299566 4142646
-0.0099257873 -0.017936358 0.011297857 3947580
-0.0084135262 -0.01793951 0.011296564 3684408
-0.0069012516 -0.017942751 0.011295804 4013373
-0.0053889821 -0.017945992 0.011295045 9137260
-0.0038767164 -0.017949242 0.011294344 10380131
-0.0023644562 -0.017952483 0.011293585 6249307
-0.0008522037 -0.017955724 0.011292825 3815994
0.00066004711 -0.017958976 0.011292125 7628647
0.0021722903 -0.017962206 0.011291307 9921379
0.0036845289 -0.017965447 0.011290547 10117216
0.0051967641 -0.017968699 0.011289847 7497318
0.0067089922 -0.01797194 0.011289088 4276545
0.0082212165 -0.017975181 0.011288329 3487029
0.0097334348 -0.017978432 0.011287629 3487029
0.011244402 -0.017958371 0.011145597 3487029
0.012753881 -0.017892763 0.010727436 3487029
0.014262965 -0.017772017 0.0099749444 3421236
0.016071465 -0.0308425 0.089202553 3354981
0.017285133 -0.017229561 0.0066449749 5851291
-0.048604324 -0.020667948 0.019265879 9337209
-0.037106074 -0.019438069 0.011573804 7236459
-0.035568938 -0.019510204 0.011994846 9276042
-0.034049463 -0.019538105 0.012145108 10197915
-0.032537606 -0.019546071 0.012173345 4934218
-0.03102508 -0.019556269 0.012215183 4472896
-0.029510979 -0.019571623 0.01228863 3223600
-0.027999306 -0.01958028 0.012321085 7493463
-0.026488964 -0.01958509 0.012330015 3158064
-0.024983913 -0.019572627 0.012233135 2105376
-0.023503149 -0.019476395 0.011623373 1776411
-0.022289917 -0.018428598 0.0051870616 1776411
-0.015988464 -0.019325646 0.010597376 9604750
-0.014454423 -0.01942105 0.011161016 12625317
-0.012942451 -0.01942523 0.01116602 7956584
-0.011430505 -0.01942941 0.011171025 3815223
-0.0099185798 -0.019433595 0.011176091 3618615
-0.0084066838 -0.019437775 0.011181096 3487029
-0.0068948083 -0.019441959 0.011186161 3421236
-0.0053829607 -0.019446138 0.011191165 5920599
-0.0038711394 -0.01945032 0.01119617 5986135
-0.0023593381 -0.019454503 0.011201235 4276545
-0.00084756495 -0.019458683 0.01120624 3552822
0.00066418591 -0.019462882 0.011211302 4868425
0.0021759088 -0.019467046 0.011216311 5328976
0.0036876092 -0.019471226 0.011221316 5262926
0.0051992848 -0.019475425 0.011226377 4407874
0.0067109349 -0.019479591 0.011231387 3618615
0.0082225325 -0.019483391 0.011234075 3487029
0.0097340764 -0.01948663 0.011233317 3421236
0.011244029 -0.019460525 0.011052774 3421236
0.012753074 -0.019399682 0.010659412 3421236
0.014261291 -0.019273741 0.0098672705 3421236
0.016069753 -0.032225519 0.089196987 2500192
0.017282007 -0.018714774 0.0064013405 4471962
-0.049643278 -0.023046616 0.024707776 7631731
-0.048258834 -0.022831824 0.023358842 4473667
-0.046998888 -0.022339456 0.020292938 6118749
-0.038728327 -0.020609638 0.0094687724 8355711
-0.037070312 -0.020980876 0.011744559 10197915
-0.035525881 -0.021074247 0.012301457 10197915
-0.034014471 -0.021083606 0.012338563 10197915
-0.032504823 -0.021088421 0.012347617 5723734
-0.030995218 -0.021093218 0.012356615 2236962
-0.029485647 -0.021098033 0.012365669 2236962
-0.02797614 -0.021102794 0.012374303 5327434
-0.026466679 -0.021107497 0.012382706 6443345
-0.0249447 -0.021153077 0.01264396 4473153
-0.023436164 -0.021156359 0.012643566 3749687
-0.02193079 -0.021148628 0.012574993 3289650
-0.016016057 -0.020671045 0.0095366593 11052967
-0.014473672 -0.020796806 0.010294124 12428709
-0.012960543 -0.020802978 0.010311555 9531247
-0.011447628 -0.020808473 0.010324765 5195334
-0.0099347532 -0.020814015 0.010338273 5328719
-0.0084219174 -0.020819644 0.010352315 5262926
-0.006909139 -0.020825271 0.010366296 5394512
-0.0053964145 -0.020830886 0.010380344 3421236
-0.003883746 -0.020836512 0.010394325 3355443
-0.0023711317 -0.020842141 0.010408367 3355443
-0.00085857313 -0.020847753 0.010422353 3355443
0.00065392943 -0.020853378 0.010436334 3355443
0.0021663781 -0.020859011 0.010450438 3355443
0.003678771 -0.020864623 0.010464424 4868425
0.0051911068 -0.020870248 0.010478405 6708573
0.0067033889 -0.020875858 0.010492392 6971231
0.0082156155 -0.020881487 0.010506434 7168353
0.0097277872 -0.020887116 0.010520478 7299682
0.011238706 -0.020870836 0.01039887 7496547
0.01274784 -0.020804791 0.0099692317 7627619
0.014257088 -0.020698832 0.0092924228 5523836
0.015767265 -0.02053347 0.0082477732 1249930
0.017278703 -0.020184882 0.0060686977 3222933
-0.049617738 -0.024526129 0.02463386 7697524
-0.04820485 -0.024374045 0.023662576 5000011
-0.04682583 -0.024142863 0.022196755 3420979
-0.045444496 -0.023905871 0.020694595 9003618
-0.044127841 -0.023513334 0.018219886 10982291
-0.038735129 -0.022046717 0.0089673623 10658466
-0.037035584 -0.022519067 0.011899586 10658466
-0.035500892 -0.022588884 0.012315173 10658466
-0.033972759 -0.022644965 0.012644888 10592673
-0.032464936 -0.022648271 0.012644674 10526880
-0.030957127 -0.022651576 0.012644399 6645093
-0.029449314 -0.022654898 0.012644242 4473924
-0.027941497 -0.022658251 0.012644325 2960685
-0.026433695 -0.022661583 0.012644291 5524556
-0.024925917 -0.022664865 0.012643897 5984079
-0.023418145 -0.022668147 0.012643504 6246994
-0.021911509 -0.022667527 0.012618666 6640210
-0.016018676 -0.022119712 0.009108806 10197915
-0.014505029 -0.022122601 0.0091059068 11380904
-0.01299138 -0.022125505 0.0091030039 8875887
-0.011477727 -0.022128392 0.0091001056 6770254
-0.0099640749 -0.022131296 0.0090972027 9392979
-0.0084504178 -0.022134185 0.0090943044 10113875
-0.006936762 -0.02213707 0.0090913437 9788765
-0.0054230997 -0.022139978 0.0090885023 2631720
-0.0039094379 -0.022142863 0.0090855425 2763306
-0.0023957721 -0.022145769 0.0090827011 2829099
-0.00088210637 -0.022148654 0.0090797413 2894892
0.00063156505 -0.022151547 0.0090769036 3026478
0.0021452364 -0.02215445 0.0090740006 3092271
0.0036589105 -0.022157339 0.0090711024 6314329
0.0051725823 -0.022160182 0.0090679061 9330784
0.0066862437 -0.022162883 0.0090637542 9068383
0.0081999106 -0.022165561 0.009059485 9789536
0.0097135855 -0.022168249 0.0090553388 10116188
0.011219071 -0.022022454 0.0081220362 8544352
0.012732875 -0.021992281 0.007912226 8479587
0.014247422 -0.021963216 0.0077093127 6114429
0.015760049 -0.021822339 0.0068068136 2368145
0.017272182 -0.021399667 0.004140846 2039439
-0.049600884 -0.025986899 0.024449538 10847364
-0.048189018 -0.025835209 0.023470327 4539203
-0.046783261 -0.025663642 0.022365451 3223343
-0.045379486 -0.025479741 0.021182567 10654611
-0.043978114 -0.025281684 0.019910131 7697267
-0.042587992 -0.025048437 0.018415349 7827311
-0.041223295 -0.024744557 0.016474143 12232872
-0.039923482 -0.024270868 0.013459818 13018533
-0.038465075 -0.024158886 0.012731047 13215655
-0.036963534 -0.02414869 0.012645513 13215655
-0.035456467 -0.024151992 0.012645238 13215912
-0.033949401 -0.02415528 0.012644969 12495530
-0.03244235 -0.02415858 0.012644694 12233129
-0.030935301 -0.024161883 0.01264442 12298665
-0.02942826 -0.02416517 0.01264415 12691881
-0.027921222 -0.024168475 0.012643937 13019047
-0.026414195 -0.024171777 0.012643663 12888232
-0.024907157 -0.024175124 0.012643686 8616827
-0.023400145 -0.024178412 0.012643417 8747642
-0.021893142 -0.024181692 0.012643024 6380379
-0.021257328 -0.021088833 -0.0069286576 5655885
-0.01600356 -0.023639493 0.0091309771 10197915
-0.014383015 -0.024094116 0.01198382 10790052
-0.012864005 -0.024145398 0.012286881 6183514
-0.011396887 -0.023962248 0.011107953 2697513
-0.0099521484 -0.023651186 0.0091201542 2894635
-0.0084392931 -0.023654113 0.0091174319 3157807
-0.0069264336 -0.023657043 0.0091147712 3092014
-0.0054135974 -0.023659835 0.0091112163 1644825
-0.0039007908 -0.02366242 0.0091063529 1579032
-0.0023879749 -0.023664992 0.0091014933 1710618
-0.0008751516 -0.023667574 0.0090965685 1776411
0.00063768291 -0.023670159 0.0090917051 1776411
0.0021505309 -0.023672791 0.0090871388 1842204
0.0036633923 -0.02367547 0.0090828706 2236962
0.005176262 -0.023678152 0.0090786638 2631463
0.0066891364 -0.023680829 0.0090743955 2500134
0.0082020191 -0.023683511 0.0090701887 6182743
0.0097149098 -0.02368621 0.0090660388 8216415
0.011220758 -0.023562543 0.0082626985 2565927
0.012672314 -0.022172613 -0.00054910284 2565927
0.014213557 -0.022525582 0.0016618668 3288725
0.015737236 -0.022451779 0.001173695 3551638
-0.049585257 -0.027444394 0.024249941 7500145
-0.048179187 -0.027283307 0.023200052 3750201
-0.046771649 -0.027117871 0.022122357 7166297
-0.045365453 -0.026941787 0.020976556 7891819
-0.043955557 -0.026765306 0.019828191 7697524
-0.042542592 -0.026586991 0.018668033 12298922
-0.04113913 -0.026377866 0.017311009 12298151
-0.039713632 -0.026209719 0.016215788 12559781
-0.038291231 -0.026025165 0.015015608 12954025
-0.036872417 -0.025821649 0.013694284 12954282
-0.035409372 -0.025719339 0.013019374 13280163
-0.033923022 -0.025672074 0.012696098 13083298
-0.032419782 -0.025667371 0.012644751 12560038
-0.030913502 -0.025670655 0.012644421 12298151
-0.029407216 -0.025673961 0.01264427 12428966
-0.027900945 -0.025677247 0.012644002 12625060
-0.02639468 -0.025680548 0.012643729 12820897
-0.02488842 -0.025683833 0.01264346 13016220
-0.023382168 -0.025687119 0.012643192 12101029
-0.02187592 -0.02569044 0.012643037 12363687
-0.020383148 -0.025646359 0.012340117 13277079
-0.018870935 -0.025669644 0.012467598 11118246
-0.017356105 -0.025704574 0.01266943 10855588
-0.01584198 -0.025739463 0.012871088 10658209
-0.014328659 -0.025773872 0.013069713 10592673
-0.012822315 -0.02578092 0.013093497 5130826
-0.011328863 -0.025729567 0.012744017 2236962
-0.0098776715 -0.025469739 0.011062164 1842204
-0.0084288958 -0.025168793 0.0091173472 5196362
-0.0069168038 -0.025171705 0.0091146305 4407360
-0.0054047103 -0.025174629 0.0091119092 2434341
-0.0038926145 -0.025177553 0.0091091888 2236962
-0.0023805187 -0.02518048 0.0091064675 2236962
-0.00086841919 -0.025183389 0.0091037508 2171169
0.00064368022 -0.025186313 0.0091010295 2039583
0.0021557834 -0.02518924 0.0090983082 1973790
0.0036678857 -0.025192164 0.0090955868 2039583
0.0051799905 -0.025195075 0.0090928702 4078652
0.0066920975 -0.025198 0.0090901498 4867654
0.0082042078 -0.025200946 0.0090875467 3157807
0.0097146565 -0.025179157 0.0089268852 2829099
0.011219406 -0.02504674 0.0080589047 2302755
-0.049574815 -0.028890857 0.023984423 5987163
-0.048169199 -0.028731178 0.022932095 3355443
-0.046760198 -0.028571136 0.02187738 4276288
-0.045354132 -0.028397346 0.020733923 7171437
-0.043944541 -0.028222797 0.019585455 10724259
-0.042531278 -0.028047791 0.018433942 11512490
-0.041110616 -0.027880713 0.017333584 11446954
-0.039682753 -0.027721712 0.016285457 11381418
-0.038234312 -0.027603377 0.015499798 11578540
-0.036785122 -0.02748036 0.014683878 11578540
-0.035319425 -0.027391981 0.014091597 12299693
-0.033843841 -0.027324021 0.013631177 12822439
-0.032361377 -0.027270252 0.01326248 11709098
-0.030868053 -0.02724291 0.013064356 11381161
-0.029374866 -0.027213309 0.012851638 11446954
-0.027871622 -0.027210986 0.01281522 11446954
-0.026364198 -0.027220959 0.012858071 11905706
-0.024856927 -0.027230917 0.012900926 12885662
-0.023349812 -0.027240872 0.012943781 11249832
-0.021843024 -0.027250266 0.01298288 11512490
-0.020333348 -0.027270153 0.013089944 13731462
-0.018826632 -0.027280705 0.013136609 12167336
-0.017321501 -0.0272859 0.013148671 11970728
-0.015816906 -0.02728918 0.013148343 11315882
-0.01431229 -0.027292576 0.013148791 10395294
-0.01280773 -0.027295766 0.01314793 5262412
-0.011312514 -0.027256804 0.012874693 2565670
-0.00984181 -0.02709705 0.01182102 1907997
-0.0084185144 -0.026681917 0.0091171246 3684151
-0.0069071846 -0.026684843 0.0091144657 8411224
-0.0053958581 -0.026687749 0.0091116885 8609374
-0.003884526 -0.02669069 0.0091090258 8609631
-0.0023731941 -0.026693596 0.0091062486 8609631
-0.00086186 -0.026696522 0.0091035906 7232090
0.00064947567 -0.026699442 0.0091008088 3815737
0.0021608134 -0.026702369 0.0090981498 2434341
0.0036721509 -0.026705274 0.0090953736 2236962
0.0051829503 -0.02670284 0.0090579856 2631720
0.0066926898 -0.026687263 0.0089357859 3881530
0.0082011139 -0.02664989 0.0086725932 4867911
0.009708425 -0.026583103 0.0082193352 6904410
0.011190025 -0.026038304 0.004676511 7953757
-0.049563758 -0.030337935 0.023726827 6184542
-0.048158422 -0.030180039 0.022674507 4210752
-0.046749715 -0.030021753 0.021619618 2631720
-0.045342814 -0.029852223 0.020491252 6973287
-0.043933541 -0.029679609 0.019342741 11643562
-0.042520579 -0.029506544 0.018191248 11709355
-0.041099008 -0.029344082 0.017108867 11052967
-0.03966707 -0.029197033 0.016127065 10461087
-0.038217459 -0.029083893 0.015366695 10461087
-0.036758978 -0.028986046 0.014706069 10461087
-0.03529226 -0.028903136 0.01414305 11578540
-0.033809844 -0.02885562 0.013811052 12299436
-0.032318793 -0.028827917 0.013608484 10987174
-0.030827068 -0.028800212 0.013405853 10461087
-0.029334672 -0.028772486 0.013203102 10461087
-0.027833641 -0.028767752 0.013150519 10461087
-0.026329739 -0.028771082 0.013150613 10987174
-0.024825864 -0.028774364 0.013150348 11972270
-0.023322001 -0.02877764 0.013150021 10461087
-0.021818141 -0.028780919 0.013149695 10724259
-0.020314291 -0.028784178 0.013149312 13731462
-0.018810442 -0.028787442 0.01314899 11905192
-0.017306605 -0.02879072 0.013148664 11576741
-0.015802771 -0.028793981 0.013148341 11250346
-0.014298921 -0.028797355 0.013148672 10395294
-0.012797737 -0.02878941 0.013075049 6052185
-0.011308265 -0.028728073 0.012652699 3552565
-0.0098323077 -0.028596558 0.011771724 2828842
-0.0084081395 -0.028193524 0.0091169998 2828842
-0.0068975789 -0.028196428 0.0091142235 4867654
-0.0053870124 -0.02819935 0.009111505 5327948
-0.0038764458 -0.028202271 0.0091087865 5525070
-0.0023658774 -0.028205194 0.009106067 5590863
-0.00085530721 -0.028208116 0.0091033485 8019036
0.00065486791 -0.02820811 0.0090815006 7034454
0.0021635131 -0.028195217 0.0089755096 6509652
0.0036699658 -0.028159849 0.0087225577 4144445
0.005176222 -0.028114202 0.0084025068 2960685
0.0066807605 -0.02803779 0.0078813229 4210238
0.0081773335 -0.0278395 0.0065637324 6772310
0.0096564619 -0.027322344 0.0031622641 6837589
0.011108523 -0.02613527 -0.0046173343 5457783
-0.049555689 -0.03177866 0.023431381 8682106
-0.04814766 -0.031628262 0.022416929 5263183
-0.046739232 -0.031471755 0.021361986 2434341
-0.045331504 -0.031306431 0.020248791 7169638
-0.043922536 -0.03113577 0.019100234 12168107
-0.042509891 -0.030964637 0.017948635 12037292
-0.041087404 -0.030806728 0.016884189 10987431
-0.03965136 -0.03067147 0.015969386 10197915
-0.038202234 -0.03055959 0.015208811 10197915
-0.036741652 -0.030469015 0.014588871 10197915
-0.035275232 -0.030387685 0.014029918 11184296
-0.03379067 -0.030347575 0.013743186 11775148
-0.032300252 -0.030320225 0.013540758 10592673
-0.030809164 -0.03029287 0.013338205 10197915
-0.029316261 -0.030268656 0.013156401 10197915
-0.027813444 -0.03027107 0.013150414 10197915
-0.026310313 -0.030274374 0.013150329 10461087
-0.024807183 -0.030277686 0.013150367 10790052
-0.023304081 -0.030280944 0.013149985 10329501
-0.02180098 -0.03028422 0.013149659 11250089
-0.020297887 -0.030287486 0.0131494 13666183
-0.018794801 -0.030290743 0.013149017 11052710
-0.017291725 -0.030294001 0.013148636 10921381
-0.015788635 -0.030297348 0.013148787 10658466
-0.014285587 -0.030300535 0.013147928 10592673
-0.012795602 -0.030248748 0.012783976 11643562
-0.011309501 -0.030174384 0.012270848 9139830
-0.0099075679 -0.029700719 0.0091198087 9337723
-0.0083977729 -0.029703617 0.0091169728 7628647
-0.0068879756 -0.029706534 0.0091141937 5986135
-0.0053781765 -0.029709432 0.0091113579 4210752
-0.0038683757 -0.029712332 0.009108522 4144959
-0.002360387 -0.029703837 0.0090303812 4276545
-0.00085595663 -0.029669538 0.0087817181 3684151
0.00064849219 -0.029629262 0.0084936479 4604739
0.0021495731 -0.029554432 0.007977156 4604739
0.0036453018 -0.029417491 0.0070503396 5064519
0.0051055723 -0.028906217 0.0036498616 6115151
0.0065769413 -0.028390277 0.00021848649 6509395
0.008059904 -0.027873879 -0.0032161905 5656142
0.0095542343 -0.027353516 -0.0066771749 4801861
-0.049548194 -0.033217788 0.023128692 7368045
-0.048136901 -0.033075884 0.022159476 3750201
-0.04672876 -0.03292115 0.021104418 2368548
-0.045320202 -0.032759976 0.020006411 6775908
-0.043911539 -0.032591239 0.018857814 11578283
-0.042498313 -0.032423966 0.017718935 11446954
-0.041075807 -0.032268628 0.016659619 10789795
-0.039635666 -0.032144953 0.015811756 10197915
-0.038186621 -0.032035235 0.015057061 10197915
-0.036724344 -0.031950884 0.014471705 10197915
-0.035256702 -0.031874791 0.013941525 10724259
-0.033771511 -0.031838264 0.013675467 10987174
-0.03228173 -0.03181126 0.013473055 10658209
-0.030791279 -0.03178424 0.013270524 10461087
-0.029295625 -0.031769633 0.013150844 10461087
-0.027793264 -0.031772871 0.013150405 10461087
-0.026290897 -0.031776153 0.013150204 10461087
-0.024788534 -0.031779453 0.01315006 10461087
-0.023286179 -0.031782743 0.01314998 10724259
-0.021783834 -0.031786021 0.013149718 12299179
-0.020281501 -0.031789262 0.013149341 13341330
-0.018779177 -0.031792536 0.013149017 10263708
-0.017276855 -0.031795796 0.013148697 10197915
-0.015774533 -0.031799085 0.013148618 10197915
-0.014281005 -0.031767443 0.012915057 10921381
-0.01279223 -0.031712726 0.01252742 12363944
-0.011355489 -0.031424884 0.01058227 12756646
-0.0098964646 -0.031209219 0.0091192788 11972013
-0.0083874287 -0.031212138 0.0091165621 11578283
-0.0068783918 -0.03121504 0.0091137886 11315625
-0.0053694481 -0.031217437 0.0091075515 10658466
-0.0038626939 -0.031207046 0.0090158926 10197915
-0.0023666434 -0.031128205 0.0084669385 10197915
-0.00088421797 -0.030945878 0.0072263624 10197915
0.0005647199 -0.030490888 0.0041638003 10197915
0.0020167923 -0.029978847 0.00071986084 10197915
0.0034802302 -0.029464174 -0.0027417496 10197915
0.0049554897 -0.028950434 -0.0061974172 11315882
-0.049541082 -0.034655727 0.02282119 5197647
-0.048126146 -0.034522906 0.02190215 2894892
-0.046718288 -0.034369934 0.020847039 2500134
-0.045308903 -0.034212846 0.019764116 6381921
-0.043900553 -0.034046043 0.018615417 10395294
-0.042486459 -0.033883192 0.01749339 10395294
-0.041062795 -0.033732887 0.016456105 10263708
-0.039619979 -0.033617459 0.015654305 10197915
-0.038170304 -0.033511531 0.014916535 10197915
-0.036706887 -0.033432011 0.014357206 10197915
-0.035237059 -0.033363428 0.013871634 10329501
-0.033752371 -0.033327661 0.013607712 10855588
-0.032263219 -0.033301014 0.01340544 11447211
-0.030771883 -0.033278346 0.01322996 11644076
-0.029274704 -0.033269934 0.013150867 11644076
-0.027773097 -0.03327319 0.013150487 11578540
-0.026271494 -0.03327645 0.01315023 11578540
-0.0247699 -0.03327971 0.013149911 11578540
-0.023268301 -0.033282995 0.013149833 11644076
-0.021766709 -0.033286281 0.013149695 12168107
-0.020265132 -0.033289541 0.013149376 12167850
-0.018763566 -0.033292793 0.013148996 10197915
-0.017261999 -0.033296078 0.013148856 10197915
-0.015764473 -0.033284154 0.013046008 10197915
-0.014277302 -0.033230193 0.01265901 11709869
-0.012819924 -0.033048101 0.01140633 12168107
-0.011393636 -0.032713331 0.0091217998 11775148
-0.0098853633 -0.032716248 0.0091190841 10789795
-0.008377092 -0.032719146 0.0091162501 10461087
-0.0068690786 -0.032720715 0.0091044651 10395294
-0.0053606089 -0.032724578 0.0091081345 10263708
-0.0038619014 -0.032672491 0.0087336544 10197915
-0.002397811 -0.032399811 0.0068684183 10197915
-0.0010751728 -0.03114984 -0.0016018227 10197915
0.00036619321 -0.030544164 -0.0057180459 10197915
-0.049534857 -0.036091577 0.022502542 4473924
-0.04811817 -0.035963986 0.021608653 3355186
-0.046707824 -0.035818085 0.020589674 2829099
-0.045298155 -0.035663955 0.01951438 9144713
-0.043889564 -0.035500176 0.018373229 11052967
-0.042474613 -0.035341661 0.017267892 11052967
-0.04104666 -0.035203073 0.016298564 11052967
-0.039604299 -0.035089016 0.015496901 11052967
-0.038152486 -0.034990218 0.014799424 11052967
-0.036689129 -0.034912761 0.014247757 11052967
-0.035217438 -0.034850776 0.013801711 10658466
-0.033733241 -0.034815792 0.013540104 10987174
-0.032244269 -0.034790646 0.013345793 12299693
-0.030752424 -0.034771282 0.013190947 12561323
-0.029253801 -0.03476873 0.013150923 12364715
-0.027752958 -0.034771964 0.013150487 12168107
-0.026252117 -0.034775224 0.01315017 12168364
-0.02475127 -0.034778487 0.013149975 12168364
-0.023250438 -0.034781747 0.013149719 11906477
-0.021749606 -0.034785029 0.013149581 10987174
-0.020248786 -0.034788292 0.013149325 10855845
-0.018747974 -0.034791548 0.013149007 10197915
-0.017247172 -0.034794789 0.013148633 10197915
-0.015760444 -0.034745667 0.012790346 10197915
-0.014283654 -0.034653179 0.012135648 11184296
-0.0128893 -0.034215908 0.0091242362 11709612
-0.011381787 -0.034218825 0.0091215214 11513004
-0.0098745367 -0.034220565 0.009110745 11184296
-0.0083668362 -0.034224298 0.0091136452 10987174
-0.0068591284 -0.034228146 0.0091173202 10987174
-0.0053524054 -0.034226857 0.0090858852 10987174
-0.003859418 -0.034146994 0.0085172728 10987174
-0.0025780087 -0.032769077 -0.0009254071 10987174
-0.049528636 -0.037527025 0.022183955 6775908
-0.048110899 -0.037403256 0.021306107 7299939
-0.046697363 -0.037265636 0.020332493 6181458
-0.0452879 -0.037113458 0.019258214 11381675
-0.043878585 -0.03695365 0.01813112 12431536
-0.042462766 -0.036799438 0.017042611 12431279
-0.041030541 -0.036672283 0.016141143 12431279
-0.039588634 -0.036559608 0.015339611 12431022
-0.038134605 -0.036467984 0.014683664 12431022
-0.036671385 -0.036392409 0.014138466 12431022
-0.035197832 -0.036336869 0.013731865 11578540
-0.033714134 -0.036302652 0.013472518 11052967
-0.032224145 -0.036281958 0.013306725 12037549
-0.030731859 -0.036265753 0.013171998 12364972
-0.029232923 -0.036266003 0.013150955 11906220
-0.027732832 -0.03626924 0.013150581 11512490
-0.026232753 -0.036272477 0.013150146 11512490
-0.024732662 -0.036275756 0.013150009 11643562
-0.023232587 -0.036279015 0.013149754 11446954
-0.021732517 -0.03628226 0.013149504 10461087
-0.020232448 -0.036285542 0.013149367 10461087
-0.018732395 -0.036288779 0.013148994 10461087
-0.017241655 -0.036259182 0.012921603 10526880
-0.015759377 -0.036195636 0.012459364 10526880
-0.014334069 -0.035906926 0.010440253 11381418
-0.012876862 -0.035719234 0.0091195144 12300207
-0.01137002 -0.035722502 0.0091191875 12431279
-0.0098630553 -0.035726335 0.0091228681 12431279
-0.008356276 -0.035729412 0.009121228 12431022
-0.0068494817 -0.035732564 0.0091201272 12431022
-0.0053468682 -0.035713702 0.0089668017 12431279
-0.003865245 -0.035574071 0.0079782093 12431279
-0.049522415 -0.038962055 0.021865437 9400689
-0.048103631 -0.038842063 0.021003641 10849934
-0.04668691 -0.03871258 0.020075377 8156276
-0.045277651 -0.038562361 0.019002112 12562608
-0.043867603 -0.038406469 0.017889217 13542307
-0.042450827 -0.038256679 0.01681887 13541279
-0.041014686 -0.038140003 0.015980003 13540765
-0.03957298 -0.038029231 0.015182372 13538195
-0.038116328 -0.037945554 0.014574208 13539994
-0.03665366 -0.037870891 0.0140291 13538966
-0.035178233 -0.03782171 0.013662161 12692395
-0.033693999 -0.037790723 0.013422411 11250089
-0.032204043 -0.037771881 0.013267653 11184296
-0.030711224 -0.037759013 0.013154614 11315882
-0.029212065 -0.037761774 0.013151018 10724259
-0.027712733 -0.037765011 0.013150646 10395294
-0.026213406 -0.037768245 0.013150212 10461087
-0.024714079 -0.037771501 0.013149958 10987174
-0.023214756 -0.037774764 0.013149766 11775919
-0.021715442 -0.037778005 0.013149517 11644590
