# .PCD v0.7 - Point Cloud Data file format
VERSION 0.7
FIELDS x y z rgb
SIZE 4 4 4 4
TYPE F F F U
COUNT 1 1 1 1
WIDTH 1049
HEIGHT 1
VIEWPOINT 0 0 0 1 0 0 0
POINTS 1049
DATA ascii
0.017207155 0.0024202201 0.1059696 5855577
0.017216686 0.00093602948 0.10595046 8156790
0.017226165 -0.00054825196 0.10593135 10194060
0.017235642 -0.0020326208 0.10591224 10981777
0.017245119 -0.0035170794 0.10589313 10720661
0.017254647 -0.0050016264 0.10587399 10393495
0.017264122 -0.0064862627 0.10585488 10130837
0.01727365 -0.0079709869 0.10583574 9670543
0.017283175 -0.0094558001 0.1058166 10196630
0.017292701 -0.010940703 0.10579745 8947077
0.017302172 -0.012425695 0.10577834 6381407
0.017311642 -0.013910774 0.10575923 9209478
0.017321166 -0.015395944 0.10574009 10589846
0.017330687 -0.016881201 0.10572094 12037292
0.017340155 -0.018366549 0.10570183 12037292
0.017349675 -0.019851984 0.10568268 11906477
0.017359195 -0.021337511 0.10566354 11840684
0.017368713 -0.022823125 0.10564439 11184296
0.017378232 -0.024308827 0.10562525 10461087
0.01738775 -0.02579462 0.1056061 10263708
0.017397212 -0.0272805 0.10558698 11250089
0.017406728 -0.02876647 0.10556784 13018533
0.017416295 -0.030252529 0.10554866 13601932
0.017115323 0.011357812 0.10442001 5000011
0.01712488 0.0098728715 0.10440079 7430497
0.017134383 0.0083878413 0.10438161 8025461
0.017143937 0.0069027212 0.10436241 7895160
0.017153438 0.0054175123 0.10434322 8750469
0.01716294 0.0039322139 0.10432404 8289918
0.017172439 0.0024468277 0.10430486 8684676
0.017181937 0.00096135057 0.10428567 8485498
0.017191488 -0.00052421447 0.10426646 6579043
0.017200984 -0.0020098686 0.10424728 7631731
0.017210482 -0.0034956113 0.10422809 10523282
0.017219977 -0.0049814442 0.10420891 11899538
0.017229471 -0.0064673657 0.10418972 11637137
0.017239017 -0.0079533746 0.10417051 11571858
0.017248563 -0.0094394749 0.10415129 11046542
0.017258003 -0.010925663 0.10413214 11509406
0.017267548 -0.01241194 0.10411292 6974058
0.017277038 -0.013898307 0.10409374 9667973
0.01728658 -0.015384763 0.10407452 9932173
0.01729607 -0.016871307 0.10405533 12167850
0.017305611 -0.018357942 0.10403612 12102571
0.017315149 -0.019844664 0.1040169 11315625
0.017324636 -0.021331476 0.10399771 11184296
0.017334174 -0.022818377 0.10397849 11513004
0.017343659 -0.024305368 0.1039593 11381675
0.017353196 -0.025792446 0.10394008 10921381
0.017362732 -0.027279615 0.10392086 11052967
0.017372215 -0.028766872 0.10390167 12168621
0.017381696 -0.030254219 0.10388248 12560552
0.01708048 0.011392184 0.10275279 6578015
0.017090108 0.0099059585 0.10273348 7102303
0.01709963 0.0084196413 0.10271423 8747642
0.017109152 0.0069332351 0.10269497 9735822
0.01711862 0.0054467376 0.10267574 10063759
0.017128194 0.0039601554 0.10265645 9276299
0.01713766 0.0024734791 0.10263723 8421504
0.01714723 0.00098671834 0.10261794 8553090
0.017156696 -0.00050013489 0.10259872 8421504
0.017166212 -0.0019870759 0.10257946 7170923
0.017175781 -0.0034741058 0.10256017 7368045
0.017185243 -0.0049612266 0.10254094 9801872
0.017194757 -0.0064484347 0.10252169 9998223
0.017204324 -0.0079357326 0.1025024 10260367
0.017213784 -0.0094231209 0.10248317 10390411
0.017223297 -0.010910597 0.10246391 10653583
0.01723286 -0.012398162 0.10244462 8487297
0.01724237 -0.013885817 0.10242536 10319478
0.017251879 -0.015373562 0.1024061 9538443
0.01726144 -0.016861396 0.10238681 8749955
0.017270949 -0.018349318 0.10236754 11446954
0.017280456 -0.019837329 0.10234828 11381418
0.017290013 -0.021325432 0.10232899 11906991
0.017299466 -0.02281362 0.10230976 12823467
0.017309023 -0.024301901 0.10229047 12822953
0.01731858 -0.02579027 0.10227118 11906477
0.017328084 -0.027278729 0.10225191 10855588
0.017337637 -0.028767277 0.10223262 11381418
0.017347138 -0.030255914 0.10221335 11775405
0.017045623 0.011426613 0.10108265 3223857
0.017055271 0.0099391006 0.10106327 3618615
0.017064814 0.0084514972 0.10104394 7564139
0.017074302 0.0069637997 0.10102464 10849934
0.017083842 0.005476017 0.10100532 12026755
0.017093381 0.0039881445 0.10098598 11047570
0.017102867 0.0025001795 0.10096668 8618626
0.017112406 0.0010121283 0.10094735 8026746
0.017121943 -0.00047601233 0.10092802 8289918
0.017131427 -0.0019642438 0.10090872 8684676
0.017140962 -0.0034525632 0.10088939 8947591
0.017150497 -0.0049409731 0.10087006 6381664
0.017159978 -0.0064294725 0.10085075 5723991
0.017169563 -0.0079180598 0.10083139 8026746
0.017179044 -0.009406738 0.10081208 7960696
0.017188627 -0.010895504 0.10079273 6710629
0.017198106 -0.012384361 0.10077342 7895160
0.017207636 -0.013873306 0.10075409 8750212
0.017217165 -0.015362341 0.10073476 6315871
0.017226692 -0.016851466 0.10071542 7631988
0.01723622 -0.018340679 0.10069608 9407628
0.017245797 -0.019829983 0.10067672 12300464
0.017255271 -0.021319374 0.10065741 12890288
0.017264796 -0.022808857 0.10063808 13606044
0.01727432 -0.024298428 0.10061873 13603474
0.017283896 -0.025788089 0.10059937 12037292
0.017293418 -0.02727784 0.10058004 10658209
0.01730294 -0.028767679 0.10056069 11578540
0.017312462 -0.030257609 0.10054136 12169649
0.017010802 0.011461108 0.099409565 2302755
0.017020313 0.0099723004 0.099390194 3552822
0.017029874 0.0084834052 0.099370793 5328976
0.017039435 0.0069944211 0.099351391 7894903
0.01704889 0.0055053448 0.099332049 11374479
0.017058449 0.0040161796 0.099312641 9735822
0.017067954 0.0025269256 0.099293269 10064273
0.017077511 0.0010375819 0.099273868 8158332
0.017087016 -0.00045185091 0.099254489 7763574
0.017096572 -0.0019413716 0.099235088 7895160
0.017106075 -0.0034309851 0.099215709 8224125
0.017115681 -0.0049206847 0.099196278 8487297
0.01712513 -0.0064104768 0.099176928 9276556
0.017134681 -0.0079003572 0.09915752 10061960
0.017144233 -0.0093903262 0.099138111 11045771
0.017153785 -0.010880386 0.09911871 10126211
0.017163282 -0.012370535 0.099099331 9732481
0.01717283 -0.013860773 0.099079922 9736079
0.017182378 -0.015351102 0.099060513 7434609
0.017191874 -0.01684152 0.099041134 4605510
0.01720142 -0.018332025 0.099021725 8683905
0.017210966 -0.019822622 0.099002317 11374736
0.01722046 -0.021313308 0.09898293 12103599
0.017230056 -0.022804085 0.098963492 12366000
0.017239599 -0.02429495 0.098944083 12430251
0.017249141 -0.025785906 0.098924674 10855588
0.017258683 -0.02727695 0.098905258 10724259
0.017268224 -0.028768085 0.098885849 12692909
0.017277764 -0.030259307 0.098866433 13345442
0.016975807 0.011495658 0.097733639 6838617
0.016985336 0.010005558 0.097714193 7167068
0.016994918 0.008515371 0.097694717 3881787
0.017004445 0.0070250924 0.097675264 6908265
0.017013971 0.0055347248 0.097655818 8947334
0.01702355 0.0040442673 0.097636342 9538700
0.017033074 0.0025537186 0.097616896 11244435
0.0170426 0.0010630827 0.097597443 9801615
0.017052121 -0.00042764453 0.097577997 9276042
0.017061697 -0.0019184597 0.097558521 8947591
0.017071219 -0.0034093657 0.097539067 8684676
0.017080739 -0.0049003623 0.097519614 8816005
0.017090261 -0.006391448 0.097500168 11049369
0.017099831 -0.007882623 0.097480685 12618378
0.017109351 -0.0093738874 0.097461231 12356491
0.01711892 -0.01086524 0.097441755 10584449
0.017128438 -0.012356685 0.097422302 10909302
0.017137954 -0.013848219 0.097402848 9864838
0.017147521 -0.015339842 0.097383365 8487297
0.017157087 -0.016831554 0.097363882 8421247
0.017166601 -0.018323358 0.097344428 7170666
0.017176166 -0.019815249 0.097324945 9340807
0.017185679 -0.021307232 0.097305492 9341835
0.017195242 -0.022799304 0.097286008 11250089
0.017204804 -0.024291465 0.097266525 11184296
0.017214313 -0.025783718 0.097247064 10329501
0.017223874 -0.027276058 0.097227581 10526880
0.017233435 -0.028768489 0.097208098 11841198
0.017242942 -0.03026101 0.097188637 12300207
0.016940789 0.011530271 0.09605477 3355186
0.016950337 0.010038876 0.09603525 3815737
0.016959833 0.0085473899 0.096015759 5262155
0.016969431 0.0070558181 0.095996208 5395026
0.016978977 0.0055641541 0.095976688 7631988
0.016988523 0.0040724007 0.09595716 9078920
0.016998015 0.0025805582 0.095937669 11244178
0.01700761 0.0010886255 0.095918119 11506322
0.0170171 -0.00040339769 0.095898621 11833488
0.017026694 -0.0018955091 0.09587907 12029839
0.017036237 -0.0033877115 0.095859542 11768466
0.017045723 -0.0048800046 0.095840052 11571858
0.017055316 -0.0063723852 0.095820494 11964046
0.017064907 -0.0078648571 0.095800944 11048341
0.017074391 -0.0093574189 0.095781446 10393238
0.01708398 -0.01085007 0.095761888 12030610
0.017093517 -0.012342811 0.095742367 10711152
0.017103052 -0.013835642 0.095722839 8353141
0.017112639 -0.015328563 0.095703281 9275271
0.01712212 -0.016821574 0.095683783 11900052
0.017131705 -0.018314674 0.095664226 10978950
0.017141238 -0.019807864 0.095644698 10256512
0.017150769 -0.021301145 0.09562517 8750212
0.01716035 -0.022794515 0.095605612 10395294
0.017169932 -0.024287976 0.095586047 10263708
0.017179461 -0.025781525 0.095566519 10263708
0.017189041 -0.027275166 0.095546961 10263708
0.017198568 -0.028768895 0.095527425 10197915
0.017208148 -0.030262714 0.095507868 10263708
0.017217671 -0.031756625 0.09548834 10263708
0.016905693 0.011564942 0.094372988 4407360
0.016915208 0.010072248 0.094353423 3947323
0.016924776 0.0085794684 0.094333827 5262669
0.016934341 0.0070865974 0.094314232 6644836
0.016943853 0.0055936356 0.094294667 7631988
0.016953418 0.004100584 0.094275065 7829367
0.016963033 0.0026074443 0.09425544 8224125
0.016972544 0.0011142122 0.094235875 8553090
0.016982052 -0.00037910914 0.094216302 8881798
0.016991667 -0.0018725188 0.094196677 9276299
0.017001227 -0.0033660193 0.094177082 9604750
0.017010733 -0.00485961 0.09415751 10261395
0.017020293 -0.0063532912 0.094137914 11570316
0.01702985 -0.0078470614 0.094118312 11179156
0.017039407 -0.0093409214 0.09409871 9079177
0.017048962 -0.010834872 0.094079114 10786711
0.017058518 -0.012328913 0.094059512 11508121
0.017068071 -0.013823044 0.09403991 6118749
0.017077625 -0.015317264 0.094020307 5920856
0.017087178 -0.016811574 0.094000705 9078406
0.01709673 -0.018305976 0.093981102 10196116
0.017106334 -0.019800466 0.09396147 8090997
0.017115884 -0.021295046 0.093941867 8355454
0.017125433 -0.022789719 0.093922265 8091768
0.017134981 -0.024284478 0.093902662 10790052
0.017144581 -0.025779329 0.09388303 10790052
0.017154127 -0.027274271 0.09386342 10790052
0.017163673 -0.028769301 0.093843818 10329501
0.017173219 -0.030264422 0.093824215 10592673
0.017182816 -0.031759635 0.093804576 10790052
0.016870517 0.011599672 0.092688285 6972516
0.01688005 0.01010568 0.092668645 9796989
0.016889637 0.0086115999 0.092648976 11438473
0.016899221 0.0071174311 0.092629306 8224125
0.016908754 0.0056231692 0.092609666 7829110
0.016918337 0.0041288193 0.092589997 7960953
0.016927866 0.0026343768 0.092570357 9932944
0.016937396 0.0011398448 0.09255071 9473421
0.016946977 -0.00035477511 0.09253104 8158332
0.016956557 -0.0018494863 0.092511371 8026746
0.016966084 -0.0033442883 0.092491724 8026746
0.016975662 -0.00483918 0.092472054 8552833
0.016985239 -0.0063341623 0.092452377 10457489
0.016994763 -0.0078292349 0.09243273 12160397
0.017004391 -0.009324396 0.092413031 9144713
0.017013861 -0.010819648 0.092393413 7960953
0.017023487 -0.012314991 0.092373706 8553090
0.017033009 -0.013810423 0.092354059 8618883
0.017042581 -0.015305946 0.092334382 6645093
0.017052153 -0.016801558 0.092314705 4539717
0.017061723 -0.018297262 0.092295028 7697781
0.017071294 -0.019793054 0.092275351 8421504
0.017080864 -0.021288939 0.092255674 6118749
0.01709043 -0.022784913 0.092235997 7237230
0.017099999 -0.024280977 0.09221632 9932687
0.017109565 -0.025777129 0.092196643 12234414
0.017119132 -0.027273374 0.092176959 12234414
0.017128697 -0.028769709 0.092157282 11840684
0.017138259 -0.030266134 0.092137605 12234414
0.017147824 -0.031762648 0.092117921 12365486
0.016835308 0.011634464 0.091000631 5526612
0.016844913 0.010139174 0.090980887 8025975
0.016854465 0.0086437911 0.090961173 11697790
0.016864017 0.0071483166 0.090941459 11178128
0.016873516 0.0056527532 0.090921775 10260367
0.016883118 0.0041570994 0.09090203 8816005
0.016892666 0.0026613567 0.090882309 10785169
0.016902268 0.0011655225 0.090862565 9998737
0.016911814 -0.0003304008 0.090842851 7960953
0.016921362 -0.0018264154 0.090823129 7895160
0.016930906 -0.0033225212 0.090803407 7829367
0.016940556 -0.0048187152 0.090783633 7895160
0.016950101 -0.0063149999 0.090763912 9079177
0.016959695 -0.0078113754 0.090744168 11506836
0.016969237 -0.0093078418 0.090724446 8816005
0.01697878 -0.010804398 0.090704724 7960953
0.01698832 -0.012301044 0.090685003 10589589
0.016997965 -0.013797781 0.090665229 8421504
0.017007504 -0.015294608 0.090645507 8553090
0.017017094 -0.016791524 0.090625755 6710886
0.017026631 -0.018288532 0.090606034 4276545
0.017036272 -0.019785631 0.090586253 7697781
0.017045809 -0.02128282 0.090566531 8026746
0.017055396 -0.022780098 0.090546772 5065804
0.017064931 -0.024277467 0.09052705 8026746
0.017074568 -0.025774928 0.090507269 11964817
0.017084101 -0.027272476 0.090487547 13409950
0.017093685 -0.028770117 0.090467788 13409950
0.017103268 -0.030267848 0.090448037 13409950
0.017112797 -0.03176567 0.090428308 13409693
0.016800012 0.011669317 0.08931005 5131854
0.016809585 0.01017272 0.089290261 6645093
0.016819155 0.0086760353 0.089270465 10456975
0.016828725 0.007179257 0.089250676 10391953
0.016838295 0.0056823893 0.089230888 10719633
0.016847864 0.0041854326 0.089211099 9144199
0.016857432 0.0026883823 0.089191303 10981263
0.016866999 0.0011912446 0.089171514 10129809
0.016876565 -0.00030598429 0.089151725 8092539
0.016870957 -0.0018035428 0.089140341 7763574
0.016855337 -0.0033012696 0.089134499 7763574
0.016839612 -0.0047989893 0.089128725 7763574
0.01682394 -0.0062967017 0.089122914 8289661
0.016808216 -0.0077944067 0.08911714 9276042
0.016792595 -0.0092921034 0.089111306 8158332
0.016776871 -0.010789794 0.089105524 7895160
0.016761199 -0.012287476 0.08909972 9998994
0.016745474 -0.013785151 0.089093938 7960953
0.016729802 -0.015282818 0.089088134 8289918
0.01671413 -0.016780477 0.08908233 8355711
0.016698407 -0.018278129 0.089076549 4868682
0.016682787 -0.019775774 0.089070715 3881787
0.016667062 -0.021273412 0.089064933 7829367
0.016651392 -0.02277104 0.089059129 6908265
0.016635668 -0.024268663 0.089053348 6250335
0.016620049 -0.025766278 0.089047514 8683648
0.016604325 -0.027263884 0.08904174 9473935
0.016588654 -0.028761484 0.089035928 10921381
0.01657293 -0.030259075 0.089030154 10921381
0.016557259 -0.031756658 0.08902435 10921381
0.013816916 0.011606457 0.089256048 3618615
0.01380108 0.010113479 0.089250386 5921370
0.013785349 0.0086205136 0.089244656 8684419
0.013769566 0.0071275542 0.089238964 8487040
0.013753783 0.0056346045 0.089233272 8947334
0.013737948 0.0041416604 0.089227602 8421504
0.013721957 0.002648721 0.089222029 11243407
0.013705965 0.0011557911 0.089216448 11766924
0.013689974 -0.00033712952 0.089210868 10982291
0.013673983 -0.0018300427 0.089205287 8881798
0.013657992 -0.0033229466 0.089199707 7763574
0.013642053 -0.0048158397 0.089194104 7763574
0.013626062 -0.0063087256 0.089188524 8026746
0.013610071 -0.0078016017 0.089182943 8158332
0.013594133 -0.0092944698 0.08917734 8026746
0.013578141 -0.010787329 0.08917176 7960953
0.013562151 -0.012280179 0.089166179 8092539
0.010796824 0.011542152 0.089232817 4079166
0.010806435 0.010054464 0.089212991 6710886
0.010816045 0.0085666841 0.089193165 7303023
0.010825654 0.0070788157 0.089173332 7697781
0.010835263 0.0055908537 0.089153506 7631988
0.01084487 0.0041028042 0.089133672 8026746
0.010854528 0.0026146648 0.089113817 9735822
0.010864135 0.0011264328 0.089093983 11048598
0.01087374 -0.0003618887 0.089074157 10917526
0.010883396 -0.0018503017 0.089054294 9013384
0.010892947 -0.0033388035 0.08903449 7829367
0.010902602 -0.0048273974 0.089014634 7960953
0.010912204 -0.0063160812 0.088994801 8684419
0.010921856 -0.0078048543 0.088974938 8750212
0.010931509 -0.0092937183 0.088955075 8355711
0.010941109 -0.010782674 0.088935241 8092539
0.010950759 -0.012271719 0.088915378 8224125
0.010761609 0.011576918 0.087546416 7626591
0.010771238 0.010087931 0.087526508 8879999
0.010780867 0.008598851 0.087506607 8946820
0.010790494 0.0071096797 0.087486699 8223868
0.010800122 0.0056204181 0.087466799 8683905
0.010809696 0.0041310652 0.087446921 8158332
0.010819374 0.0026416238 0.08742699 9276042
0.010828998 0.0011520918 0.087407082 9802129
0.01083857 -0.00033753307 0.087387204 9801872
0.010848245 -0.0018272462 0.087367274 8947591
0.010857867 -0.003317052 0.087347366 8158332
0.010867488 -0.0048069465 0.087327458 8553090
0.01087716 -0.0062969322 0.08730752 11114134
0.010886728 -0.0077870088 0.087287642 11703701
0.010896399 -0.0092771761 0.087267704 11376278
0.010906016 -0.010767434 0.087247796 10917012
0.010915634 -0.012257782 0.087227888 10654868
0.010726355 0.011611747 0.085857034 6839131
0.010736004 0.010121455 0.085837059 9011071
0.010745598 0.0086310701 0.085817114 8881027
0.010755245 0.0071405978 0.085797131 8815491
0.010764891 0.0056500337 0.085777156 9735051
0.010774484 0.0041593774 0.085757203 8289918
0.010784127 0.0026686308 0.085737221 10064273
0.010793771 0.001177795 0.085717238 9079177
0.010803413 -0.00031313213 0.085697263 9472907
0.010813054 -0.0018041504 0.085677281 10064016
0.010822643 -0.0032952616 0.085657328 9867151
0.010832335 -0.0047864602 0.085637316 10392210
0.010841973 -0.0062777502 0.085617334 11833488
0.010851611 -0.007769132 0.085597351 11638936
0.010861249 -0.0092606051 0.085577369 12160397
0.010870885 -0.010752168 0.085557379 11245463
0.010880521 -0.012243821 0.085537396 11310999
0.010691008 0.011646635 0.084164716 4670532
0.010700675 0.010155037 0.084144667 7697010
0.01071034 0.0086633507 0.08412461 8223611
0.010719953 0.0071715708 0.08410459 8684419
0.010729617 0.005679701 0.084084533 9801358
0.010739228 0.004187739 0.084064506 8224125
0.01074889 0.0026956869 0.084044449 9999251
0.0107585 0.0012035439 0.084024422 9079177
0.010768161 -0.0002886907 0.084004372 9801872
0.010777821 -0.0017810146 0.083984315 11047570
0.010787427 -0.0032734314 0.083964281 10982291
0.010797085 -0.004765938 0.083944224 11309200
0.010806743 -0.0062585357 0.083924167 11179413
0.010816348 -0.0077512241 0.08390414 10327959
0.010826055 -0.0092440043 0.083884053 11572115
0.010835658 -0.010736874 0.083864018 9867922
0.010845312 -0.012229837 0.083843961 9933715
0.010655667 0.011681587 0.082469396 3618358
0.0106653 0.01018868 0.082449295 5855577
0.010674984 0.0086956853 0.082429163 6974058
0.010684564 0.0072025969 0.082409091 6579043
0.010694246 0.0057094181 0.08238896 8750212
0.010703875 0.0042161485 0.082368858 8224125
0.010713556 0.0027227888 0.082348734 8947591
0.010723236 0.0012293381 0.082328603 8618883
0.010732811 -0.00026420504 0.082308523 9539214
0.010742488 -0.0017578383 0.082288392 10720661
0.010752167 -0.0032515628 0.08226826 10917526
0.010761791 -0.00474538 0.082248159 11048084
0.010771466 -0.0062392862 0.082228027 9407885
0.010781089 -0.0077332854 0.082207918 8618883
0.010790712 -0.0092273746 0.082187817 10130837
0.010800385 -0.010721554 0.082167678 8684419
0.010810057 -0.012215826 0.082147546 8684676
0.010620226 0.011716598 0.080771111 5919828
0.010629877 0.010222382 0.080750935 6512222
0.010639528 0.0087280767 0.080730759 8289147
0.010649177 0.0072336784 0.080710582 7500145
0.010658827 0.0057391902 0.080690406 8882055
0.010668474 0.0042446093 0.08067023 8224125
0.01067812 0.002749939 0.080650054 8158332
0.010687767 0.0012551756 0.080629878 8224125
0.010697464 -0.00023967763 0.080609672 8750469
0.010707108 -0.0017346217 0.080589488 9342349
0.010716751 -0.0032296591 0.080569312 9605264
0.010726447 -0.0047247852 0.080549106 9736593
0.010736088 -0.0062200041 0.080528922 8684676
0.010745729 -0.0077153142 0.080508739 9473678
0.010755423 -0.0092107151 0.080488533 10393238
0.010765061 -0.010706208 0.080468349 9867922
0.010774699 -0.012201792 0.080448173 9670800
0.010584733 0.011751671 0.079069838 6247765
0.010594402 0.010256144 0.079049587 6050900
0.010604019 0.0087605249 0.079029366 7827568
0.010613687 0.0072648148 0.079009116 8222840
0.010623354 0.0057690139 0.078988858 9868179
0.01063302 0.0042731198 0.078968607 8289918
0.010642685 0.0027771366 0.078948356 8289918
0.010652349 0.00128106 0.078928106 8355711
0.010662013 -0.00021510583 0.078907847 8553090
0.010671675 -0.0017113648 0.078887597 8750469
0.010681389 -0.0032077136 0.078867309 9408142
0.010690997 -0.004704155 0.07884708 9933972
0.010700658 -0.006200688 0.07882683 8947591
0.010710369 -0.0076973112 0.078806542 9671057
0.010720027 -0.0091940267 0.078786284 11180184
0.010729633 -0.010690833 0.078766063 11310999
0.010739289 -0.012187732 0.078745805 11114648
0.010549134 0.011786805 0.0773656 5984850
0.010558822 0.010289964 0.077345274 5196105
0.010568508 0.0087930309 0.077324942 6315100
0.010578142 0.0072960048 0.077304646 8485755
0.010587826 0.0057988893 0.077284314 9736593
0.010597459 0.0043016807 0.077264018 8487297
0.010607193 0.002804382 0.077243656 8816262
0.010616824 0.0013069909 0.077223361 9276556
0.010626505 -0.0001904918 0.077203028 9276556
0.010636135 -0.0016880655 0.077182733 8882055
0.010645865 -0.0031857309 0.07716237 9934229
0.010655545 -0.0046834876 0.077142037 10656410
0.010665171 -0.0061813369 0.077121735 9211020
0.010674899 -0.0076792771 0.077101372 9802386
0.010684576 -0.0091773095 0.07708104 12160654
0.0106942 -0.010675433 0.077060737 12485507
0.010703823 -0.012173648 0.077040434 12356234
0.010513528 0.011822002 0.075658321 6706517
0.010523181 0.010323843 0.075637951 5853007
0.010532886 0.0088255936 0.075617544 7236716
0.010542538 0.0073272502 0.075597174 10196116
0.010552241 0.0058288178 0.075576767 9671057
0.010561891 0.0043302923 0.07555639 8882055
0.010571592 0.0028316756 0.07553599 9605521
0.01058124 0.0013329658 0.075515613 10327959
0.01059094 -0.00016583367 0.075495206 10064787
0.010600638 -0.0016647244 0.075474799 9737107
0.010610336 -0.0031637084 0.075454392 10984347
0.010619928 -0.0046627857 0.075434044 11377306
0.010629624 -0.0061619529 0.075413637 9342349
0.01063932 -0.0076612113 0.07539323 9276556
0.010649013 -0.0091605624 0.075372823 10983319
0.010658707 -0.010660005 0.075352415 11506836
0.010668348 -0.012159539 0.075332031 11572372
0.010477808 0.01185726 0.07394807 8222840
0.010487531 0.010357783 0.073927589 6969175
0.010497202 0.0088582141 0.073907137 8092539
0.010506872 0.0073585529 0.073886693 9933715
0.01051654 0.0058587985 0.073866241 9999765
0.010526208 0.0043589524 0.073845789 9868436
0.010535927 0.0028590171 0.073825307 10919068
0.010545645 0.0013589883 0.073804826 11441300
0.01055531 -0.00014113131 0.073784374 10590103
0.010564975 -0.001641344 0.073763922 9999765
0.01057469 -0.0031416484 0.073743433 11049883
0.010584353 -0.0046420456 0.073722981 10590617
0.010594067 -0.0061425334 0.073702499 8947848
0.01060378 -0.0076431134 0.07368201 8618883
0.01061344 -0.0091437856 0.073661558 9999508
0.010623099 -0.01064455 0.073641099 10261909
0.010632758 -0.012145406 0.073620647 10393238
0.010442076 0.011892581 0.072234772 11512490
0.010451766 0.010391782 0.072214246 8552576
0.010461454 0.0088908914 0.072193719 8882055
0.010471192 0.0073899087 0.072173163 10786968
0.010480827 0.0058888323 0.072152667 10721689
0.010490513 0.004387666 0.07213214 10721946
0.010500249 0.002886408 0.072111577 11377306
0.010509933 0.0013850573 0.07209105 11834259
0.010519616 -0.00011638656 0.072070517 10459031
0.010529298 -0.0016179216 0.07204999 9736850
0.010539032 -0.0031195483 0.072029434 10459288
0.010548712 -0.0046212687 0.0720089 9211020
0.010558391 -0.0061230804 0.071988367 8684676
0.01056807 -0.0076249833 0.07196784 8684676
0.0105778 -0.0091269789 0.071947277 9145227
0.010587425 -0.010629067 0.071926773 9342349
0.010597101 -0.012131247 0.071906246 9408142
0.010406276 0.011927965 0.070518449 11247005
0.010415982 0.010425843 0.070497848 10262423
0.010425637 0.0089236274 0.070477277 9342349
0.010435341 0.0074213189 0.070456669 11965074
0.010445097 0.0059189214 0.070436038 11835287
0.010454749 0.004416429 0.07041546 10786968
0.010464451 0.0029138455 0.070394859 10590360
0.010474152 0.0014111687 0.07037425 10852761
0.010483854 -9.1599373e-05 0.07035365 9539728
0.010493552 -0.0015944587 0.070333041 9210763
0.010503251 -0.0030974112 0.070312433 9671314
0.01051295 -0.004600456 0.070291825 8816262
0.010522698 -0.006103592 0.070271187 9013641
0.010532395 -0.0076068221 0.070250586 8947848
0.01054209 -0.0091101434 0.07022997 9342606
0.010551734 -0.010613557 0.070209399 9342606
0.010561376 -0.012117063 0.070188813 9276813
0.010370352 0.011963408 0.068799131 11639193
0.010380076 0.010459961 0.068778455 10787739
0.010389799 0.0089564202 0.068757772 10394009
0.01039947 0.0074527864 0.068737119 11769494
0.010409191 0.0059490609 0.068716437 11246234
0.010418913 0.0044452422 0.068695761 9933972
0.01042858 0.0029413311 0.068675108 9999765
0.0104383 0.0014373282 0.068654425 9999765
0.010448017 -6.6765933e-05 0.068633743 8684676
0.010457735 -0.0015709532 0.06861306 8684676
0.010467452 -0.0030752337 0.068592377 8684676
0.010477167 -0.004579606 0.068571694 9079434
0.010486881 -0.006084071 0.068551011 9276556
0.010496594 -0.0075886282 0.068530321 9671314
0.010506256 -0.0090932781 0.068509668 10262680
0.010515968 -0.01059802 0.068488985 10328473
0.010525628 -0.012102854 0.068468325 10460059
0.010334457 0.011998921 0.06707672 12423055
0.010344147 0.010494141 0.067055993 10525081
0.010353836 0.0089892708 0.067035265 11246748
0.010363575 0.0074843089 0.067014508 9999765
0.010373314 0.0059792553 0.066993751 9473935
0.010383001 0.0044741076 0.066973023 9013641
0.010392686 0.0029688664 0.066952296 9145227
0.010402422 0.0014635356 0.066931531 9079434
0.010412158 -4.1890249e-05 0.066910774 8618883
0.010421893 -0.0015474074 0.066890016 8553090
0.010431574 -0.0030530172 0.066869281 8947848
0.010441256 -0.0045587202 0.066848554 10131351
0.010451039 -0.0060645142 0.066827767 9408142
0.010460719 -0.0075704027 0.066807032 10721432
0.010470399 -0.009076383 0.066786304 11376021
0.010480127 -0.010582455 0.066765539 11376792
0.010489805 -0.012088621 0.066744804 11640735
0.010298432 0.01203449 0.0653513 10196630
0.010308139 0.010528383 0.06533049 9211020
0.010317844 0.0090221809 0.065309688 10459288
0.010327603 0.0075158887 0.065288857 8882055
0.010337305 0.0060095023 0.065268047 8882055
0.01034701 0.0045030229 0.065247245 8816262
0.010356763 0.0029964515 0.065226406 8750469
0.010366466 0.0014897874 0.065205604 8750469
0.010376219 -1.6968219e-05 0.065184765 8684676
0.010385919 -0.0015238185 0.065163955 8618883
0.010395619 -0.0030307618 0.065143153 9145227
0.010405368 -0.0045377961 0.065122314 10590874
0.010415117 -0.0060449233 0.065101475 9079434
0.010424815 -0.0075521441 0.065080665 12224134
0.010434511 -0.0090594571 0.065059856 12616579
0.010444207 -0.010566863 0.065039046 12423312
0.010453901 -0.012074362 0.065018237 12553356
0.010262376 0.012070126 0.063622795 8618883
0.010272049 0.010562682 0.063601948 8684676
0.010281773 0.0090551479 0.063581064 9079434
0.010291548 0.0075475224 0.063560151 9013641
0.010301268 0.0060398025 0.063539267 8882055
0.010310989 0.0045319893 0.06351839 8816262
0.01032071 0.003024085 0.063497506 8816262
0.010330481 0.0015160872 0.063476592 8816262
0.010340197 7.9964993e-06 0.063455708 8684676
0.010349915 -0.0015001892 0.063434824 8618883
0.010359683 -0.0030084646 0.063413903 8750469
0.0103694 -0.0045168349 0.063393019 9145227
0.010379115 -0.006025298 0.063372135 8816262
0.01038888 -0.0075338525 0.063351221 12486792
0.010398542 -0.0090425014 0.063330367 12031638
0.010408254 -0.010551243 0.063309476 9934229
0.010417964 -0.012060077 0.063288592 10852761
0.010226236 0.012105823 0.061891243 8487297
0.010235927 0.010597044 0.061870318 9079434
0.010245666 0.0090881744 0.061849356 11179927
0.010255407 0.0075792125 0.061828397 11245720
0.010265197 0.0060701584 0.061807409 11114648
0.010274883 0.0045610084 0.061786477 10983576
0.010284619 0.0030517667 0.061765514 10720661
0.010294356 0.0015424319 0.061744556 10655382
0.010304143 3.3005479e-05 0.061723564 9802643
0.010313877 -0.0014765156 0.061702602 8684676
0.01032356 -0.0029861312 0.061681673 8487297
0.010333342 -0.0044958373 0.061660677 8553090
0.010343076 -0.0060056364 0.061639715 9013641
0.010352755 -0.0075155306 0.061618779 10786968
0.010362537 -0.009025516 0.061597787 10131094
0.010372214 -0.010535595 0.061576851 8684676
0.010381944 -0.012045767 0.061555889 9999765
0.010190008 0.012141582 0.060156632 10130837
0.010199766 0.010631469 0.060135596 10327959
0.010209472 0.0091212587 0.060114589 11114905
0.01021928 0.0076109609 0.060093522 11376792
0.010228984 0.0061005647 0.060072515 11573143
0.010238739 0.0045900792 0.060051478 12029839
0.010248441 0.0030794968 0.060030468 12028554
0.010258246 0.0015688243 0.060009401 12159626
0.010267998 5.80573e-05 0.059988361 10918040
0.010277698 -0.0014528026 0.05996735 9145227
0.0102875 -0.0029637543 0.059946284 9013641
0.010297199 -0.0044748024 0.059925273 8816262
0.010306947 -0.0059859417 0.059904229 8553090
0.010316696 -0.0074971747 0.059883192 8618883
0.010326442 -0.0090085007 0.059862148 8618883
0.010336137 -0.01051992 0.059841137 8684676
0.010345832 -0.012031432 0.059820123 8618883
0.010153789 0.012177409 0.058418892 12159883
0.010163463 0.010665951 0.058397841 10524567
0.010173237 0.0091544045 0.058376726 8553090
0.01018301 0.0076427618 0.058355611 8750469
0.010192783 0.0061310283 0.058334496 8947591
0.010202503 0.0046191998 0.058313411 10590103
0.010212273 0.0031072781 0.058292296 10590103
0.010221993 0.0015952637 0.058271211 11049112
0.010231761 8.315569e-05 0.058250092 12225162
0.01024153 -0.0014290455 0.058228973 11899538
0.010251246 -0.0029413411 0.058207888 11703958
0.010261012 -0.0044537294 0.058186769 10393752
0.010270778 -0.0059662112 0.058165651 8487297
0.010280492 -0.0074787862 0.058144562 8487297
0.010290256 -0.0089914547 0.058123443 8487297
0.010299968 -0.010504216 0.058102354 10524824
0.010309679 -0.012017072 0.058081266 11311256
0.010117426 0.012213296 0.056678113 10983319
0.010127167 0.010700498 0.056656953 8882055
0.010136906 0.0091876062 0.05663579 8355711
0.010146696 0.0076746223 0.056614596 8421504
0.010156435 0.0061615445 0.056593437 8421504
0.010166224 0.004648373 0.056572244 9408142
0.01017601 0.0031351084 0.056551047 9473678
0.010185746 0.001621749 0.056529883 9999508
0.01019548 0.00010829669 0.05650872 11768466
0.010205265 -0.0014052473 0.056487523 11506836
0.01021505 -0.0029188863 0.05646633 10852761
0.010224783 -0.0044326191 0.056445166 9605521
0.010234512 -0.0059464457 0.056423996 8421504
0.010244244 -0.0074603655 0.056402832 8421504
0.010254023 -0.0089743789 0.056381632 8487297
0.010263702 -0.010488486 0.056360498 10590617
0.010273479 -0.012002686 0.056339297 11114391
0.010081016 0.012249246 0.054934226 9144970
0.010090824 0.010735107 0.054912958 8289918
0.010100581 0.0092208702 0.054891717 8355711
0.010110335 0.0077065383 0.054870475 8355711
0.01012009 0.0061921156 0.054849233 8355711
0.010129845 0.0046775979 0.054827996 8421504
0.010139649 0.0031629887 0.054806724 8487297
0.0101494 0.001648283 0.054785479 9211020
0.010159151 0.00013348408 0.054764237 10721432
0.010168954 -0.0013814064 0.054742966 9933715
0.010178703 -0.0028963916 0.054721721 9144970
0.010188501 -0.0044114711 0.054700445 9145227
0.01019825 -0.0059266444 0.054679204 8947848
0.010207946 -0.0074419114 0.054657988 8553090
0.010217743 -0.0089572715 0.054636713 8487297
0.010227437 -0.010472727 0.054615498 8553090
0.010237181 -0.011988274 0.054594252 8553090
0.010044606 0.012285265 0.053187195 8026746
0.010054328 0.010769773 0.053165905 8553090
0.010064101 0.0092541883 0.053144589 8553090
0.010073924 0.007738512 0.053123239 8355711
0.010083696 0.0062227412 0.05310192 8355711
0.010093415 0.0047068754 0.053080633 8421504
0.010103236 0.0031909177 0.053059284 8421504
0.010113003 0.0016748634 0.05303796 9408142
0.010122771 0.00015871788 0.05301664 10655639
0.010132589 -0.0013575229 0.052995287 10459288
0.010142355 -0.0028738584 0.052973967 11377563
0.01015207 -0.0043902867 0.052952677 11965588
0.010161885 -0.0059068087 0.052931324 11966359
0.010171647 -0.0074234246 0.052909996 8947591
0.010181359 -0.0089401351 0.052888706 8487297
0.010191071 -0.010456938 0.052867413 8487297
0.010200882 -0.011973836 0.052846059 8421504
0.01000804 0.012321344 0.051437102 7960953
0.01001783 0.010804503 0.051415704 10917783
0.010027618 0.0092875706 0.051394306 11441557
0.010037407 0.0077705421 0.051372912 11245463
0.010047195 0.0062534208 0.051351514 10721432
0.01005693 0.0047362046 0.051330145 9144970
0.010066717 0.0032188951 0.051308751 8750469
0.0100765 0.0017014906 0.051287349 10327959
0.010086337 0.00018399447 0.051265921 10393495
0.01009612 -0.0013335963 0.05124452 9605521
0.010105901 -0.0028512839 0.051223118 10852504
0.010115684 -0.0043690628 0.05120172 12485764
0.010125413 -0.005886937 0.051180348 12812930
0.010135191 -0.0074049053 0.051158946 10786968
0.010144919 -0.0089229681 0.051137574 10524824
0.010154699 -0.010441123 0.051116172 10196630
0.010164425 -0.011959373 0.0510948 8289918
0.0099714668 0.012357487 0.04968385 10786197
0.0099812737 0.010839297 0.049662378 10523539
0.0099910283 0.0093210097 0.049640935 10720147
0.010000833 0.0078026298 0.049619459 10983062
0.010010635 0.0062841563 0.049597979 10918297
0.010020388 0.004765586 0.049576532 9145227
0.01003019 0.0032469244 0.049555056 9013384
0.010039992 0.0017281678 0.049533579 10787225
0.010049742 0.00020931456 0.049512133 10459031
0.010059592 -0.0013096287 0.049490623 9473935
0.010069339 -0.0028286681 0.049469173 9736850
0.010079136 -0.0043478026 0.049447693 11898510
0.010088934 -0.0058670295 0.049426217 11962761
0.010098679 -0.0073863524 0.049404766 11834002
0.010108474 -0.0089057693 0.049383286 11834259
0.010118216 -0.01042528 0.049361832 11311770
0.010127959 -0.011944884 0.049340386 8224125
0.0099348342 0.012393698 0.047927469 11047313
0.0099446056 0.01087415 0.047905944 9407628
0.0099544264 0.0093545113 0.04788439 9407628
0.009964196 0.0078347754 0.047862865 9539471
0.0099739665 0.006314944 0.047841344 9539471
0.0099837845 0.0047950214 0.047819786 8487297
0.0099936025 0.003275004 0.047798228 8553090
0.010003368 0.00175489 0.047776703 10261652
0.010013186 0.00023468435 0.047755148 11964560
0.010023002 -0.0012856182 0.04773359 11573914
0.010032815 -0.0028060118 0.047712032 8618883
0.010042578 -0.0043265033 0.047690503 10459545
0.010052341 -0.0058470885 0.047668979 10196373
0.010062102 -0.0073677669 0.04764745 10196373
0.010071862 -0.0088885399 0.047625922 10196630
0.010081672 -0.010409408 0.04760436 9802386
0.010091379 -0.01193037 0.047582861 8158332
0.0098980861 0.012429971 0.046167973 9604750
0.0099079236 0.010909068 0.046146341 8355454
0.0099177109 0.0093880696 0.046124738 8092539
0.0099275466 0.0078669777 0.046103101 8158332
0.009937332 0.0063457913 0.046081502 8289918
0.0099471165 0.0048245075 0.046059899 8092539
0.0099569503 0.0033031323 0.046038259 8158332
0.0099667329 0.0017816623 0.046016656 9276556
0.0099765155 0.00026009558 0.045995053 10392724
0.0099863457 -0.0012615627 0.045973413 9933715
0.0099961264 -0.0027833176 0.04595181 8289918
0.010005957 -0.0043051662 0.045930173 8816262
0.010015682 -0.0058271103 0.045908596 8816262
0.01002546 -0.0073491484 0.04588699 8816262
0.010035236 -0.0088712806 0.045865379 8816262
0.010045012 -0.010393508 0.045843773 8618883
0.010054788 -0.011915829 0.045822166 8158332
0.0098613203 0.012466311 0.044405304 8158332
0.0098711243 0.010944047 0.044383623 9670029
0.0098809265 0.0094216885 0.044361942 9604236
0.0098907286 0.0078992359 0.044340257 9473164
0.0099005299 0.0063766893 0.044318575 9407371
0.0099103805 0.0048540477 0.044296861 9276299
0.0099201798 0.0033313113 0.04427518 9210506
0.0099299783 0.0018084799 0.044253495 9210506
0.0099398261 0.00028555508 0.04423178 9539214
0.0099496217 -0.0012374662 0.044210091 9736336
0.0099594677 -0.002760581 0.044188373 9210506
0.0099692121 -0.0042837909 0.044166721 9144970
0.0099790059 -0.0058070966 0.044145036 9144970
0.0099887997 -0.0073304959 0.044123348 9210506
0.0099985916 -0.0088539897 0.044101663 9210506
0.010008332 -0.010377578 0.044080008 9210506
0.010018174 -0.011901261 0.044058286 9210506
0.0098244324 0.012502714 0.042639509 7895160
0.0098343035 0.010979089 0.042617716 9998480
0.0098440703 0.0094553679 0.042595986 10129552
0.0098539386 0.0079315547 0.042574193 10195345
0.0098637547 0.0064076446 0.04255243 10195345
0.0098735215 0.0048836404 0.042530701 10261138
0.009883387 0.0033595422 0.042508908 10261138
0.0098932004 0.0018353476 0.042487144 9407628
0.0099030137 0.00031105801 0.042465378 9144970
0.0099128271 -0.0012133247 0.042443618 10326674
0.0099226888 -0.0027378029 0.042421818 10392467
0.0099324482 -0.004262378 0.042400084 10392210
0.0099422578 -0.0057870457 0.042378318 10392210
0.0099520683 -0.0073118093 0.042356554 10392467
0.0099618249 -0.008836668 0.042334821 10458003
0.0099716317 -0.01036162 0.042313054 10654611
0.0099814394 -0.011886668 0.042291287 10720404
0.009797357 0.011014192 0.040848684 9932944
0.0098071899 0.0094891097 0.040826842 9538957
0.0098170247 0.0079639303 0.040805001 9736079
0.0098268557 0.0064386548 0.040783159 9933201
0.0098366886 0.0049132868 0.040761318 10064787
0.0098465178 0.0033878221 0.040739473 10130323
0.0098563489 0.0018622623 0.040717632 9276556
0.0098661771 0.00033660748 0.040695786 9144970
0.0098760063 -0.0011891405 0.040673945 10327445
0.0098858327 -0.0027149853 0.0406521 10327445
0.0098956088 -0.0042409259 0.040630288 10327445
0.009905383 -0.0057669613 0.040608473 10327445
0.0099152084 -0.0072930907 0.040586628 10327445
0.0099249817 -0.0088193156 0.040564816 10392981
0.0099348044 -0.010345635 0.040542968 11441300
0.0099446271 -0.011872049 0.040521123 11899795
0.0097603817 0.01104936 0.039076451 9670286
0.0097702323 0.0095229102 0.039054532 8026746
0.0097800307 0.0079963636 0.039032642 8158332
0.0097899288 0.0064697228 0.039010689 8355711
0.0097997254 0.0049429843 0.038988799 8421504
0.0098095722 0.0034161527 0.038966879 8553090
0.0098194182 0.0018892257 0.038944956 8421504
0.0098292613 0.00036220389 0.038923033 8421504
0.0098390551 -0.0011649145 0.038901139 8816262
0.0098488983 -0.0026921264 0.038879216 8881798
0.0098586902 -0.0042194356 0.038857326 8881798
0.0098685306 -0.0057468382 0.038835399 8816262
0.0098783197 -0.0072743376 0.038813505 8816005
0.00988816 -0.0088019315 0.038791578 8881798
0.0098979482 -0.01032962 0.038769685 10064787
0.0099077336 -0.011857403 0.038747787 10393238
0.0097233262 0.011084591 0.037301049 9998480
0.0097331917 0.0095567722 0.037279047 9473421
0.0097430572 0.0080288565 0.037257049 9407628
0.0097528696 0.0065008439 0.037235077 9276299
0.0097627323 0.0049727377 0.037213076 9210506
0.0097725438 0.0034445338 0.037191108 9144970
0.0097824056 0.001916238 0.037169106 9079177
0.0097922636 0.00038784542 0.037147097 9079177
0.0098020723 -0.0011406437 0.037125129 9013384
0.0098119313 -0.0026692264 0.037103124 9079177
0.0098217381 -0.0041979062 0.037081152 9079177
0.009831544 -0.0057266816 0.03705918 8618883
0.009841349 -0.0072555514 0.037037205 8026746
0.0098511539 -0.0087845167 0.037015233 8158332
0.009860957 -0.010313576 0.036993258 8881798
0.0098708104 -0.011842732 0.036971252 8947591
0.0096862372 0.011119885 0.035522435 10392724
0.0096961185 0.0095906937 0.035500355 10589589
0.0097059477 0.0080614053 0.035478305 10261395
0.0097158263 0.0065320223 0.035456225 10326931
0.0097256536 0.0050025424 0.035434175 10195859
0.00973548 0.0034729673 0.035412125 10458774
0.0097453063 0.0019432973 0.035390072 10392981
0.0097551811 0.00041353214 0.035367992 10459031
0.009765056 -0.0011163281 0.035345908 10655896
0.0097749298 -0.0026462851 0.035323821 10655896
0.0097847013 -0.0041763382 0.035301801 10590103
0.009794523 -0.0057064872 0.035279747 9670800
0.0098043429 -0.0072367308 0.035257693 8487297
0.0098141627 -0.0087670702 0.03523564 8618626
0.0098239807 -0.010297504 0.035213586 8618883
0.0098337987 -0.011828034 0.035191528 8618626
0.0096490588 0.011155243 0.033740636 10982805
0.009658955 0.0096246777 0.033718474 10983062
0.0096687973 0.0080940146 0.033696342 10458003
0.0096786432 0.0065632556 0.033674214 10589075
0.0096884836 0.0050324011 0.033652082 10195345
0.0096983761 0.0035014532 0.03362992 11179413
0.0097082183 0.0019704069 0.033607792 11244949
0.0097180568 0.00043926568 0.033585656 11507350
0.0097278981 -0.0010919706 0.033563524 12227989
0.0097377868 -0.002623304 0.033541363 11965845
0.0097476253 -0.004154732 0.033519231 11898767
0.0097574117 -0.0056862566 0.033497129 11245206
0.0097672455 -0.0072178766 0.033474993 10196630
0.0097770812 -0.0087495912 0.033452861 10262423
0.0097869141 -0.010281404 0.033430722 10262423
0.0097966958 -0.01181331 0.033408619 10262423
0.0096118385 0.011190665 0.031955611 11440272
0.0096216481 0.0096587194 0.031933434 10262166
0.0096315583 0.0081266826 0.031911191 10262166
0.0096414154 0.0065945466 0.031888977 8881798
0.0096512744 0.0050623142 0.03186677 9342092
0.0096611818 0.003529988 0.031844527 9605007
0.0096710399 0.0019975654 0.031822316 9013384
0.0096808933 0.00046504606 0.031800102 9210763
0.0096907495 -0.0010675684 0.031777892 9605007
0.009700601 -0.0026002796 0.031755675 9933458
0.0097104022 -0.0041330876 0.031733494 11441043
0.0097202556 -0.0056659896 0.031711284 12225676
0.0097301044 -0.007198988 0.031689066 11899281
0.0097399075 -0.0087320823 0.031666886 11965588
0.0097497543 -0.010265272 0.031644668 11966359
0.009759604 -0.011798559 0.031622455 11966359
0.0095744701 0.011226147 0.030167419 11899024
0.0095843971 0.0096928272 0.030145098 11637651
0.0095942728 0.0081594083 0.030122809 11571344
0.0096041448 0.0066258926 0.030100515 9670286
0.0096140197 0.0050922814 0.030078227 9801615
0.0096238898 0.0035585759 0.030055931 9539214
0.0096337628 0.0020247714 0.030033642 8421504
0.0096436311 0.00049087184 0.030011345 9210763
0.0096535021 -0.0010431227 0.029989054 9210763
0.0096633201 -0.0025772157 0.029966792 9539471
0.0096731894 -0.0041114027 0.029944502 11441814
0.0096830539 -0.0056456858 0.029922204 11441557
0.0096928691 -0.0071800658 0.02989994 12029839
0.0097026834 -0.0087145427 0.029877676 11179927
0.0097125489 -0.010249114 0.029855384 10786968
0.0097223613 -0.011783781 0.029833117 10852504
0.0095371585 0.011261699 0.028375931 9670286
0.009546998 0.0097269937 0.028353591 9998480
0.0095568858 0.0081921928 0.028331216 11766924
0.0095667765 0.0066572968 0.028308848 10129552
0.0095767155 0.0051223035 0.028286444 10260624
0.0095865512 0.0035872143 0.028264103 9998480
0.0095964363 0.002052028 0.028241728 9276299
0.0096063232 0.00051674643 0.028219357 10787482
0.009616157 -0.0010186334 0.028197015 10853275
0.0096260384 -0.0025541086 0.028174637 10787739
0.0096358703 -0.0040896791 0.028152293 11442585
0.0096457014 -0.0056253467 0.028129948 9342092
0.0096555846 -0.0071611097 0.028107576 11049626
0.0096654622 -0.0086969687 0.028085196 8750469
0.0096752914 -0.010232924 0.028062852 8158332
0.0096851187 -0.011768976 0.028040506 8224125
0.0094996877 0.011297313 0.026581254 8224125
0.0095095951 0.0097612226 0.026558805 8092539
0.0095194494 0.0082250368 0.026536385 10851990
0.0095293513 0.0066887555 0.026513929 9801872
0.0095392568 0.0051523787 0.02649148 10260624
0.0095491568 0.0036159034 0.026469024 10261138
0.0095590074 0.0020793318 0.026446601 10916755
0.0095689585 0.00054266624 0.026424116 12355977
0.0095787589 -0.00099409895 0.026401728 12356748
0.0095886067 -0.0025309594 0.026379304 12291469
0.009598502 -0.004067916 0.026356846 9736336
0.0096083488 -0.0056049693 0.026334422 8289918
0.0096181938 -0.0071421196 0.026311997 9276556
0.0096280873 -0.0086793648 0.026289536 8289918
0.0096379826 -0.010216707 0.026267083 8092539
0.0096477726 -0.011754146 0.026244685 8224125
0.0094622178 0.011332992 0.024783304 8881541
0.009472087 0.0097955149 0.024760803 8092539
0.0094819563 0.0082579413 0.024738302 8289918
0.0094918739 0.0067202742 0.024715766 8421504
0.0095017906 0.0051825084 0.02469323 10457746
0.0095116571 0.0036446457 0.024670728 11832460
0.009521571 0.002106688 0.02464819 11440272
0.0095314356 0.00056863192 0.024625687 10261138
0.0095413001 -0.00096952106 0.024603182 9933458
0.009551215 -0.0025077693 0.024580652 11638422
0.0095610777 -0.0040461142 0.024558147 9276556
0.0095709348 -0.0055845557 0.024535635 8158332
0.0095807957 -0.0071230945 0.024513129 10918040
0.0095906546 -0.0086617284 0.024490625 10983062
0.0096005136 -0.01020046 0.024468118 10982548
0.0096103707 -0.011739288 0.024445612 8947591
0.0094245858 0.011368732 0.022982158 11570573
0.0094344672 0.0098298658 0.022959571 11046799
0.0094444007 0.0082909055 0.022936955 9342092
0.009454336 0.0067518475 0.022914344 8026746
0.0094642146 0.0052126925 0.022891756 9538957
0.009474149 0.0036734405 0.022869145 11243921
0.0094840256 0.0021340919 0.022846555 10458003
0.0094939061 0.00059464446 0.022823971 8618626
0.0095038339 -0.00094489631 0.022801353 8421504
0.0095136622 -0.002484537 0.022778803 10064787
0.0095235398 -0.0040242733 0.022756217 8684676
0.0095334128 -0.0055641062 0.022733625 8158332
0.0095432876 -0.007104035 0.02271104 10589846
0.0095531624 -0.0086440612 0.022688454 10917526
0.0095630353 -0.010184184 0.022665868 12486278
0.0095729576 -0.011724403 0.022643246 10655382
0.0093869884 0.01140454 0.021177679 11374736
0.0093968883 0.0098642828 0.021155018 12092548
0.0094067836 0.0083239293 0.02113235 10917269
0.0094166817 0.006783478 0.021109687 9473164
0.0094265798 0.0052429298 0.021087024 9013384
0.0094365254 0.0037022864 0.021064326 9670286
0.009446417 0.0021615447 0.021041656 9078920
0.0094563607 0.00062070583 0.021018956 8026746
0.0094662057 -0.0009202293 0.020996327 8026746
0.0094760954 -0.0024612616 0.020973654 8618626
0.0094859386 -0.0040023923 0.020951025 8750469
0.0094958264 -0.0055436185 0.020928351 8750469
0.0095057655 -0.0070849406 0.020905651 8224125
0.0095156059 -0.0086263604 0.020883018 9144713
0.0095255431 -0.010167878 0.020860316 12486278
0.0095353788 -0.011709491 0.020837678 12030096
0.009349226 0.01144041 0.019369999 9998480
0.0093591902 0.0098987594 0.019347221 11112592
0.0093691004 0.0083570126 0.019324472 11505808
0.0093790134 0.0068151662 0.019301729 11702159
0.0093889227 0.0052732234 0.019278979 9538957
0.0093988338 0.0037311835 0.019256236 8224125
0.0094087934 0.0021890483 0.019233456 8289918
0.0094186515 0.00064681319 0.019210739 8026746
0.0094285076 -0.00089551869 0.019188022 8026746
0.0094384644 -0.0024379445 0.019165242 11244692
0.0094483187 -0.0039804708 0.019142525 12030353
0.0094582215 -0.005523093 0.019119771 11966102
0.009468127 -0.0070658126 0.019097025 8355711
0.0094779786 -0.008608629 0.019074306 12096146
0.0094878785 -0.010151542 0.01905155 11964303
0.0094977813 -0.011694552 0.019028803 9342092
0.0093114423 0.011476348 0.017559005 7960953
0.0093214205 0.0099333003 0.017536147 8092539
0.0093313465 0.0083901566 0.017513318 8684419
0.0093412744 0.0068469131 0.017490493 10982291
0.0093511986 0.0053035733 0.017467663 9867665
0.0093611218 0.0037601369 0.017444832 10458260
0.0093709948 0.0022165999 0.017422035 11179413
0.0093809161 0.00067296956 0.017399203 9867408
0.0093907872 -0.00087076105 0.017376406 8355711
0.0094007105 -0.002414587 0.017353579 9473421
0.009410629 -0.0039585107 0.017330747 9802129
0.0094204973 -0.0055025318 0.017307948 9670800
0.0094304141 -0.0070466492 0.017285114 8355711
0.0094402805 -0.0085908649 0.017262314 9802129
0.0094501963 -0.010135177 0.017239479 9473421
0.0094600609 -0.011679587 0.017216679 8355711
0.0092736362 0.011512351 0.015744699 7960953
0.0092835287 0.0099679017 0.015721824 7960953
0.0092934696 0.0084233573 0.015698913 8092282
0.0093034096 0.0068787155 0.015676003 9013127
0.0093133477 0.0053339768 0.015653092 8750212
0.0093232859 0.0037891397 0.01563018 9538957
0.0093331737 0.0022442043 0.015607303 10327188
0.00934311 0.00069917145 0.015584391 9538957
0.009352996 -0.00084595784 0.015561512 8289918
0.0093629304 -0.0023911861 0.015538598 8224125
0.0093728639 -0.0039365096 0.015515685 8289918
0.009382695 -0.0054819328 0.015492833 8224125
0.0093926266 -0.0070274514 0.015469919 8224125
0.0094025573 -0.0085730683 0.015447004 8224125
