# .PCD v0.7 - Point Cloud Data file format
VERSION 0.7
FIELDS x y z rgb
SIZE 4 4 4 4
TYPE F F F U
COUNT 1 1 1 1
WIDTH 263
HEIGHT 1
VIEWPOINT 0 0 0 1 0 0 0
POINTS 263
DATA ascii
0.063877694 -0.20575948 -0.071721524 4283978073
0.065573923 -0.20687528 -0.068755619 4284438623
0.066811003 -0.20813048 -0.068865433 4284175705
0.068048082 -0.20938568 -0.068975247 4284175703
0.063081555 -0.20683458 -0.068904854 4283714901
0.064318627 -0.20808978 -0.069014668 4284504416
0.065555707 -0.20934498 -0.06912449 4284570974
0.066792786 -0.21060018 -0.069234304 4284768351
0.068322189 -0.21175115 -0.067332223 4283715663
0.069266945 -0.2131106 -0.069453932 4282926147
0.070791133 -0.21425627 -0.067551389 4282004793
0.072025605 -0.21550882 -0.067660972 4281873209
0.074424103 -0.21628723 -0.059459932 4281610037
0.075647816 -0.21752886 -0.059568562 4281412658
0.061358988 -0.20819634 -0.072241299 4283649107
0.063063316 -0.2093043 -0.069273733 4284373084
0.064300388 -0.2105595 -0.069383547 4284505179
0.065537468 -0.21181472 -0.069493361 4284899935
0.067069545 -0.21296309 -0.067590728 4284176212
0.068304017 -0.21421565 -0.067700312 4283649868
0.069989599 -0.21529369 -0.064676203 4281872948
0.071220018 -0.21654214 -0.064785428 4281543985
0.073182344 -0.21748863 -0.059716191 4281215020
0.074406058 -0.21873029 -0.059824821 4280951848
0.059644513 -0.20791227 -0.067301318 4282003766
0.06057094 -0.20926361 -0.069422968 4284044117
0.061808016 -0.21051881 -0.069532782 4284702045
0.063045099 -0.21177402 -0.069642596 4284570970
0.064282171 -0.21302922 -0.069752418 4284768604
0.065816872 -0.21417506 -0.067849241 4284045649
0.067051344 -0.21542762 -0.067958824 4283781709
0.068741068 -0.21650167 -0.064933859 4282135602
0.069971479 -0.2177501 -0.065043084 4281806126
0.071940608 -0.21869002 -0.059972446 4281345575
0.073164321 -0.21993166 -0.060081076 4281148196
0.058879625 -0.20897055 -0.064426951 4281148455
0.059315622 -0.21047814 -0.069682024 4283649357
0.060552701 -0.21173334 -0.069791839 4284702299
0.061789781 -0.21298854 -0.06990166 4284702811
0.06302686 -0.21424374 -0.070011474 4284769372
0.064564206 -0.21538702 -0.068107754 4284111440
0.065798678 -0.21663958 -0.068217337 4283781705
0.067033149 -0.21789214 -0.06832692 4282661173
0.068267621 -0.2191447 -0.068436503 4282199854
0.06995336 -0.22020651 -0.065409966 4281410338
0.071183771 -0.22145495 -0.065519191 4281015580
0.07241419 -0.2227034 -0.065628417 4280949787
0.057631064 -0.21017852 -0.064684615 4280687904
0.058060326 -0.21169265 -0.069941081 4283188806
0.059297405 -0.21294785 -0.070050895 4284439127
0.060534485 -0.21420304 -0.070160709 4284702809
0.062077068 -0.21534643 -0.068256676 4285032542
0.06331154 -0.21659899 -0.068366267 4284374865
0.064546011 -0.21785155 -0.06847585 4284044617
0.065780483 -0.2191041 -0.068585433 4282463276
0.067014955 -0.22035666 -0.068695016 4282001187
0.068704799 -0.22141451 -0.065667629 4281014292
0.069935217 -0.22266294 -0.065776855 4280356362
0.071165629 -0.22391139 -0.06588608 4280224776
0.056382529 -0.2113865 -0.064942271 4281740333
0.056805011 -0.21290717 -0.070200138 4283648587
0.058843359 -0.21388339 -0.065160722 4284504920
0.059279166 -0.21541758 -0.070419766 4284833882
0.061304189 -0.21638027 -0.065379165 4285294944
0.062058911 -0.21781091 -0.068624765 4284637268
0.063293383 -0.21906346 -0.068734348 4284241227
0.064527854 -0.22031602 -0.068843931 4283054904
0.065762326 -0.22156858 -0.068953522 4282527279
0.066701636 -0.22294879 -0.071078666 4281606175
0.067938715 -0.22420399 -0.07118848 4281145878
0.06991709 -0.22511935 -0.066143736 4281080596
0.055133991 -0.21259446 -0.065199934 4285490532
0.055868357 -0.21401264 -0.068444937 4284437846
0.057102829 -0.2152652 -0.068554528 4284437846
0.058825236 -0.21633978 -0.065527603 4285753704
0.060055651 -0.21758823 -0.065636829 4285753957
0.060806245 -0.21902287 -0.068883277 4284701267
0.062040716 -0.22027543 -0.068992861 4284437843
0.063275188 -0.22152799 -0.069102444 4282659902
0.064209238 -0.22290811 -0.071227908 4282462011
0.065744132 -0.2240331 -0.069321617 4285160290
0.066978604 -0.22528566 -0.069431201 4286344814
0.068213075 -0.22653823 -0.069540784 4286082407
0.055115849 -0.21505089 -0.065566815 4285490532
0.056346264 -0.21629934 -0.065676041 4284766809
0.057576679 -0.21754777 -0.065785266 4285029981
0.058807094 -0.21879621 -0.065894492 4284964441
0.060037509 -0.22004466 -0.066003717 4284569168
0.061267924 -0.22129309 -0.066112936 4284503379
0.062022518 -0.22273995 -0.069360957 4283252558
0.062953942 -0.22412261 -0.071486957 4283844442
0.064191021 -0.22537781 -0.071596771 4285028967
0.065428101 -0.22663303 -0.071706593 4288187795
0.06666518 -0.22788823 -0.071816407 4287266942
0.053867288 -0.21625888 -0.065824479 4284307024
0.055097707 -0.21750732 -0.065933704 4284570196
0.056328122 -0.21875577 -0.06604293 4284504403
0.057558537 -0.2200042 -0.066152155 4284701778
0.058788951 -0.22125265 -0.066261381 4285030483
0.060019366 -0.22250108 -0.066370599 4284832855
0.061249781 -0.22374953 -0.066479824 4283976792
0.062004324 -0.22520447 -0.069729052 4283384406
0.06293571 -0.22659235 -0.071855836 4283779415
0.064473264 -0.22770959 -0.069948219 4284503134
0.065707736 -0.22896215 -0.070057809 4285161315
0.052955832 -0.21734639 -0.064001404 4283319622
0.05384919 -0.21871527 -0.06619136 4284964701
0.055411283 -0.2198378 -0.06421937 4284964700
0.05631002 -0.22121215 -0.066409811 4284899675
0.057540435 -0.2224606 -0.066519029 4285162329
0.05877085 -0.22370903 -0.066628255 4284438356
0.060001265 -0.22495747 -0.06673748 4284107865
0.060751654 -0.22641644 -0.069987565 4282594375
0.061986126 -0.227669 -0.070097148 4281870907
0.062917508 -0.22906204 -0.072224699 4280423970
0.064154588 -0.23031723 -0.072334513 4281608497
0.051710028 -0.21855171 -0.064258493 4282990926
0.05260063 -0.21992326 -0.066449024 4284701542
0.054165479 -0.22104312 -0.064476468 4284636003
0.055393204 -0.22228883 -0.064585455 4284702306
0.056620929 -0.22353455 -0.064694434 4285031010
0.057848655 -0.22478026 -0.064803421 4284569691
0.05907638 -0.22602597 -0.064912409 4283646800
0.059983119 -0.22741391 -0.067104369 4283119691
0.061213534 -0.22866234 -0.067213595 4281080619
0.06196795 -0.2301335 -0.070465244 4281344559
0.063202426 -0.23138605 -0.070574827 4280095516
0.052919656 -0.22224846 -0.064733565 4284307551
0.054147381 -0.22349419 -0.064842552 4284439134
0.055375107 -0.22473989 -0.064951539 4284834144
0.056273732 -0.226125 -0.067143582 4284899678
0.057504147 -0.22737345 -0.067252807 4283581254
0.058734562 -0.22862189 -0.067362033 4283515204
0.059964977 -0.22987033 -0.067471258 4283844426
0.060406879 -0.23149109 -0.072742812 4284897884
0.061643954 -0.23274629 -0.072852626 4284767068
0.050446127 -0.22220808 -0.064881675 4285097316
0.051673852 -0.22345379 -0.064990662 4284834397
0.052901577 -0.22469951 -0.065099649 4284440405
0.054129303 -0.22594522 -0.065208629 4284243279
0.055025216 -0.22733295 -0.067401238 4284637519
0.056255631 -0.2285814 -0.067510463 4283978046
0.057486046 -0.22982983 -0.067619689 4283451445
0.058716461 -0.23107828 -0.067728907 4286083165
0.059462614 -0.23255743 -0.070982262 4287136110
0.060697086 -0.23380998 -0.071091846 4288780938
0.049715467 -0.22321387 -0.062030867 4283255882
0.050428025 -0.22465913 -0.065247759 4284440154
0.051655751 -0.22590485 -0.065356746 4284703577
0.052883476 -0.22715056 -0.065465733 4284243537
0.054111201 -0.22839627 -0.065574713 4284768851
0.055007074 -0.22978938 -0.067768127 4284109633
0.056566652 -0.2308877 -0.065792687 4283319859
0.057467904 -0.23228626 -0.06798657 4283911741
0.058698319 -0.23353471 -0.068095796 4285820253
0.059928734 -0.23478314 -0.068205021 4284701520
0.047954496 -0.22461875 -0.065395869 4281939267
0.049182221 -0.22586446 -0.065504856 4283979104
0.050409947 -0.22711018 -0.065613844 4284571749
0.051637672 -0.22835588 -0.065722823 4284374624
0.052865397 -0.22960159 -0.06583181 4284702560
0.053758517 -0.23099737 -0.06802579 4284173393
0.055320848 -0.23209302 -0.066049784 4283382596
0.056548573 -0.23333873 -0.066158764 4281343785
0.057776298 -0.23458444 -0.066267751 4279897113
0.059004024 -0.23583016 -0.066376738 4279766301
0.046708673 -0.22582409 -0.065652966 4281741889
0.047936399 -0.22706981 -0.065761954 4283781725
0.049164124 -0.22831552 -0.065870941 4284440164
0.050391849 -0.22956122 -0.065979928 4284308831
0.051279563 -0.2309569 -0.068174221 4284767840
0.052509978 -0.23220533 -0.068283446 4284239188
0.054075021 -0.23329836 -0.066306882 4283448392
0.055302747 -0.23454407 -0.066415869 4281409325
0.056201223 -0.23595066 -0.068611123 4279831324
0.057431638 -0.2371991 -0.068720341 4279568923
0.045462847 -0.22702943 -0.065910071 4282202940
0.046690572 -0.22827515 -0.066019051 4283979603
0.047918297 -0.22952086 -0.066128038 4284703579
0.049146023 -0.23076656 -0.066237025 4284506196
0.050031029 -0.23216486 -0.068431884 4284768853
0.051261444 -0.23341331 -0.06854111 4284569422
0.052829199 -0.2345037 -0.066563979 4283844931
0.054056924 -0.23574942 -0.066672966 4282134059
0.055284649 -0.23699513 -0.066781953 4280884764
0.056512374 -0.23824084 -0.06689094 4280885022
0.044558011 -0.22984931 -0.071507722 4283848016
0.046321638 -0.23087597 -0.068471096 4284637784
0.047552053 -0.2321244 -0.068580322 4284638037
0.048782468 -0.23337285 -0.068689547 4284965973
0.050012883 -0.23462129 -0.068798773 4284175174
0.051583394 -0.23570903 -0.066821076 4283647803
0.05281112 -0.23695473 -0.066930063 4282003492
0.054038845 -0.23820046 -0.067039043 4281148185
0.05526657 -0.23944616 -0.06714803 4281280029
0.044198945 -0.23068582 -0.066533245 4283189069
0.045426667 -0.23193152 -0.066642232 4284373595
0.046303518 -0.23333238 -0.068837978 4284636763
0.047533933 -0.23458081 -0.068947203 4284899675
0.048764348 -0.23582926 -0.069056429 4284568654
0.050337568 -0.23691437 -0.067078173 4283910209
0.051565293 -0.23816009 -0.06718716 4282265897
0.052793019 -0.2394058 -0.067296147 4281148186
0.054020744 -0.2406515 -0.067405134 4281083163
0.04259415 -0.23204346 -0.06887719 4282794311
0.044180863 -0.23313685 -0.066899329 4284044630
0.04505498 -0.23454034 -0.069095641 4284373593
0.046285395 -0.23578879 -0.069204867 4284767321
0.047864038 -0.23687398 -0.067226283 4284897367
0.049091764 -0.23811969 -0.06733527 4284173131
0.050830971 -0.23911373 -0.06432882 4282594610
0.05239116 -0.2401858 -0.06237153 4281476899
0.053612214 -0.24142474 -0.062479924 4281346337
0.041345593 -0.23325145 -0.069134854 4282465083
0.042576008 -0.23449989 -0.069244079 4283846989
0.043806423 -0.23574834 -0.069353305 4284241745
0.045036837 -0.23699677 -0.06946253 4284635989
0.046618216 -0.23807932 -0.06748338 4284174161
0.047845941 -0.23932503 -0.067592368 4283581258
0.049589213 -0.24031514 -0.064585075 4282133810
0.050812926 -0.24155678 -0.064693704 4281147683
0.052373189 -0.24262349 -0.062735617 4281213987
0.053594239 -0.24386244 -0.062844008 4281082913
0.041327469 -0.23570786 -0.069501735 4283517254
0.042557884 -0.2369563 -0.069610961 4284241229
0.043788299 -0.23820473 -0.069720186 4284635476
0.045372412 -0.23928465 -0.067740478 4284503128
0.046600137 -0.24053036 -0.067849465 4283844946
0.048347499 -0.2415165 -0.06484133 4282331705
0.049571212 -0.24275814 -0.06494996 4281345321
0.050794926 -0.24399978 -0.065058589 4281477161
0.052018635 -0.24524142 -0.065167218 4281346086
0.042539742 -0.23941272 -0.06997785 4284503379
0.044126585 -0.24048999 -0.067997575 4283910989
0.04535431 -0.2417357 -0.068106562 4283845457
0.047105741 -0.24271791 -0.065097585 4282134837
0.048329454 -0.24395955 -0.065206215 4281345321
0.049553167 -0.24520119 -0.065314844 4281279528
0.05077688 -0.24644284 -0.065423474 4280951074
0.044108506 -0.24294102 -0.068363659 4284108627
0.045864005 -0.2439193 -0.065353841 4282463802
0.047087718 -0.24516094 -0.06546247 4281740079
0.048311431 -0.24640258 -0.0655711 4281609006
0.049535144 -0.24764422 -0.065679729 4281148455
0.050758854 -0.24888586 -0.065788358 4281083432
0.041634958 -0.24290065 -0.068511769 4283910987
0.042862684 -0.24414638 -0.068620756 4283648076
0.044090409 -0.24539208 -0.068729743 4281740079
0.04531813 -0.24663779 -0.06883873 4280950563
0.046545856 -0.24788351 -0.06894771 4281082662
0.047773581 -0.24912922 -0.069056697 4281016869
0.049001306 -0.25037494 -0.069165684 4281215018
0.041616857 -0.24535172 -0.068877853 4283911248
0.042844582 -0.24659742 -0.068986841 4281871665
0.044072308 -0.24784313 -0.069095828 4281016356
0.045300033 -0.24908885 -0.069204815 4281082662
0.046527758 -0.25033456 -0.069313802 4280885283
0.047755484 -0.25158027 -0.069422781 4280951846
0.040371053 -0.24655704 -0.069134951 4282792767
0.041598778 -0.24780275 -0.069243938 4281213735
0.042826504 -0.24904846 -0.069352925 4280884770
0.044054229 -0.25029418 -0.069461904 4281280041
0.045281954 -0.25153989 -0.069570892 4281148455
