# .PCD v0.7 - Point Cloud Data file format
VERSION 0.7
FIELDS x y z rgb
SIZE 4 4 4 4
TYPE F F F U
COUNT 1 1 1 1
WIDTH 1059
HEIGHT 1
VIEWPOINT 0 0 0 1 0 0 0
POINTS 1059
DATA ascii
0.21259326 -0.049451187 0.13555539 4289440932
0.21376459 -0.050186228 0.1334997 4289835431
0.21484452 -0.051257659 0.13341148 4290622898
0.21622869 -0.051322985 0.12729594 4293844705
0.2293046 -0.071049474 0.15722062 4286875536
0.23035081 -0.072087444 0.15713516 4288980394
0.23125549 -0.073411658 0.15901931 4290624444
0.23229904 -0.074447006 0.15893407 4290754738
0.23348941 -0.075201362 0.15687878 4290029987
0.2345356 -0.076239333 0.15679333 4285357659
0.2355818 -0.077277303 0.15670787 4280882967
0.23662801 -0.078315273 0.15662241 4282198061
0.24944937 -0.087987624 0.14158641 4286869867
0.25051445 -0.089044325 0.14149942 4287329137
0.25157952 -0.090101026 0.14141241 4284827976
0.25284436 -0.090911426 0.13926938 4287656051
0.25391218 -0.091970861 0.13918215 4287852403
0.25498003 -0.093030296 0.13909493 4288443516
0.25625056 -0.093857661 0.13700318 4285417808
0.25732109 -0.094919756 0.13691573 4287063661
0.25891641 -0.095409974 0.13177148 4284631373
0.2599937 -0.096478783 0.13168348 4285950056
0.2612814 -0.097329304 0.12961827 4285623401
0.26236135 -0.098400734 0.12953007 4285231212
0.26366508 -0.099251144 0.12739024 4286875783
0.26474774 -0.1003253 0.1273018 4286412924
0.26583043 -0.10139945 0.12721336 4286477690
0.19789341 -0.034302246 0.12417596 4284570471
0.19898684 -0.035387088 0.12408664 4285359474
0.200019 -0.036843874 0.12601309 4285820025
0.20104603 -0.038293459 0.12793005 4285820025
0.20206802 -0.03973588 0.12983753 4285622646
0.20291214 -0.042076923 0.13675468 4285359472
0.20398806 -0.043144386 0.13666679 4286017402
0.20510153 -0.044032019 0.13556725 4284767335
0.20613991 -0.045279305 0.13649102 4286017402
0.20721583 -0.046346765 0.13640313 4284702055
0.20829175 -0.047414225 0.13631524 4287136396
0.20936768 -0.048481684 0.13622735 4285557364
0.2104436 -0.049549144 0.13613947 4286808452
0.21151952 -0.050616603 0.13605158 4283849038
0.21250166 -0.052023534 0.13798098 4286941050
0.21357489 -0.053088304 0.13789332 4285425252
0.22830623 -0.072014481 0.15671939 4286941325
0.22935244 -0.073052451 0.15663393 4289111977
0.23025964 -0.074374236 0.15851933 4290427319
0.2313032 -0.075409591 0.15843409 4290886070
0.23249105 -0.076166369 0.15637755 4288121992
0.23353724 -0.077204339 0.1562921 4284897106
0.23443387 -0.078515641 0.15817836 4284106822
0.23547743 -0.079550989 0.15809311 4283317053
0.24736792 -0.087913342 0.14116313 4285090896
0.24843299 -0.08897005 0.14107613 4286341990
0.24949808 -0.090026751 0.14098912 4288712334
0.25056314 -0.091083452 0.14090213 4290291880
0.25162825 -0.092140153 0.14081512 4292265671
0.25269333 -0.093196854 0.14072813 4291212213
0.2537584 -0.094253555 0.14064112 4289172119
0.25502884 -0.095074698 0.1384961 4287197816
0.2562995 -0.095907204 0.13640285 4286999669
0.25737002 -0.096969299 0.13631539 4286276716
0.25896567 -0.097472474 0.13116735 4287264126
0.26025087 -0.098325416 0.12910089 4286936188
0.26133081 -0.099396847 0.12901267 4286542970
0.26241073 -0.10046828 0.12892446 4286609276
0.26349065 -0.10153971 0.12883624 4286346620
0.26457059 -0.10261115 0.12874803 4286083702
0.19891973 -0.038217578 0.12749764 4285556853
0.19994694 -0.039660193 0.12940618 4285622646
0.20090422 -0.041464135 0.13334703 4285556853
0.20191894 -0.042888086 0.1352271 4285227886
0.20296134 -0.044136815 0.13615131 4285293679
0.20403726 -0.045204274 0.13606343 4284964714
0.20503826 -0.046624824 0.1379928 4285227886
0.20611148 -0.047689594 0.13790514 4284965227
0.20710474 -0.049100339 0.13982499 4286281087
0.20817526 -0.050162431 0.13973755 4286149503
0.20924577 -0.05122453 0.13965011 4287664274
0.21040432 -0.051948678 0.13755448 4289508004
0.2113868 -0.05334872 0.13947521 4291283901
0.21236436 -0.054741751 0.14138632 4288780443
0.21343219 -0.055801187 0.14129908 4287922062
0.22730787 -0.072979495 0.15621814 4286349443
0.22835407 -0.074017473 0.15613268 4288651165
0.2292638 -0.075336814 0.15801936 4289769387
0.23030736 -0.076372162 0.15793411 4289833383
0.23135091 -0.077407509 0.15784886 4287727236
0.23239447 -0.078442864 0.15776363 4285818206
0.23343803 -0.079478212 0.15767838 4285686106
0.23440476 -0.080651231 0.15860572 4284764499
0.23544696 -0.081685238 0.15852059 4283975501
0.24519917 -0.087962173 0.14173365 4288575103
0.24626292 -0.089017555 0.14164676 4285155666
0.24732667 -0.090072937 0.14155987 4285881956
0.24839042 -0.09112832 0.14147297 4290950070
0.24945417 -0.092183709 0.14138608 4294307053
0.25051793 -0.093239091 0.14129919 4294504434
0.25158167 -0.094294474 0.1412123 4293846504
0.25245297 -0.095576733 0.143107 4290423730
0.25351408 -0.096629493 0.14302033 4287724934
0.25457516 -0.097682245 0.14293365 4287329406
0.25583667 -0.098516002 0.14086473 4286737015
0.25690043 -0.099571392 0.14077783 4287329152
0.2592203 -0.099321544 0.12858349 4286803834
0.26030025 -0.10039297 0.12849528 4286541689
0.26138017 -0.10146441 0.12840706 4286279800
0.26246008 -0.10253584 0.12831885 4286083448
0.26354003 -0.10360727 0.12823063 4285820789
0.19674054 -0.038507696 0.1290635 4284898921
0.1977706 -0.039946049 0.1309635 4285227886
0.19879374 -0.041388821 0.13291785 4285556337
0.19987367 -0.042460255 0.13282964 4285556337
0.2008587 -0.044061773 0.13572372 4286148220
0.20180111 -0.045839395 0.13966188 4285621876
0.20287162 -0.046901494 0.13957444 4286148990
0.20387052 -0.048310675 0.14148529 4285491060
0.20493835 -0.04937011 0.14139807 4286149503
0.20592719 -0.050780203 0.1433616 4286215296
0.20699228 -0.051836908 0.14327461 4287531672
0.20805736 -0.052893609 0.1431876 4289835189
0.2092097 -0.053607844 0.14104916 4293521892
0.21014404 -0.055171106 0.14400457 4294245102
0.21120781 -0.056226488 0.14391766 4292530392
0.21227156 -0.05728187 0.14383078 4287592335
0.22630951 -0.073944509 0.15571691 4285757302
0.22722439 -0.075264037 0.15760463 4287927695
0.22826795 -0.076299384 0.15751939 4288781977
0.22931151 -0.077334732 0.15743414 4287990925
0.23035507 -0.078370087 0.1573489 4286476914
0.23139863 -0.079405434 0.15726365 4286016097
0.23236802 -0.080578543 0.15819155 4286344805
0.23341022 -0.08161255 0.15810642 4284238927
0.23445243 -0.082646549 0.15802127 4282462777
0.24401267 -0.089186214 0.14320536 4288642697
0.24507378 -0.090238966 0.14311868 4282262062
0.24613488 -0.091291718 0.143032 4286935418
0.24737531 -0.092109516 0.14096333 4294701302
0.24843906 -0.093164906 0.14087643 4294966783
0.24950281 -0.094220288 0.14078954 4294966527
0.25056657 -0.09527567 0.14070265 4294635509
0.25144038 -0.096555494 0.14259861 4290883770
0.25250149 -0.097608253 0.14251195 4287131773
0.2537578 -0.098441824 0.14044197 4286868087
0.25482157 -0.099497199 0.14035508 4286867832
0.2558853 -0.10055259 0.14026818 4287000701
0.25818977 -0.10031766 0.12806609 4286410104
0.25926968 -0.1013891 0.12797788 4286411644
0.26034963 -0.10246053 0.12788966 4285886583
0.26142955 -0.10353196 0.12780145 4285887352
0.26250947 -0.10460339 0.12771323 4285755766
0.19668326 -0.041313507 0.13248867 4285030507
0.19768012 -0.042919282 0.13538402 4285424751
0.19869712 -0.044345602 0.13731511 4285556337
0.19970901 -0.045764752 0.13923644 4285885048
0.20071585 -0.047176775 0.14114814 4285227118
0.20178369 -0.04823621 0.14106092 4285951611
0.20278065 -0.049649231 0.14302532 4285359476
0.20384572 -0.050705936 0.14293832 4285754747
0.20487393 -0.05193077 0.14384249 4285425782
0.20586155 -0.053318538 0.14573064 4287268501
0.20692265 -0.054371294 0.14564396 4290362047
0.20798375 -0.055424049 0.14555728 4293127904
0.20904486 -0.056476805 0.14547062 4294639606
0.21010596 -0.057529561 0.14538394 4291872211
0.21116705 -0.058582313 0.14529726 4284630886
0.21222816 -0.059635069 0.14521059 4286601091
0.22622855 -0.076226607 0.15710466 4287138177
0.22727211 -0.077261955 0.15701941 4287860873
0.22831567 -0.07829731 0.15693417 4286740860
0.22935922 -0.079332657 0.15684892 4285753706
0.23040278 -0.080368005 0.15676369 4286147937
0.23144634 -0.08140336 0.15667844 4286674027
0.23241566 -0.082573883 0.15760708 4284897114
0.23345786 -0.08360789 0.15752195 4282726463
0.24300009 -0.090164959 0.14269698 4289762464
0.24406119 -0.091217719 0.1426103 4287067006
0.24529645 -0.092035338 0.14054057 4287792526
0.2463602 -0.09309072 0.14045368 4292925920
0.24742395 -0.094146103 0.14036678 4294966783
0.2484877 -0.095201485 0.14027989 4294439159
0.24955145 -0.096256867 0.140193 4294634998
0.25042781 -0.097534247 0.14209025 4290750901
0.25148889 -0.098587006 0.14200357 4286210157
0.25274271 -0.099423021 0.13993232 4286208875
0.25380644 -0.1004784 0.13984543 4286735988
0.25487021 -0.10153379 0.13975854 4286738042
0.25736704 -0.10109744 0.12549226 4286148214
0.25844973 -0.1021716 0.12540382 4286412927
0.25931907 -0.10345665 0.12737226 4285756023
0.26039898 -0.10452808 0.12728405 4285953402
0.26147893 -0.10559952 0.12719584 4285953403
0.26408148 -0.10734764 0.12295816 4286543746
0.26516682 -0.10842445 0.1228695 4288188308
0.19969684 -0.048161745 0.14063653 4285292911
0.2006992 -0.049574956 0.14260204 4285491062
0.20378786 -0.053244546 0.14530894 4285096562
0.20477343 -0.054635853 0.14725015 4286347401
0.20583181 -0.055685911 0.14716369 4290164414
0.22523269 -0.077189192 0.15660468 4286151536
0.22627625 -0.07822454 0.15651943 4287137150
0.22731982 -0.079259887 0.15643419 4286478460
0.22836336 -0.080295242 0.15634894 4286016878
0.22940694 -0.08133059 0.15626371 4286477416
0.23037891 -0.082501195 0.15719289 4287003760
0.23142111 -0.083535202 0.15710776 4285358437
0.23246332 -0.084569208 0.15702263 4283450701
0.23591474 -0.0898498 0.16581716 4280493374
0.23710799 -0.09061829 0.16368875 4285165704
0.23797473 -0.091893591 0.16564888 4290624464
0.23900473 -0.09291549 0.16556475 4293778668
0.23961246 -0.094541475 0.17051713 4289895592
0.24063574 -0.095556699 0.17043355 4284831841
0.24428134 -0.093016542 0.14003092 4290228407
0.24534509 -0.094071925 0.13994403 4294966783
0.2462319 -0.095354743 0.14184189 4294243063
0.24747258 -0.096182697 0.13977024 4294966527
0.24835411 -0.097460255 0.14166854 4294371826
0.2494152 -0.098513007 0.14158186 4291210939
0.2504763 -0.099565767 0.14149518 4286603886
0.25172758 -0.10040423 0.13942267 4286340460
0.25279132 -0.10145961 0.13933578 4286933365
0.25385508 -0.10251499 0.13924889 4287001213
0.25612867 -0.1023099 0.1270313 4286148725
0.25720859 -0.10338134 0.12694308 4286019708
0.25828853 -0.10445277 0.12685487 4285297012
0.25936845 -0.1055242 0.12676665 4285822329
0.26066458 -0.10639273 0.12461979 4286019196
0.26196042 -0.10727196 0.12252682 4286084226
0.26304576 -0.10834876 0.12243816 4286675334
0.2641311 -0.10942557 0.12234951 4288122261
0.26521644 -0.11050238 0.12226085 4289503647
0.22436062 -0.077877514 0.15412773 4285098333
0.22540681 -0.078915484 0.15404227 4286084460
0.22632398 -0.080222465 0.15593421 4286215288
0.22736754 -0.081257813 0.15584898 4285819758
0.22834216 -0.082428515 0.15677869 4286017119
0.22938436 -0.083462521 0.15669356 4286740842
0.23042656 -0.084496528 0.15660843 4284898145
0.23146877 -0.085530534 0.1565233 4283121994
0.23287183 -0.08875607 0.16549194 4282335552
0.23405701 -0.089521669 0.16336268 4281743692
0.23493183 -0.090799868 0.16532367 4280033598
0.23612247 -0.091570884 0.16319397 4284443012
0.23699182 -0.092843659 0.1651554 4291283424
0.2378566 -0.094109714 0.16710649 4292134613
0.23863597 -0.095485337 0.17002688 4289040796
0.23965925 -0.096500561 0.16994329 4287135109
0.24068253 -0.097515784 0.16985971 4288716451
0.243982 -0.095514297 0.14345782 4292335836
0.24521932 -0.096333496 0.14133352 4294901759
0.24628042 -0.097386248 0.14124684 4294967039
0.24734153 -0.098439008 0.14116016 4294832888
0.24840263 -0.09949176 0.14107348 4291080120
0.24946374 -0.10054452 0.14098682 4286867826
0.25052482 -0.10159727 0.14090014 4286472298
0.25177622 -0.1024408 0.13882613 4286736497
0.25293681 -0.1033925 0.1377417 4287067772
0.25400189 -0.1044492 0.13765469 4286346102
0.2558783 -0.10468188 0.1294314 4285823095
0.25705737 -0.10564731 0.12832269 4285363057
0.25813466 -0.10671612 0.1282347 4285494134
0.2596314 -0.10739138 0.12410108 4285821819
0.2609247 -0.10827307 0.12200683 4286150020
0.26201004 -0.10934988 0.12191817 4287004046
0.26309538 -0.11042669 0.12182952 4288253848
0.26418072 -0.1115035 0.12174086 4289371806
0.21152388 -0.06850189 0.16164491 4292717761
0.21256061 -0.069530465 0.16156022 4294961127
0.21344966 -0.071006745 0.16447072 4291013796
0.21448238 -0.072031349 0.16438635 4282858036
0.21833017 -0.076852024 0.16910806 4281937471
0.21935615 -0.077869922 0.16902426 4283188305
0.22055894 -0.078465283 0.16592395 4283584593
0.22201537 -0.078500383 0.15872727 4283717454
0.22324102 -0.07911434 0.15560474 4283914314
0.22428457 -0.080149688 0.15551949 4284768600
0.22526321 -0.081321828 0.15644965 4285688944
0.22630541 -0.082355827 0.15636452 4285359207
0.22734761 -0.083389834 0.15627939 4285424982
0.22838981 -0.08442384 0.15619424 4286609256
0.22914834 -0.085987739 0.16020526 4285687661
0.22997332 -0.087400444 0.16312097 4283254350
0.23100604 -0.088425048 0.16303661 4282597949
0.23188892 -0.089706145 0.16499846 4282072894
0.23307151 -0.090474255 0.1628679 4281086277
0.23410423 -0.091498867 0.16278355 4279507768
0.23513696 -0.092523471 0.16269918 4283851135
0.2361697 -0.093548074 0.16261482 4290165459
0.23720242 -0.094572686 0.16253047 4293120738
0.23823515 -0.09559729 0.16244611 4288843415
0.23926787 -0.096621893 0.16236174 4283253320
0.24191363 -0.095440492 0.14303719 4287335309
0.242972 -0.096490547 0.14295074 4292995817
0.24403039 -0.097540602 0.14286429 4293983223
0.24508877 -0.098590665 0.14277783 4294705151
0.24614716 -0.09964072 0.14269137 4293914094
0.24739005 -0.10047051 0.14056511 4290752693
0.24845114 -0.10152327 0.14047843 4287132536
0.24951226 -0.10257602 0.14039175 4286407273
0.25076112 -0.103422 0.13831648 4286276200
0.25192043 -0.10437492 0.13723141 4287068024
0.25318611 -0.10522223 0.13507757 4286412147
0.25495207 -0.10557219 0.12789457 4285888113
0.25602937 -0.10664099 0.12780656 4285691763
0.25730735 -0.10751646 0.12573184 4285624948
0.25838727 -0.10858789 0.12564364 4285690233
0.25968093 -0.10946418 0.12349393 4286215815
0.26097432 -0.110351 0.12139818 4287267733
0.26205966 -0.11142781 0.12130952 4288385436
0.20867892 -0.066617362 0.15621293 4285873014
0.20958889 -0.068114646 0.15916327 4288504715
0.21053454 -0.069458157 0.16114821 4293309898
0.21157128 -0.070486739 0.16106352 4294694871
0.21246414 -0.071959332 0.16397592 4291474601
0.21349686 -0.072983935 0.16389157 4283319355
0.21442606 -0.074305855 0.16585116 4278978308
0.21535033 -0.075620808 0.16780041 4280820522
0.21632515 -0.076780483 0.16870032 4282070084
0.21735111 -0.077798381 0.16861652 4282069573
0.21843217 -0.078678407 0.16754867 4282332996
0.21945946 -0.079697609 0.16746476 4282795329
0.22060604 -0.080437236 0.16534635 4283256642
0.22175869 -0.081180789 0.1632167 4283124796
0.22310239 -0.081521861 0.15805942 4283979338
0.22426865 -0.082283162 0.15595031 4285688172
0.22518139 -0.08358451 0.1578896 4285622120
0.22635305 -0.084351167 0.15578005 4285753693
0.22739525 -0.085385174 0.15569492 4287595897
0.22809085 -0.087072484 0.16071182 4285556327
0.2289878 -0.08835303 0.16262619 4282794052
0.23002054 -0.089377634 0.16254184 4282597949
0.23090602 -0.090656199 0.16450499 4282269759
0.23193602 -0.091678098 0.16442086 4280756797
0.23311871 -0.092451453 0.16228876 4279638841
0.23415145 -0.093476057 0.1622044 4284311175
0.23502602 -0.094743788 0.16416845 4289704140
0.23605601 -0.095765688 0.16408432 4292463578
0.23708601 -0.096787579 0.16400018 4289698978
0.23811601 -0.097809479 0.16391605 4284240215
0.23914601 -0.098831378 0.1638319 4286018934
0.24213305 -0.097238258 0.14040343 4292336602
0.24319415 -0.09829101 0.14031675 4294639614
0.24425524 -0.099343769 0.14023007 4294507771
0.24531636 -0.10039652 0.14014341 4294769657
0.24637745 -0.10144927 0.14005673 4291148732
0.24743856 -0.10250203 0.13997005 4287857542
0.24849966 -0.10355479 0.13988337 4286606446
0.24956076 -0.10460754 0.1397967 4286014309
0.25109929 -0.10514775 0.1346532 4287068023
0.25236008 -0.10600557 0.13255028 4286411633
0.25382486 -0.10666674 0.12840043 4285821292
0.25500134 -0.10763467 0.12729044 4285888113
0.25627679 -0.10851258 0.12521446 4285888374
0.2573567 -0.10958401 0.12512624 4285756024
0.25864774 -0.11046283 0.12297522 4286281606
0.25973043 -0.11153699 0.12288678 4287465112
0.26081309 -0.11261114 0.12279834 4288385182
0.20954521 -0.070414446 0.1606515 4292651966
0.21058194 -0.071443029 0.16056682 4294959841
0.21157187 -0.07261876 0.16148442 4291606955
0.21251136 -0.073936515 0.16339679 4283451703
0.21344315 -0.07525593 0.16535768 4279834378
0.21437001 -0.076568365 0.16730824 4280953384
0.21534608 -0.077726834 0.16820878 4281413688
0.21637204 -0.078744732 0.16812497 4281741637
0.21739802 -0.07976263 0.16804117 4282201925
0.21842399 -0.080780528 0.16795735 4283255361
0.21962313 -0.081387311 0.16485287 4283321657
0.22077319 -0.082133368 0.16272192 4282794804
0.22211042 -0.082480691 0.15756139 4283780676
0.22314991 -0.083512016 0.15747648 4285490531
0.22418942 -0.08454334 0.15739156 4285029723
0.22522892 -0.085574664 0.15730666 4284569422
0.22640072 -0.086346492 0.15519559 4286148454
0.2271028 -0.088027529 0.16021577 4286148200
0.22800229 -0.089305609 0.16213141 4282727479
0.22889312 -0.090584382 0.16409564 4282991678
0.22977924 -0.091856398 0.16604954 4282795077
0.23095311 -0.092628174 0.16392738 4281479487
0.23198311 -0.093650073 0.16384324 4280492861
0.23316595 -0.094428636 0.16170962 4284374656
0.23419867 -0.095453247 0.16162525 4289571527
0.2352314 -0.096477851 0.1615409 4293450986
0.23650029 -0.097157516 0.15844968 4289568417
0.23753703 -0.098186091 0.15836498 4281542443
0.23874243 -0.09898188 0.15620281 4286543479
0.23994935 -0.099788554 0.15408887 4293320928
0.24099155 -0.10082255 0.15400374 4294965753
0.24306878 -0.10054316 0.14176367 4294966781
0.24412718 -0.10159322 0.14167722 4293583584
0.24536487 -0.10242803 0.13954835 4291345596
0.24642597 -0.10348079 0.13946168 4287397502
0.24748708 -0.10453354 0.139375 4286279021
0.24882258 -0.10528307 0.13629784 4286542193
0.25008029 -0.10613272 0.13414159 4286410606
0.25133851 -0.106993 0.1320374 4286806134
0.25279814 -0.10765915 0.12788495 4286609012
0.25397331 -0.10862835 0.12677431 4285820780
0.25524625 -0.1095087 0.12469705 4285953141
0.25653189 -0.11038733 0.12254494 4285821816
0.25781754 -0.11127643 0.12044685 4286808203
0.25890288 -0.11235324 0.12035819 4287991709
0.25998822 -0.11343005 0.12026954 4288319906
0.20851304 -0.0715193 0.1611575 4292257723
0.20954843 -0.072546549 0.16107292 4294366935
0.21049312 -0.073864497 0.16298635 4292067765
0.21143024 -0.075184099 0.16494834 4284109633
0.21246023 -0.076205991 0.1648642 4279111424
0.21334106 -0.077655286 0.16780104 4280493086
0.21436703 -0.078673176 0.16771723 4281808443
0.21539299 -0.079691075 0.16763343 4282070856
0.21641897 -0.080708973 0.16754963 4281938753
0.21744493 -0.081726871 0.16746582 4283452481
0.21864022 -0.082337372 0.16435939 4283452985
0.21967022 -0.083359271 0.16427526 4282991413
0.22111845 -0.083439529 0.15706336 4283780676
0.22227955 -0.084205806 0.15495168 4285556065
0.22332175 -0.085239805 0.15486653 4285095514
0.22436395 -0.086273812 0.1547814 4284831572
0.22540615 -0.087307818 0.15469627 4286410856
0.22611475 -0.088982575 0.15971971 4285622110
0.22701679 -0.090258196 0.16163662 4281872166
0.22791021 -0.091534443 0.16360217 4282070062
0.22879893 -0.092803955 0.16555735 4282070840
0.22997022 -0.093578242 0.16343389 4281083958
0.23136403 -0.093999475 0.15829171 4280294964
0.23218043 -0.09538123 0.16121483 4284373629
0.23321316 -0.096405834 0.16113047 4289505223
0.2342459 -0.097430438 0.16104612 4291477453
0.23567145 -0.097878069 0.1558746 4289240224
0.23687038 -0.098681867 0.15375982 4284832093
0.23791258 -0.099715874 0.15367468 4288911259
0.23895478 -0.10074988 0.15358955 4293319390
0.24083272 -0.10068905 0.14337565 4294569457
0.24188839 -0.10173643 0.14328942 4294966271
0.24311718 -0.10256947 0.14117014 4294966269
0.24417557 -0.10361952 0.14108369 4292200907
0.24541339 -0.10445955 0.1389533 4287463811
0.24665202 -0.10531022 0.13687444 4285753193
0.24799342 -0.10605825 0.13371721 4286213744
0.24906126 -0.10711768 0.13362999 4286411121
0.25031695 -0.10798045 0.1315245 4286805879
0.25157893 -0.10884757 0.12940842 4286542707
0.25294527 -0.10962204 0.12625816 4286214514
0.25421569 -0.11050482 0.12417965 4285163625
0.25549874 -0.11138598 0.12202623 4285032554
0.25678182 -0.11227755 0.11992685 4286281857
0.25786716 -0.11335436 0.1198382 4287794844
0.2589525 -0.11443117 0.11974954 4288386212
0.20756654 -0.07232701 0.15965809 4290284707
0.20856036 -0.073501602 0.16057687 4294960361
0.20950761 -0.074817091 0.16249157 4291936441
0.21044734 -0.07613416 0.16445486 4283912515
0.21138209 -0.0774443 0.16640779 4279900171
0.21236201 -0.078601629 0.16730949 4281216297
0.21338798 -0.079619527 0.16722569 4281281842
0.21441394 -0.080637425 0.16714188 4281280057
0.21543992 -0.081655324 0.16705808 4282858570
0.21646588 -0.082673222 0.16697428 4283452483
0.21754579 -0.083559513 0.16590431 4283386937
0.21868733 -0.08430934 0.16378178 4282662450
0.22000735 -0.084669963 0.15864186 4283254334
0.22116597 -0.085429683 0.15648042 4285161307
0.22220547 -0.086461008 0.15639551 4285029721
0.22324497 -0.087492332 0.1563106 4284963158
0.22428447 -0.088523656 0.15622568 4286608235
0.2251267 -0.089937627 0.15922365 4285885282
0.22589731 -0.091462612 0.16319282 4281937959
0.22679132 -0.092732325 0.16514909 4282070062
0.22775152 -0.093870096 0.1660524 4282268219
0.22884589 -0.09477073 0.16498126 4281413177
0.23037469 -0.094955757 0.15779501 4280492343
0.23119491 -0.096333817 0.16072004 4284373882
0.23222765 -0.09735842 0.16063568 4289373635
0.23326038 -0.098383024 0.16055132 4293780725
0.23467948 -0.098836899 0.15537657 4289306023
0.23571898 -0.099868223 0.15529166 4284634720
0.23691803 -0.1006772 0.15317535 4288121749
0.23796023 -0.10171121 0.15309022 4293582568
0.23999041 -0.10144561 0.14083597 4294966271
0.2410488 -0.10249567 0.14074951 4294964476
0.24227861 -0.10333278 0.13861828 4294503925
0.24333972 -0.10438553 0.1385316 4291609031
0.24440081 -0.10543829 0.13844492 4286937728
0.24563691 -0.10629142 0.13636479 4285292903
0.24678983 -0.10724793 0.13527727 4286148212
0.24804226 -0.10810265 0.13311839 4286674554
0.24929537 -0.10896789 0.13101162 4286740347
0.2505548 -0.10983749 0.12889424 4286148210
0.25191724 -0.11061572 0.12574203 4286017137
0.25299454 -0.11168454 0.12565404 4284571490
0.25446555 -0.11238463 0.12150752 4284440163
0.2557461 -0.11327866 0.11940686 4285952892
0.25683144 -0.11435547 0.1193182 4287926430
0.25812101 -0.11525659 0.11720696 4288583591
0.25920904 -0.11633606 0.11711808 4288714664
0.20757231 -0.074456647 0.16008081 4294105315
0.2085221 -0.075769678 0.16199678 4292989647
0.20946443 -0.077084228 0.16396138 4285293915
0.21040179 -0.078391865 0.16591562 4278978816
0.21138294 -0.079547994 0.16681795 4280557597
0.2124089 -0.080565892 0.16673413 4282991177
0.21343488 -0.08158379 0.16665033 4282594888
0.21446083 -0.082601681 0.16656652 4282266176
0.21548681 -0.08361958 0.16648272 4284043852
0.21667442 -0.084237508 0.16337244 4283650113
0.21781667 -0.084991135 0.16123755 4282530609
0.21896166 -0.085756414 0.15915047 4282859576
0.220174 -0.086388513 0.15598239 4284832342
0.22109148 -0.087683402 0.15797579 4285029721
0.22225299 -0.088451162 0.15581256 4285357916
0.22341707 -0.089230463 0.15369762 4287068788
0.22413863 -0.090892673 0.15872757 4285227352
0.22491442 -0.09241268 0.16269936 4281477408
0.22581102 -0.09367989 0.16465692 4281806890
0.22677246 -0.094816461 0.16556084 4282070840
0.22779842 -0.09583436 0.16547704 4281215798
0.2295295 -0.095670432 0.15521818 4280163377
0.23035102 -0.09705618 0.15822013 4283913329
0.23124214 -0.098311007 0.1601409 4288781498
0.23249556 -0.098997779 0.15704425 4291412181
0.23368751 -0.099795729 0.15487854 4289897910
0.23472701 -0.10082705 0.15479362 4287331983
0.23898043 -0.10242185 0.1403289 4294898431
0.24020492 -0.10325879 0.13819657 4294437879
0.24126601 -0.10431154 0.13810989 4294108914
0.24249429 -0.10516186 0.13602892 4289108644
0.24364328 -0.10611695 0.134941 4286213752
0.24470836 -0.10717365 0.13485399 4285753201
0.24595541 -0.10802819 0.13269401 4286477179
0.24720328 -0.10889325 0.13058618 4286937730
0.24845745 -0.10976265 0.12846772 4286806144
0.24981193 -0.1105406 0.12531391 4285819249
0.25088921 -0.11160941 0.1252259 4285556588
0.25215459 -0.11249706 0.12314486 4284703076
0.25343239 -0.11338329 0.1209888 4284505956
0.25471038 -0.11427978 0.11888687 4286084478
0.25599468 -0.11518072 0.11677455 4288189602
0.2570827 -0.11626019 0.11668567 4288846763
0.25817075 -0.11733966 0.1165968 4288583846
0.20658426 -0.075411685 0.15958475 4294698482
0.20753659 -0.076722257 0.161502 4291214012
0.20848154 -0.078034297 0.16346791 4284306770
0.20942147 -0.079339422 0.16542344 4280097301
0.21040389 -0.080494337 0.1663264 4281741360
0.21142985 -0.081512235 0.1662426 4282463806
0.21245582 -0.082530133 0.16615878 4281870135
0.21348178 -0.083548032 0.16607498 4283449421
0.21455789 -0.084435433 0.16500388 4284767321
0.21569152 -0.085187569 0.16287896 4284241997
0.21683116 -0.085943714 0.16074277 4282925371
0.2179736 -0.086711451 0.15865439 4282991164
0.21906543 -0.087611094 0.15756378 4284898137
0.22010216 -0.088639669 0.15747909 4285227100
0.22113889 -0.089668252 0.15739441 4285489502
0.22242251 -0.090191796 0.1531983 4287068788
0.22321236 -0.091725409 0.15722503 4285095766
0.22393151 -0.093362749 0.16220587 4281608996
0.22476743 -0.094744906 0.16515312 4282004269
0.22566094 -0.096001036 0.16709661 4281939252
0.22668421 -0.09701626 0.16701302 4281084210
0.22832756 -0.096983969 0.15780863 4280361008
0.22936296 -0.098011218 0.15772405 4284308339
0.23039836 -0.099038474 0.15763949 4289044924
0.23150623 -0.099954046 0.15654755 4293517303
0.23269553 -0.10075455 0.15438052 4290819015
0.23373504 -0.10178588 0.15429561 4284831852
0.23797044 -0.1033981 0.13982183 4291411150
0.23919232 -0.10423755 0.13768819 4291805907
0.24025343 -0.10529031 0.13760151 4289371566
0.24147917 -0.10614306 0.13551928 4286411135
0.24262689 -0.10709938 0.13443071 4285753205
0.24369197 -0.10815609 0.1343437 4286345340
0.2451112 -0.10881858 0.13016073 4286476926
0.24618171 -0.10988068 0.13007328 4286411133
0.24770662 -0.11046547 0.12488578 4286476924
0.24896418 -0.11135033 0.12280388 4285687408
0.25023389 -0.11223363 0.12064697 4285358955
0.25150397 -0.11312729 0.11854418 4285162859
0.25258932 -0.11420409 0.11845553 4284965995
0.25386837 -0.11510484 0.11634215 4286413443
0.25495642 -0.11618431 0.11625327 4288321442
0.25604445 -0.11726378 0.11616439 4288847018
0.25713247 -0.11834325 0.11607552 4288649639
0.20758381 -0.078699447 0.16092286 4284965471
0.20839886 -0.080422781 0.16591866 4279438858
0.20942482 -0.08144068 0.16583486 4280293144
0.2104508 -0.082458578 0.16575105 4282660924
0.21147676 -0.083476476 0.16566724 4282000946
0.21250273 -0.084494375 0.16558343 4281343015
0.21357758 -0.085382983 0.16451171 4284635223
0.21470861 -0.086137645 0.16238548 4284307540
0.21584564 -0.0868963 0.160248 4283254082
0.21698555 -0.087666512 0.15815833 4283451461
0.21802095 -0.08869376 0.15807375 4285227102
0.21905634 -0.089721009 0.15798917 4285227100
0.22014955 -0.090624541 0.15689769 4284963158
0.22130856 -0.091400154 0.1547316 4286081893
0.22216253 -0.092802763 0.15773545 4285753696
0.2229486 -0.094312824 0.16171239 4282464305
0.22378838 -0.095691256 0.16466157 4282530359
0.22468445 -0.096944906 0.16660635 4281807666
0.22570772 -0.097960129 0.16652277 4280821036
0.22733951 -0.097939022 0.15731257 4280426799
0.2283749 -0.098966271 0.15722799 4284110957
0.22941029 -0.099993527 0.15714341 4288123818
0.23817974 -0.1052163 0.13717981 4285292401
0.23940033 -0.10606886 0.13509652 4282331716
0.24046408 -0.10712425 0.13500963 4284831849
0.24161051 -0.10808181 0.13392042 4285358447
0.24267559 -0.10913851 0.13383342 4286147963
0.24408963 -0.10980602 0.12964784 4285555824
0.24516015 -0.11086812 0.1295604 4285358445
0.24667861 -0.11145914 0.12436964 4285818994
0.24793364 -0.11234643 0.12228649 4285424236
0.24920072 -0.11323228 0.12012825 4285556335
0.25065404 -0.11394949 0.11599862 4285820790
0.25174206 -0.11502896 0.11590975 4285689718
0.25283009 -0.11610843 0.11582087 4286873994
0.25391814 -0.1171879 0.11573199 4288189856
0.25500616 -0.11826737 0.11564312 4288649639
0.2065983 -0.079652041 0.16042808 4283320392
0.20741981 -0.081369124 0.16542712 4280096788
0.20844577 -0.082387023 0.16534331 4280227091
0.20951542 -0.083272941 0.16427127 4281015068
0.21054271 -0.084292144 0.16418736 4280355857
0.21152368 -0.085440718 0.16509189 4281014302
0.21259727 -0.086330548 0.16401953 4283516744
0.2138274 -0.086824283 0.15983756 4283780943
0.21486013 -0.087848887 0.1597532 4283582794
0.2159975 -0.088621542 0.15766227 4284306771
0.21703289 -0.089648791 0.15757769 4286213997
0.2180683 -0.090676047 0.15749313 4285753444
0.21910369 -0.091703296 0.15740855 4284699986
0.22019696 -0.092609398 0.15631631 4285160791
0.22105651 -0.093996525 0.15924706 4284371789
0.22208923 -0.095021129 0.1591627 4281477410
0.2226847 -0.096873529 0.1661997 4281609257
0.22370797 -0.09788876 0.1661161 4280754978
0.22473125 -0.098903984 0.16603252 4280031520
0.23716715 -0.10619506 0.13667142 4284305506
0.2383852 -0.10705008 0.13458687 4283581783
0.23952904 -0.10800753 0.13349713 4284766056
0.24076273 -0.10886421 0.13133365 4285095275
0.24183056 -0.10992365 0.13124642 4285687412
0.24306805 -0.11079346 0.12913495 4285226859
0.24431181 -0.11166766 0.12701285 4285490031
0.24565057 -0.11245283 0.12385351 4286082166
0.24690308 -0.11334257 0.12176909 4285950580
0.24834719 -0.11405272 0.11759286 4286609023
0.24961576 -0.11495308 0.11547735 4286938758
0.25089064 -0.11585791 0.11335131 4287004810
0.25198135 -0.11694006 0.11326221 4287728535
0.25307208 -0.1180222 0.11317311 4288320672
0.25396788 -0.11927097 0.11512184 4288386465
0.20644073 -0.08231549 0.16493556 4279438856
0.20746671 -0.083333388 0.16485175 4279371523
0.2085351 -0.084220506 0.16377909 4281015319
0.20956239 -0.085239708 0.16369519 4280947988
0.2105446 -0.086387083 0.16460034 4280948247
0.21161695 -0.087278113 0.16352735 4282661181
0.21284188 -0.08777687 0.15934278 4283517775
0.2150607 -0.089451358 0.15615834 4285359205
0.21609743 -0.090479933 0.15607366 4287464064
0.21713416 -0.091508515 0.15598898 4286740339
0.2181709 -0.09253709 0.15590429 4285094998
0.21920763 -0.093565673 0.15581961 4285160791
0.21995279 -0.095191054 0.16080958 4282529585
0.22086249 -0.096450925 0.16277213 4280227345
0.22183025 -0.097583964 0.16367847 4280951328
0.22273149 -0.09883263 0.16562586 4280623394
0.22375475 -0.099847853 0.16554226 4280492071
0.23867588 -0.10878974 0.13090928 4285424240
0.23974371 -0.10984918 0.13082205 4285292652
0.24081154 -0.11090861 0.13073482 4285687410
0.24204651 -0.1117809 0.12862207 4285884787
0.24328765 -0.11265759 0.12649865 4286740096
0.24462254 -0.11344651 0.12333738 4287266695
0.24587254 -0.11433868 0.12125169 4287003523
0.24731147 -0.11505383 0.11707287 4287924882
0.24875906 -0.11578184 0.11291783 4288056985
0.24984978 -0.11686398 0.11282874 4288057498
0.2509405 -0.11794613 0.11273964 4288452258
0.25203124 -0.11902829 0.11265054 4288518051
0.20546168 -0.083261833 0.16444403 4280885788
0.20648766 -0.084279731 0.16436021 4280819221
0.2075548 -0.085168064 0.16328692 4281936674
0.20858207 -0.086187266 0.163203 4283514423
0.20956555 -0.087333426 0.1641088 4284501578
0.21063665 -0.08822567 0.16303518 4284437592
0.2118564 -0.088729449 0.15884799 4283122763
0.21614483 -0.092464805 0.15549228 4287924613
0.21729314 -0.09324532 0.15332243 4286016100
0.2182183 -0.094521962 0.15532289 4284239689
0.21925503 -0.095550545 0.15523821 4280029451
0.21988218 -0.09739849 0.16227996 4280819228
0.2208512 -0.098530307 0.16318692 4282069555
0.22187717 -0.099548206 0.16310312 4282267965
0.22290313 -0.1005661 0.16301931 4281610552
0.23765686 -0.10977472 0.13039766 4286280058
0.23872471 -0.11083415 0.13031045 4286674815
0.2399544 -0.11170625 0.12819661 4287201159
0.24102493 -0.11276834 0.12810917 4287793550
0.24209544 -0.11383044 0.12802173 4288254101
0.24359453 -0.11444019 0.12282125 4288451478
0.24484198 -0.11533481 0.1207343 4288517271
0.21526168 -0.093172826 0.15290931 4288253576
0.21630117 -0.09420415 0.1528244 4286805614
0.21722896 -0.095478237 0.15482619 4285292375
0.2182657 -0.096506812 0.15474151 4282200622
0.22089812 -0.10049455 0.16261157 4282991690
0.22192408 -0.10151245 0.16252777 4283847516
0.23770569 -0.11181912 0.12979883 4287530378
0.23893283 -0.11269369 0.12768373 4287859343
0.2142697 -0.094131671 0.15241127 4288451209
0.215413 -0.094925731 0.15028749 4287463544
0.21634869 -0.096194319 0.15224145 4286345063
0.2173882 -0.097225644 0.15215653 4282924345
0.21327773 -0.095090494 0.15191324 4288911759
0.21441846 -0.095887057 0.14978817 4287989887
0.21535674 -0.097153142 0.15174343 4287002993
0.21639623 -0.098184466 0.15165851 4283648070
0.21342391 -0.096848384 0.14928885 4288582024
0.21446611 -0.097882383 0.1492037 4287397753
0.21550831 -0.098916389 0.14911857 4285950570
0.21242936 -0.09780971 0.14878951 4288647817
0.21347155 -0.098843709 0.14870438 4287331960
0.21451375 -0.099877715 0.14861925 4287069051
0.21247701 -0.099805027 0.14820506 4287200372
0.21351922 -0.10083903 0.14811993 4287134846
0.21148247 -0.10076635 0.14770573 4287529339
0.21252467 -0.10180036 0.1476206 4287990155
0.21048792 -0.10172767 0.14720643 4287200892
0.21153012 -0.10276168 0.14712128 4287792776
0.20949335 -0.10268901 0.14670709 4287200637
0.21053556 -0.10372301 0.14662196 4287069053
0.21157776 -0.10475702 0.14653683 4287529863
0.20849881 -0.10365032 0.14620776 4287266430
0.20954101 -0.10468433 0.14612263 4286871674
0.21058321 -0.10571833 0.1460375 4287858828
0.20646206 -0.10357764 0.14579357 4288450706
0.20750426 -0.10461165 0.14570844 4287266430
0.20854646 -0.10564566 0.14562331 4287463811
0.20958866 -0.10667966 0.14553818 4287661703
0.20442532 -0.10350496 0.14537939 4290622647
0.20546752 -0.10453896 0.14529426 4288582292
0.20650972 -0.10557297 0.14520912 4287332225
0.20755193 -0.10660697 0.14512399 4287792774
0.20859413 -0.10764097 0.14503886 4287332738
0.20238855 -0.10343229 0.14496519 4291148739
0.20343076 -0.10446629 0.14488006 4290754235
0.20447296 -0.1055003 0.14479493 4288582551
0.20551516 -0.1065343 0.1447098 4287398018
0.20655736 -0.10756831 0.14462467 4287463809
0.20759957 -0.10860231 0.14453954 4287069564
0.20142788 -0.10428683 0.14343488 4291214533
0.20247144 -0.10532218 0.14334965 4290820028
0.2034784 -0.10646162 0.1442956 4288714137
0.2045206 -0.10749563 0.14421047 4287398531
0.2055628 -0.10852963 0.14412534 4287201150
0.206605 -0.10956363 0.14404021 4286937978
0.19938847 -0.10421406 0.14302015 4290557632
0.20043203 -0.10524941 0.1429349 4291149510
0.20147559 -0.10628476 0.14284967 4290885821
0.20248386 -0.10742294 0.14379628 4288714139
0.20352606 -0.10845695 0.14371115 4287398277
0.20456827 -0.10949095 0.14362602 4287332738
0.19635853 -0.10289488 0.14067972 4288386981
0.19740473 -0.10393285 0.14059426 4289702325
0.19839263 -0.10517664 0.14252017 4290491839
0.19943619 -0.10621198 0.14243494 4290820545
0.20047975 -0.10724734 0.14234969 4290425270
0.20148931 -0.10838427 0.14329696 4288845725
0.20253152 -0.10941827 0.14321183 4287266691
0.20357372 -0.11045227 0.1431267 4286872187
0.19331458 -0.10156248 0.13826601 4287399309
0.19431396 -0.10282193 0.14026393 4287596949
0.19536015 -0.1038599 0.14017847 4288518821
0.19640636 -0.10489787 0.14009301 4289833909
0.19739679 -0.10613921 0.14202021 4290623679
0.19844034 -0.10717456 0.14193496 4291017923
0.1994839 -0.10820991 0.14184973 4290426040
0.20049477 -0.10934559 0.14279763 4288977824
0.20153697 -0.11037958 0.1427125 4287398277
0.20257917 -0.11141359 0.14262737 4287003773
0.19231361 -0.10253002 0.13776346 4287267723
0.1933156 -0.10378694 0.1397627 4287465361
0.19431382 -0.10503108 0.14169072 4288583842
0.19535738 -0.10606643 0.14160548 4289833909
0.19640094 -0.10710178 0.14152023 4290689472
0.1974158 -0.10823891 0.14246857 4291083716
0.198458 -0.10927291 0.14238344 4290557626
0.1995002 -0.11030692 0.14229831 4289043617
0.20054241 -0.11134093 0.14221318 4287398790
0.19231723 -0.10475194 0.13926145 4287399309
0.19331798 -0.10599367 0.14119074 4288452510
0.19436154 -0.10702901 0.1411055 4289768370
0.19537905 -0.10816623 0.14205438 4290623678
0.19642125 -0.10920022 0.14196925 4291083716
0.19746345 -0.11023423 0.14188412 4290491833
0.19850565 -0.11126824 0.14179899 4288977824
0.19954786 -0.11230224 0.14171386 4287332997
0.1923001 -0.10705954 0.14172533 4288518302
0.1933423 -0.10809354 0.14164019 4289768369
0.1943845 -0.10912755 0.14155506 4290623676
0.1954267 -0.11016155 0.14146993 4291083970
0.1964689 -0.11119556 0.1413848 4290557626
0.19751111 -0.11222956 0.14129966 4289043617
0.19855331 -0.11326356 0.14121453 4287398790
0.19130556 -0.10802086 0.14122601 4288781472
0.19234776 -0.10905486 0.14114088 4289899953
0.19338997 -0.11008886 0.14105573 4290689469
0.19443217 -0.11112287 0.1409706 4291149763
0.19547437 -0.11215688 0.14088547 4290623419
0.19651657 -0.11319088 0.14080034 4289175203
0.19755878 -0.11422488 0.14071521 4287596171
0.190311 -0.10898219 0.14072667 4288847519
0.1913532 -0.1100162 0.14064154 4289966000
0.1923954 -0.1110502 0.14055641 4290689723
0.19343761 -0.1120842 0.14047128 4291083968
0.19447981 -0.11311821 0.14038615 4290557624
0.19552201 -0.11415222 0.14030102 4289044385
0.19656421 -0.11518622 0.14021587 4287661962
0.19035864 -0.11097752 0.14014222 4289834414
0.19140084 -0.11201153 0.14005709 4290492344
0.19244304 -0.11304553 0.13997196 4290886589
0.19348525 -0.11407954 0.13988683 4290426038
0.19452745 -0.11511354 0.13980168 4288978592
0.19556965 -0.11614755 0.13971655 4287465351
0.19661185 -0.11718155 0.13963142 4287267204
0.18936411 -0.11193884 0.13964289 4290163379
0.19040631 -0.11297284 0.13955776 4290492344
0.19144851 -0.11400685 0.13947263 4290886587
0.19249071 -0.11504085 0.1393875 4290755001
0.19353291 -0.11607486 0.13930237 4289241762
0.19457512 -0.11710886 0.13921724 4287334019
0.19561732 -0.11814287 0.1391321 4287332995
0.18732734 -0.11186616 0.1392287 4289176230
0.18836954 -0.11290017 0.13914357 4290229172
0.18941174 -0.11393417 0.13905844 4290558137
0.19045395 -0.11496817 0.13897331 4290952380
0.19149615 -0.11600218 0.13888818 4290755001
0.19253835 -0.11703619 0.13880305 4289242016
0.19358055 -0.11807019 0.1387179 4287334019
0.18529059 -0.11179348 0.13881451 4287926165
0.18634707 -0.11273169 0.13769093 4289176230
0.18737499 -0.11386149 0.13864425 4290294711
0.1884172 -0.11489549 0.13855912 4290689723
0.1894594 -0.1159295 0.13847399 4291018173
0.1905016 -0.11696351 0.13838886 4290755001
0.1915438 -0.11799751 0.13830371 4289176223
0.19254138 -0.11920628 0.14028874 4287268226
0.19358088 -0.1202376 0.14020383 4287201663
0.18429604 -0.11275481 0.13831519 4288057751
0.18535122 -0.11369426 0.13719095 4289242023
0.18638045 -0.11482282 0.13814493 4290360504
0.18742265 -0.11585682 0.13805979 4290821055
0.18846485 -0.11689083 0.13797466 4291149761
0.1894704 -0.11810247 0.13996054 4290755001
0.1905099 -0.11913379 0.13987562 4289175969
0.19154939 -0.12016512 0.13979071 4287334019
0.1925889 -0.12119644 0.13970581 4287333249
0.18331182 -0.11362149 0.13677622 4288189337
0.18435538 -0.11465684 0.13669097 4289307818
0.1853859 -0.11578413 0.1376456 4290360504
0.1864281 -0.11681814 0.13756047 4290952641
0.1874703 -0.11785214 0.13747534 4291215554
0.18847843 -0.11906131 0.1394625 4290820794
0.18951792 -0.12009263 0.13937759 4289175969
0.19055742 -0.12112395 0.13929269 4287465351
0.19159693 -0.12215528 0.13920777 4287398788
0.18231598 -0.11458407 0.13627625 4288386716
0.18335953 -0.11561941 0.13619101 4289307818
0.18440309 -0.11665476 0.13610576 4290360504
0.18544665 -0.11769012 0.13602053 4290952641
0.18647575 -0.11881347 0.13697602 4291281347
0.18748645 -0.12002013 0.13896447 4290820796
0.18852596 -0.12105145 0.13887957 4289307555
0.18956546 -0.12208278 0.13879466 4287728523
0.19060495 -0.1231141 0.13870974 4287398788
0.18133521 -0.11536708 0.13374782 4288452509
0.18238141 -0.11640505 0.13366236 4289307818
0.18340725 -0.11761734 0.1356058 4290294711
0.18445081 -0.11865269 0.13552055 4290886848
0.18548121 -0.11977479 0.1364767 4291281347
0.18649448 -0.12097896 0.13846645 4290820796
0.18753399 -0.12201028 0.13838154 4289373348
0.18857349 -0.12304161 0.13829663 4287925902
0.18032429 -0.11650921 0.1352763 4288518302
0.18136784 -0.11754456 0.13519107 4289307818
0.1824114 -0.11857991 0.13510582 4290228920
0.18344446 -0.11970212 0.1360625 4290886848
0.18448666 -0.12073612 0.13597736 4291215554
0.1855025 -0.1219378 0.13796842 4290820796
0.186542 -0.12296913 0.1378835 4289439141
0.18758151 -0.12400045 0.13779859 4288123281
0.17829227 -0.11625914 0.1328308 4288123032
0.17932844 -0.11747179 0.13477632 4288649889
0.180372 -0.11850714 0.13469109 4289242025
0.18141556 -0.11954249 0.13460584 4290623678
0.18244989 -0.12066344 0.13556316 4290821055
0.18349209 -0.12169745 0.13547803 4291083968
0.18451054 -0.12289663 0.13747039 4291018175
0.18555005 -0.12392795 0.13738549 4289241762
0.18658954 -0.12495928 0.13730057 4288189074
0.17729391 -0.11722415 0.13232957 4288319641
0.1783326 -0.11843436 0.13427636 4288715169
0.17937616 -0.11946972 0.13419111 4289242026
0.18041971 -0.12050506 0.13410586 4290623678
0.18145536 -0.12162476 0.13506386 4290821057
0.18249756 -0.12265877 0.13497871 4291083970
0.18353976 -0.12369277 0.13489358 4290952382
0.18458197 -0.12472677 0.13480845 4289241764
0.18562417 -0.12576078 0.13472332 4288189074
0.17629553 -0.11818916 0.13182832 4288385434
0.17734174 -0.11922713 0.13174286 4288715169
0.17838031 -0.12043229 0.13369113 4289242026
0.17942387 -0.12146764 0.1336059 4290557885
0.1804608 -0.12258609 0.13456452 4290821057
0.181503 -0.12362009 0.13447939 4291083970
0.1825452 -0.12465409 0.13439426 4290952382
0.1835874 -0.12568811 0.13430913 4289241764
0.1846296 -0.1267221 0.134224 4288189076
0.18567181 -0.1277561 0.13413887 4288385685
0.17529735 -0.11932416 0.13336165 4288517020
0.17634091 -0.12035951 0.1332764 4288715169
0.17738447 -0.12139487 0.13319117 4289242026
0.17842802 -0.12243021 0.13310592 4290557886
0.17947158 -0.12346556 0.13302068 4290755264
0.18050845 -0.12458142 0.13398007 4291018177
0.18155065 -0.12561542 0.13389494 4290952384
0.18259285 -0.12664942 0.1338098 4289241764
0.18364581 -0.12760696 0.1326797 4288189076
0.18468937 -0.12864231 0.13259447 4288583064
0.17430289 -0.12037272 0.13390641 4288582813
0.17534506 -0.12132209 0.13277644 4288714915
0.17638862 -0.12235744 0.13269119 4289242026
0.17743218 -0.12339278 0.13260596 4290492093
0.1784717 -0.12450874 0.13356587 4290689471
0.1795139 -0.12554274 0.13348074 4290952384
0.1805561 -0.12657675 0.13339561 4290886591
0.18159831 -0.12761076 0.13331048 4289175971
0.18264997 -0.12856953 0.13217974 4288189076
0.18369353 -0.12960489 0.13209449 4288780443
0.17330834 -0.12133404 0.13340709 4288714399
0.17434922 -0.12228467 0.13227646 4288780708
0.17539278 -0.12332002 0.13219121 4289175979
0.17643633 -0.12435537 0.13210598 4290492093
0.17747715 -0.12547006 0.13306655 4290623678
0.17851935 -0.12650406 0.13298142 4290886337
0.17956156 -0.12753807 0.13289629 4290820798
0.18060376 -0.12857206 0.13281116 4289175971
0.18165413 -0.12953211 0.13167976 4288189076
0.18269768 -0.13056746 0.13159451 4288912029
0.18374124 -0.13160282 0.13150927 4288977822
0.17230982 -0.12221189 0.13186173 4288845472
0.17335337 -0.12324724 0.13177648 4288780708
0.17439693 -0.12428259 0.13169125 4289175979
0.17544049 -0.12531795 0.131606 4290426300
0.1764826 -0.12643138 0.13256723 4290557885
0.17752481 -0.12746538 0.1324821 4290820544
0.17856701 -0.12849939 0.13239697 4290820798
0.17960921 -0.1295334 0.13231184 4289175971
0.18065141 -0.1305674 0.13222671 4288254869
0.18169361 -0.13160141 0.13214158 4288912029
0.18273582 -0.13263541 0.13205643 4289109408
0.17131925 -0.12325669 0.13240844 4288911267
0.17235754 -0.12420981 0.13127652 4288780708
0.1734011 -0.12524515 0.13119127 4289176233
0.17444466 -0.1262805 0.13110603 4290426300
0.17548805 -0.12739271 0.1320679 4290557886
0.17653026 -0.12842672 0.13198277 4290820544
0.17757246 -0.12946072 0.13189764 4290820544
0.17861466 -0.13049471 0.13181251 4289175973
0.17965686 -0.13152872 0.13172738 4288385687
0.18069907 -0.13256273 0.13164224 4288977824
0.18174127 -0.13359673 0.13155711 4289175203
0.17032468 -0.12421802 0.13190912 4289173928
0.1713617 -0.12517238 0.13077654 4288517790
0.17240526 -0.12620772 0.1306913 4289176233
0.17344882 -0.12724307 0.13060606 4290491580
0.17449349 -0.12835403 0.13156858 4290820545
0.17553569 -0.12938803 0.13148345 4291280326
0.1765779 -0.13042204 0.13139832 4290688189
0.1776201 -0.13145605 0.13131319 4288977571
0.1786623 -0.13249005 0.13122804 4288845472
0.1797045 -0.13352406 0.13114291 4289108644
0.1807467 -0.13455807 0.13105778 4289503402
0.17037234 -0.12621334 0.13132465 4288649376
0.1714094 -0.12717031 0.13019133 4289307818
0.17245674 -0.12828135 0.13115439 4290557373
0.17349894 -0.12931536 0.13106926 4290754752
0.17454115 -0.13034937 0.13098413 4291148742
0.17558335 -0.13138337 0.130899 4290556605
0.17662555 -0.13241737 0.13081387 4288779681
0.17766775 -0.13345137 0.13072872 4288582302
0.17870995 -0.13448538 0.13064359 4289371818
0.16937001 -0.12709753 0.1297766 4288846754
0.17041357 -0.12813288 0.12969135 4289373609
0.17145713 -0.12916823 0.12960611 4290491579
0.17250441 -0.13027668 0.13056993 4290688959
0.17354661 -0.13131069 0.1304848 4291082949
0.17458881 -0.13234468 0.13039967 4290359226
0.17563102 -0.13337868 0.13031454 4288582302
0.17667322 -0.13441269 0.13022941 4288319130
0.17771542 -0.1354467 0.13014427 4289503404
0.16837417 -0.1280601 0.12927662 4288978340
0.16941772 -0.12909545 0.12919138 4289439402
0.17046128 -0.13013081 0.12910613 4290491579
0.17150484 -0.13116616 0.1290209 4290688958
0.17255205 -0.13227201 0.12998548 4291017154
0.17359425 -0.13330601 0.12990035 4290359226
0.17463645 -0.13434002 0.12981522 4288582302
0.17567866 -0.13537402 0.12973008 4288253337
0.17672086 -0.13640803 0.12964495 4289437611
0.1662882 -0.12768596 0.12469713 4289042851
0.16735809 -0.12887725 0.12673047 4289044133
0.16840428 -0.12991524 0.12664501 4289439402
0.16946544 -0.13109338 0.12860617 4290425786
0.1705153 -0.13219933 0.12957129 4290623165
0.1715575 -0.13323334 0.12948616 4291082947
0.1725997 -0.13426733 0.12940103 4290490810
0.17364191 -0.13530134 0.12931588 4288713888
0.17468411 -0.13633534 0.12923075 4288384923
0.17572631 -0.13736935 0.12914562 4289371818
0.16528723 -0.12865351 0.12419458 4288977058
0.16635971 -0.12984228 0.12622923 4289110180
0.16740592 -0.13088025 0.12614377 4289439402
0.16846959 -0.13205595 0.12810619 4290359993
0.16951315 -0.1330913 0.12802094 4290557372
0.17055671 -0.13412665 0.12793571 4291082947
0.17160515 -0.13522866 0.12890169 4290556603
0.17264736 -0.13626267 0.12881656 4288779681
0.17368956 -0.13729668 0.12873143 4288384923
0.16428624 -0.12962104 0.12369204 4288845984
0.16533518 -0.13066173 0.12360635 4289175973
0.16638412 -0.13170241 0.12352067 4289439656
0.16745377 -0.13288322 0.12555708 4290294454
0.16849996 -0.13392119 0.12547161 4290491579
0.16956086 -0.13508922 0.12743573 4291017154
0.17060442 -0.13612458 0.12735049 4290490810
0.17164798 -0.13715993 0.12726524 4288648095
0.17269154 -0.13819528 0.12718001 4288253337
0.1737351 -0.13923062 0.12709476 4289503404
0.16433421 -0.13162926 0.1231038 4289175971
0.16538315 -0.13266994 0.12301812 4289439656
0.16645537 -0.13384825 0.12505582 4290228661
0.16752146 -0.13501644 0.127021 4290426040
0.16854778 -0.13592419 0.1248849 4290951360
0.16959397 -0.13696216 0.12479945 4290359224
0.17065214 -0.1381225 0.12676528 4288516509
0.17169569 -0.13915785 0.12668003 4288055958
0.17273925 -0.14019319 0.12659478 4289437611
0.16228428 -0.13155612 0.12268693 4288254101
0.16336462 -0.13273731 0.12472551 4289110178
0.16438216 -0.13363749 0.12251557 4289505449
0.16545703 -0.13481325 0.12455459 4290426040
0.1665256 -0.13597904 0.12652102 4290491833
0.16754942 -0.1368892 0.12438367 4290688188
