# .PCD v0.7 - Point Cloud Data file format
VERSION 0.7
FIELDS x y z rgb
SIZE 4 4 4 4
TYPE F F F U
COUNT 1 1 1 1
WIDTH 1022
HEIGHT 1
VIEWPOINT 0 0 0 1 0 0 0
POINTS 1022
DATA ascii
0.18979634 -0.1405458 -0.036650941 4285623658
0.19089551 -0.14186202 -0.036722396 4285623660
0.19212537 -0.14327639 -0.033741709 4285294697
0.19330387 -0.14464946 -0.031816028 4285360238
0.19447717 -0.14601645 -0.029898876 4285623411
0.19556779 -0.14732242 -0.029969772 4285623159
0.19677241 -0.14870751 -0.027034905 4286084226
0.19785938 -0.15000908 -0.027105564 4287465363
0.19894633 -0.15131067 -0.027176222 4289438121
0.20003329 -0.15261225 -0.027246881 4290622134
0.20118788 -0.15395574 -0.025271887 4292069580
0.20227234 -0.15525435 -0.025342382 4291872714
0.20335682 -0.15655296 -0.02541288 4293451748
0.20444129 -0.15785156 -0.025483377 4293188576
0.20552576 -0.15915015 -0.025553873 4293386725
0.20661023 -0.16044876 -0.02562437 4293123553
0.20774515 -0.16177039 -0.023735764 4292860638
0.20882724 -0.16306613 -0.023806104 4293123810
0.20990933 -0.16436189 -0.023876447 4294243063
0.21099141 -0.16565764 -0.02394679 4293585133
0.21213698 -0.1669714 -0.020977104 4293979891
0.21321538 -0.16826274 -0.021047205 4292400859
0.21429378 -0.16955407 -0.021117307 4292335066
0.21537217 -0.17084539 -0.02118741 4291611341
0.21645057 -0.17213672 -0.02125751 4290360243
0.21752897 -0.17342804 -0.021327613 4290359727
0.21860737 -0.17471938 -0.021397715 4290162348
0.21968576 -0.1760107 -0.021467818 4289899176
0.22073023 -0.17731941 -0.024579868 4289701797
0.22181232 -0.17861515 -0.024650211 4289570211
0.22292095 -0.17988469 -0.021678124 4289503907
0.22399935 -0.18117602 -0.021748224 4289503907
0.22507773 -0.18246734 -0.021818327 4289898665
0.16252442 -0.10896581 0.037344206 4283913560
0.16320904 -0.10987481 0.033242919 4283979351
0.16422525 -0.11109169 0.033176858 4284176214
0.16524148 -0.11230856 0.033110797 4284242005
0.16625771 -0.11352544 0.033044737 4284307800
0.16727392 -0.11474232 0.032978676 4284243036
0.16814059 -0.11582428 0.030913815 4284308831
0.16901141 -0.11691143 0.028839035 4284045659
0.17003253 -0.11813416 0.028772656 4284177245
0.17105363 -0.11935689 0.028706279 4285822070
0.17207474 -0.12057961 0.028639901 4287598481
0.16821495 -0.11752704 -0.042469561 4287401102
0.16952601 -0.11903039 -0.039527528 4285953656
0.17063002 -0.12035239 -0.039599296 4287993239
0.17173402 -0.12167438 -0.039671063 4289572271
0.17283803 -0.12299637 -0.039742831 4290427580
0.17394203 -0.12431836 -0.039814595 4289835443
0.17504603 -0.12564036 -0.039886363 4289440685
0.17615004 -0.12696235 -0.039958131 4289901236
0.17736866 -0.12837864 -0.038084444 4290032822
0.1784703 -0.1296978 -0.038156059 4289638064
0.17957193 -0.13101695 -0.03822767 4290228920
0.18067357 -0.13233611 -0.038299281 4290294200
0.18188424 -0.1337413 -0.03635262 4290425786
0.18314454 -0.13518311 -0.033373181 4289570731
0.18424 -0.13649487 -0.033444393 4287794320
0.18533546 -0.13780664 -0.033515606 4286675839
0.18643093 -0.13911842 -0.033586815 4286346874
0.18752639 -0.14043018 -0.033658028 4286017909
0.18862185 -0.14174195 -0.03372924 4284767842
0.18957849 -0.1429548 -0.036852788 4284899687
0.19081278 -0.14436547 -0.033871662 4285097067
0.19199421 -0.14573613 -0.031945694 4285558132
0.19317041 -0.14710072 -0.030028254 4286413443
0.19426103 -0.14840668 -0.03009915 4286611335
0.19547004 -0.14978813 -0.02716385 4287137425
0.196557 -0.15108971 -0.027234508 4288387231
0.19771953 -0.1524367 -0.025259541 4288913051
0.19873092 -0.15369287 -0.027375827 4288320143
0.19988847 -0.1550339 -0.025400536 4288714652
0.20097294 -0.15633251 -0.025471032 4285425265
0.20205742 -0.15763111 -0.025541529 4287596698
0.20314188 -0.15892972 -0.025612026 4286675344
0.20422636 -0.16022831 -0.025682524 4289110456
0.20531084 -0.16152692 -0.025753019 4289308345
0.2064486 -0.16284618 -0.02386413 4291085008
0.20753069 -0.16414192 -0.023934472 4292137947
0.20861278 -0.16543768 -0.024004815 4291611600
0.20969486 -0.16673343 -0.024075156 4292861408
0.21084486 -0.16804352 -0.021105032 4291084997
0.21196581 -0.16934143 -0.019159548 4292531673
0.21300165 -0.17062618 -0.021245236 4292202710
0.21408005 -0.17191751 -0.021315338 4293452264
0.21515845 -0.17320883 -0.021385441 4292925402
0.21623684 -0.17450017 -0.021455541 4292793557
0.21731524 -0.17579149 -0.021525644 4292398799
0.21839364 -0.17708282 -0.021595746 4291872455
0.21947204 -0.17837414 -0.021665849 4291346368
0.22055043 -0.17966548 -0.021735949 4290951610
0.22162883 -0.18095681 -0.021806052 4290688440
0.22272529 -0.18222539 -0.019858977 4290622647
0.22380124 -0.18351379 -0.019928919 4290820026
0.16182674 -0.11073802 0.031124067 4283914071
0.1628454 -0.11195783 0.031057848 4283848019
0.16386406 -0.11317761 0.030991629 4284176982
0.16488272 -0.11439741 0.03092541 4284177241
0.16590138 -0.11561721 0.030859191 4283716953
0.16692004 -0.116837 0.030792974 4284440423
0.16764168 -0.11780028 0.026769126 4284177251
0.16866516 -0.11902586 0.026702592 4284243044
0.16954139 -0.1201259 0.024607794 4285690231
0.17056733 -0.12135444 0.024541102 4286282368
0.16709921 -0.11880598 -0.03958673 4286347648
0.1682032 -0.12012797 -0.039658494 4286940040
0.16930722 -0.12144996 -0.039730262 4288519072
0.17041121 -0.12277196 -0.03980203 4289966516
0.17151523 -0.12409395 -0.039873797 4290295481
0.17261922 -0.12541594 -0.039945561 4289506476
0.17384543 -0.12683555 -0.038071904 4289506476
0.17494707 -0.12815471 -0.038143516 4289835954
0.1760487 -0.12947387 -0.038215131 4289770161
0.17715034 -0.13079302 -0.038286742 4289638573
0.17825197 -0.13211218 -0.038358357 4290296754
0.17946805 -0.13351786 -0.036411561 4290888378
0.1807365 -0.13496043 -0.033431925 4291282626
0.18183196 -0.13627219 -0.033503138 4290427065
0.18292743 -0.13758397 -0.033574346 4289044646
0.18402289 -0.13889574 -0.033645559 4288056985
0.18511835 -0.1402075 -0.033716772 4286543750
0.18621382 -0.14151926 -0.033787981 4284635498
0.18716229 -0.14273135 -0.03691173 4283056468
0.18840474 -0.14414279 -0.033930406 4283649118
0.18959151 -0.14551394 -0.032004304 4284439402
0.19068454 -0.1468228 -0.032075357 4286347911
0.19186364 -0.14818498 -0.030157633 4288915119
0.19295426 -0.14949094 -0.030228529 4290560455
0.19416764 -0.15086876 -0.027292795 4291021774
0.19525461 -0.15217035 -0.027363453 4291547338
0.19642012 -0.15351486 -0.025388191 4293190607
0.19750459 -0.15481345 -0.025458688 4290755755
0.19865951 -0.15614745 -0.023570444 4286215547
0.19974159 -0.15744321 -0.023640787 4284044656
0.20082368 -0.15873896 -0.023711128 4283715198
0.20184249 -0.16000786 -0.025740676 4282399863
0.20292695 -0.16130647 -0.025811173 4283058565
0.20406996 -0.16262621 -0.023922155 4287203773
0.20515205 -0.16392197 -0.023992497 4287204527
0.20623414 -0.16521771 -0.024062838 4287335842
0.20731623 -0.16651347 -0.024133181 4287204497
0.20847434 -0.16782431 -0.021162858 4287137928
0.20960067 -0.16912271 -0.019217243 4287202692
0.21067663 -0.17041111 -0.019287186 4287859341
0.21175258 -0.17169951 -0.01935713 4288911265
0.21282852 -0.17298789 -0.019427072 4289897649
0.21390447 -0.17427629 -0.019497015 4292265680
0.21498042 -0.17556469 -0.019566957 4291607750
0.21605636 -0.17685309 -0.019636901 4293120989
0.21713232 -0.17814149 -0.019706843 4291674313
0.21817991 -0.17944627 -0.021793777 4293056479
0.21925831 -0.1807376 -0.02186388 4292136404
0.22033671 -0.18202892 -0.02193398 4292860127
0.22143611 -0.18329507 -0.019986615 4292729054
0.22251205 -0.18458347 -0.020056557 4293650926
0.16043781 -0.11160539 0.028995037 4283782485
0.16145892 -0.11282811 0.028928658 4283716690
0.16248003 -0.11405084 0.028862281 4283914323
0.16350113 -0.11527357 0.028795902 4283848276
0.16452225 -0.11649629 0.028729524 4284111711
0.16539186 -0.11759224 0.026714243 4284046435
0.16610967 -0.11856369 0.022651859 4283716700
0.16713803 -0.11979509 0.02258501 4284111458
0.16816637 -0.12102649 0.022518162 4285361268
0.16919473 -0.1222579 0.022451313 4285756026
0.1657764 -0.11990355 -0.039717697 4286216064
0.1668804 -0.12122554 -0.039789461 4287400336
0.16811892 -0.12265415 -0.037916139 4289703091
0.16922055 -0.12397331 -0.037987754 4290032056
0.17032219 -0.12529247 -0.038059365 4289637553
0.17142382 -0.12661162 -0.038130976 4289374638
0.17252547 -0.12793078 -0.038202591 4289835702
0.17362709 -0.12924993 -0.038274202 4289967288
0.17472874 -0.13056909 -0.038345814 4289375921
0.17583036 -0.13188824 -0.038417429 4289178538
0.17705186 -0.13329442 -0.036470499 4291087040
0.17815103 -0.13461064 -0.036541954 4291613384
0.17942393 -0.13604951 -0.033561878 4292467413
0.18051939 -0.13736127 -0.033633091 4292335575
0.18161486 -0.13867305 -0.033704299 4291939539
0.18271032 -0.13998482 -0.033775512 4290689222
0.18380578 -0.14129658 -0.033846725 4287727003
0.18490125 -0.14260834 -0.033917934 4284042597
0.18599671 -0.14392011 -0.033989146 4285293179
0.18709217 -0.14523187 -0.034060359 4286083208
0.18818764 -0.14654364 -0.034131568 4287005079
0.18937488 -0.14790946 -0.032205023 4288585133
0.19055688 -0.14926925 -0.030287011 4290494410
0.1916475 -0.15057521 -0.030357907 4291482071
0.19286527 -0.15194939 -0.027421739 4291680217
0.19395222 -0.15325098 -0.027492398 4292009172
0.19512072 -0.15459301 -0.025516842 4292401861
0.1962052 -0.15589161 -0.025587337 4290427049
0.19728966 -0.15719022 -0.025657834 4287663510
0.19837414 -0.15848882 -0.025728332 4284110455
0.19952713 -0.15981475 -0.023839496 4284505492
0.20060922 -0.16111049 -0.023909837 4282071676
0.20162755 -0.16238463 -0.025939822 4284374946
0.20277341 -0.163702 -0.024050523 4288126166
0.2038555 -0.16499776 -0.024120864 4288060355
0.20493759 -0.1662935 -0.024191206 4287863215
0.20610382 -0.1676051 -0.021220686 4287731356
0.20718221 -0.16889644 -0.021290788 4287532684
0.20831148 -0.17019239 -0.019344881 4287399558
0.20938744 -0.17148079 -0.019414825 4287332484
0.21046337 -0.17276919 -0.019484768 4287594378
0.21153933 -0.17405759 -0.01955471 4287791246
0.21261528 -0.17534599 -0.019624654 4288186002
0.21369122 -0.17663437 -0.019694597 4287922830
0.21476717 -0.17792277 -0.019764539 4288712859
0.21584313 -0.17921117 -0.019834481 4288911008
0.21691906 -0.18049957 -0.019904425 4289963953
0.21796618 -0.18180971 -0.021991808 4290820545
0.21907097 -0.18307635 -0.02004431 4290952644
0.22014691 -0.18436475 -0.020114254 4291282123
0.22122286 -0.18565315 -0.020184197 4290756292
0.15904813 -0.11248189 0.026925491 4283914071
0.16007161 -0.11370747 0.026858957 4283914069
0.16092709 -0.11479467 0.024764538 4284045909
0.16211858 -0.11615861 0.026725894 4283848276
0.16314206 -0.11738418 0.026659362 4284111709
0.16384916 -0.11835465 0.022596715 4283914332
0.16471788 -0.11945831 0.020481942 4283782234
0.16574873 -0.1206927 0.020414932 4284176992
0.16677958 -0.1219271 0.020347919 4285097581
0.16781043 -0.12316148 0.020280909 4285689720
0.1644536 -0.12100113 -0.039848663 4287531154
0.16569732 -0.12243022 -0.037975214 4289833911
0.16679895 -0.12374937 -0.038046826 4290492611
0.16790059 -0.12506853 -0.038118437 4290426564
0.16913976 -0.12648992 -0.036172178 4289637561
0.17010386 -0.12770684 -0.038261663 4289242803
0.17133811 -0.12912236 -0.036315084 4289243061
0.17243728 -0.13043857 -0.036386538 4289177268
0.17353646 -0.13175479 -0.036457989 4289046452
0.17463565 -0.13307099 -0.036529444 4289638842
0.17573482 -0.13438721 -0.036600895 4290297021
0.17701589 -0.13582683 -0.033620618 4290889156
0.17811136 -0.13713859 -0.033691831 4292137944
0.17920682 -0.13845035 -0.033763044 4292861668
0.18030228 -0.13976213 -0.033834253 4293057770
0.18139775 -0.1410739 -0.033905465 4291873243
0.18260005 -0.14245185 -0.031979419 4288319142
0.18369308 -0.14376071 -0.032050475 4284108135
0.18468414 -0.14500919 -0.034119099 4283779942
0.1857796 -0.14632095 -0.034190312 4285885829
0.18697219 -0.14768727 -0.032263637 4287597217
0.18806523 -0.14899613 -0.032334689 4288190123
0.18925011 -0.15035351 -0.030416388 4288125352
0.19034073 -0.15165947 -0.030487286 4287863205
0.19156288 -0.15303002 -0.027550684 4288521903
0.19264984 -0.15433159 -0.027621342 4290099902
0.19373681 -0.15563318 -0.027692001 4292927451
0.19482376 -0.15693477 -0.027762659 4291347651
0.19591072 -0.15823634 -0.027833318 4289242290
0.19707474 -0.15956697 -0.025856981 4286347668
0.1981592 -0.16086558 -0.025927478 4287400883
0.19924368 -0.16216418 -0.025997974 4285428126
0.20039476 -0.16348204 -0.024108548 4287073208
0.20147686 -0.16477779 -0.024178889 4289442006
0.20255895 -0.16607355 -0.024249231 4289705423
0.2037333 -0.16738589 -0.021278514 4289639618
0.20481169 -0.16867721 -0.021348614 4289507252
0.20589009 -0.16996855 -0.021418717 4289440683
0.20702229 -0.17126207 -0.019472521 4289504936
0.20809825 -0.17255047 -0.019542463 4289503655
0.20917419 -0.17383887 -0.019612405 4289304996
0.21025014 -0.17512727 -0.01968235 4289041313
0.21132609 -0.17641567 -0.019752292 4288975518
0.21240203 -0.17770407 -0.019822234 4288647065
0.21347798 -0.17899245 -0.019892178 4287923342
0.21455392 -0.18028085 -0.019962121 4288385176
0.21562988 -0.18156925 -0.020032063 4287464331
0.21667404 -0.18288183 -0.022119736 4288780961
0.21778177 -0.18414605 -0.02017195 4287399821
0.21885772 -0.18543445 -0.020241892 4287729556
0.21993367 -0.18672283 -0.020311834 4286413953
0.15747523 -0.11322001 0.022808967 4283848280
0.15850359 -0.11445141 0.022742119 4284045655
0.15953194 -0.11568281 0.02267527 4284177241
0.16056029 -0.11691421 0.022608422 4283979862
0.16142103 -0.11801438 0.020493675 4283848278
0.16205001 -0.11893664 0.015441962 4284111450
0.16308692 -0.1201783 0.015374555 4284243038
0.16412385 -0.12141996 0.01530715 4284308577
0.16516076 -0.12266163 0.015239744 4284571492
0.16619769 -0.12390329 0.015172338 4285689718
0.16327572 -0.12220629 -0.038034286 4288254879
0.16437735 -0.12352544 -0.038105898 4290755015
0.16562438 -0.12495028 -0.036159664 4289110705
0.16672355 -0.12626649 -0.036231119 4288452777
0.16782273 -0.1275827 -0.03630257 4287005590
0.1689219 -0.12889892 -0.036374025 4286545041
0.17002109 -0.13021514 -0.036445476 4287729573
0.17112027 -0.13153134 -0.036516931 4288914363
0.17241693 -0.13298061 -0.033536937 4289440707
0.17351238 -0.13429238 -0.03360815 4289769925
0.17460786 -0.13560414 -0.033679362 4289243830
0.17570332 -0.13691591 -0.033750571 4288454568
0.17679878 -0.13822769 -0.033821784 4288124322
0.17789425 -0.13953945 -0.033892997 4287466393
0.17910431 -0.14092082 -0.031966981 4286544010
0.18019736 -0.14222966 -0.032038033 4285096310
0.18129039 -0.14353852 -0.032109085 4283056216
0.18238342 -0.14484738 -0.032180142 4280884278
0.18337156 -0.14609827 -0.034249052 4280885050
0.18446703 -0.14741004 -0.034320265 4283056476
0.18566252 -0.14877395 -0.032393299 4284702325
0.18675555 -0.15008281 -0.032464355 4284900473
0.18794335 -0.15143777 -0.030545767 4284374899
0.18903397 -0.15274374 -0.030616663 4284046445
0.19012459 -0.15404969 -0.030687559 4284968315
0.19134746 -0.15541223 -0.027750287 4286744210
0.19243442 -0.15671381 -0.027820945 4288847786
0.19352138 -0.15801539 -0.027891604 4288912809
0.19460833 -0.15931697 -0.027962262 4287400089
0.19577533 -0.16064513 -0.02598563 4286940056
0.19685981 -0.16194373 -0.026056128 4287138465
0.19794427 -0.16324234 -0.026126625 4286941602
0.19909821 -0.16455783 -0.024236914 4287007906
0.20018031 -0.16585357 -0.024307257 4288719290
0.2012624 -0.16714934 -0.024377597 4289640129
0.20244117 -0.168458 -0.021406442 4289771453
0.20358121 -0.16975497 -0.019460274 4289968058
0.20465715 -0.17104337 -0.019530216 4290032820
0.20573311 -0.17233175 -0.019600159 4290294454
0.20680906 -0.17362015 -0.019670101 4290556343
0.207885 -0.17490855 -0.019740045 4290686649
0.20896095 -0.17619695 -0.019809987 4290489270
0.2100369 -0.17748535 -0.01987993 4290423476
0.21111284 -0.17877373 -0.019949872 4290095279
0.2121888 -0.18006213 -0.020019816 4289437351
0.21326475 -0.18135053 -0.020089759 4289832620
0.21434069 -0.18263893 -0.020159701 4288320410
0.21541664 -0.18392733 -0.020229643 4289373609
0.21652471 -0.1851863 -0.018290516 4287729556
0.21759821 -0.18647178 -0.0183603 4288255898
0.21867172 -0.18775725 -0.018430084 4287466641
0.1560625 -0.11410166 0.020639431 4283519315
0.15709335 -0.11533605 0.02057242 4283782483
0.15812419 -0.11657044 0.02050541 4284045655
0.15873374 -0.1174842 0.015453764 4283980116
0.15977065 -0.11872586 0.015386359 4284045655
0.16064256 -0.11984406 0.013308262 4284374363
0.16184451 -0.12120918 0.015251547 4284571488
0.16272131 -0.12233326 0.013173131 4284308316
0.16376068 -0.12357786 0.013105567 4284570722
0.16480003 -0.12482245 0.013038002 4285754997
0.16195574 -0.1233015 -0.03816497 4287070605
0.16320817 -0.12472685 -0.036218606 4287596696
0.16430736 -0.12604305 -0.036290061 4286610319
0.16540653 -0.12735927 -0.036361512 4284833911
0.16672249 -0.12882264 -0.033382047 4282070864
0.16760488 -0.1299917 -0.036504418 4281807440
0.16870406 -0.13130791 -0.036575872 4285163398
0.16980325 -0.13262412 -0.036647324 4288387770
0.17110436 -0.13406971 -0.033666894 4288585151
0.17219982 -0.13538148 -0.033738103 4287204008
0.17329527 -0.13669324 -0.033809315 4286677655
0.17439073 -0.138005 -0.033880528 4284243313
0.17560859 -0.13938977 -0.031954538 4282268496
0.17670162 -0.14069863 -0.032025591 4280886843
0.17779467 -0.14200749 -0.032096643 4279635493
0.1788877 -0.14331633 -0.032167699 4278780184
0.17998073 -0.14462519 -0.032238752 4278845465
0.18107376 -0.14593405 -0.032309804 4279042844
0.18205899 -0.14718735 -0.034379005 4279503395
0.18315445 -0.14849913 -0.034450218 4280030252
0.18424992 -0.1498109 -0.034521431 4280294194
0.1854459 -0.15116948 -0.032594018 4280886588
0.18663658 -0.15252204 -0.030675147 4282005582
0.1877272 -0.153828 -0.030746043 4282467160
0.18881781 -0.15513396 -0.030816939 4282665309
0.19004507 -0.15649286 -0.027879231 4283388262
0.19113204 -0.15779443 -0.02794989 4282399316
0.192219 -0.15909602 -0.028020548 4283912039
0.19339146 -0.16042468 -0.026043784 4284439152
0.19447593 -0.16172329 -0.026114279 4284637553
0.19563748 -0.16304211 -0.024224596 4284506734
0.19671957 -0.16433786 -0.024294939 4284442220
0.19780166 -0.16563362 -0.024365282 4285298295
0.19888376 -0.16692936 -0.024435623 4287403669
0.19996585 -0.16822512 -0.024505965 4288127133
0.20114905 -0.16953012 -0.02153437 4288981672
0.20229201 -0.17082465 -0.019587912 4289704114
0.20336796 -0.17211305 -0.019657854 4289834930
0.20444392 -0.17340145 -0.019727796 4289767856
0.20551986 -0.17468983 -0.019797741 4289964208
0.20659581 -0.17597823 -0.019867683 4290029489
0.20767176 -0.17726663 -0.019937625 4290094512
0.2087477 -0.17855503 -0.020007569 4289766827
0.20982365 -0.17984343 -0.020077512 4289767338
0.21089961 -0.18113182 -0.020147454 4290293684
0.21197554 -0.18242021 -0.020217396 4290162866
0.2130515 -0.18370861 -0.020287341 4289965489
0.21416491 -0.1849681 -0.018348081 4290360758
0.21523842 -0.18625356 -0.018417865 4289769137
0.21631193 -0.18753904 -0.018487651 4290229686
0.21738544 -0.18882452 -0.018557435 4289900723
0.1545599 -0.11492513 0.017533671 4283650901
0.15559438 -0.11616387 0.017466424 4283782485
0.15662886 -0.11740262 0.017399177 4284111448
0.15749131 -0.11851507 0.015330756 4284111702
0.15835783 -0.11963279 0.013252527 4284242775
0.1593972 -0.12087739 0.013184963 4284111189
0.16043657 -0.12212198 0.013117397 4284242777
0.16147594 -0.12336658 0.013049833 4284374109
0.16251531 -0.12461117 0.012982268 4285031271
0.16355468 -0.12585576 0.012914702 4285952376
0.16079198 -0.12450341 -0.036277547 4285491573
0.16212353 -0.12597643 -0.033298366 4283714909
0.16321899 -0.12728819 -0.033369578 4285096310
0.16431445 -0.12859996 -0.033440787 4283583844
0.16540992 -0.12991172 -0.033512 4280557627
0.16650538 -0.1312235 -0.033583213 4279176235
0.16760084 -0.13253526 -0.033654422 4281610321
0.16869631 -0.13384703 -0.033725634 4284374399
0.16992679 -0.13524102 -0.031799991 4284374658
0.17088723 -0.13647056 -0.033868056 4282861417
0.17198271 -0.13778232 -0.033939268 4281808723
0.17307816 -0.13909408 -0.034010481 4279834161
0.17429893 -0.14047644 -0.032084204 4278781214
0.17539196 -0.14178529 -0.032155257 4278912800
0.17648499 -0.14309415 -0.032226309 4278977564
0.17757803 -0.14440301 -0.032297365 4278845977
0.17867106 -0.14571187 -0.032368418 4279306015
0.17976409 -0.14702071 -0.03243947 4279634980
0.18074641 -0.14827645 -0.034508962 4279306015
0.18184188 -0.14958821 -0.034580171 4279306528
0.18293734 -0.15089998 -0.034651384 4278977563
0.1840328 -0.15221174 -0.034722596 4279110432
0.18522927 -0.153565 -0.03279474 4280097585
0.1863223 -0.15487385 -0.032865793 4280558652
0.18751106 -0.15621823 -0.030946316 4280624958
0.18860167 -0.15752418 -0.031017212 4281084998
0.18982965 -0.15887506 -0.028078835 4280688961
0.19091661 -0.16017665 -0.028149493 4280885825
0.19209205 -0.16150284 -0.026172433 4282334034
0.19317652 -0.16280144 -0.02624293 4281742659
0.19434094 -0.1641179 -0.024352964 4283520089
0.19542302 -0.16541365 -0.024423305 4282797128
0.19650511 -0.16670939 -0.024493648 4284640355
0.19770013 -0.16801958 -0.021522095 4285693041
0.19877852 -0.16931091 -0.021592198 4285955445
0.19985692 -0.17060223 -0.021662299 4287599758
0.20100282 -0.17189433 -0.019715549 4289243817
0.20207877 -0.17318273 -0.019785494 4289834930
0.20321704 -0.17446604 -0.017847372 4289899442
0.20429055 -0.17575152 -0.017917156 4290161332
0.20536406 -0.177037 -0.01798694 4290292661
0.20643759 -0.17832248 -0.018056724 4290292660
0.2075111 -0.17960796 -0.018126508 4289964719
0.20853446 -0.18091311 -0.020205149 4289636522
0.20961042 -0.1822015 -0.020275094 4290689210
0.21068636 -0.1834899 -0.020345036 4289702828
0.21176231 -0.1847783 -0.020414978 4289768621
0.21283826 -0.18606669 -0.020484921 4289308070
0.21395215 -0.18732083 -0.018545216 4289176998
0.21502566 -0.18860631 -0.018615 4289440170
0.21609917 -0.18989179 -0.018684784 4289045412
0.15191562 -0.11444313 0.013467054 4284111452
0.152955 -0.11568772 0.013399488 4284045659
0.15399437 -0.11693232 0.013331924 4283914071
0.15503374 -0.11817691 0.013264359 4284177241
0.15607311 -0.11942151 0.013196793 4284111448
0.15693831 -0.12054402 0.011108623 4284242775
0.15798014 -0.12179156 0.011040897 4283847247
0.15919121 -0.1231553 0.012994098 4284242007
0.16023058 -0.12439989 0.012926534 4284702560
0.16110563 -0.12553419 0.010837723 4284899428
0.16214746 -0.12678173 0.010769998 4285096553
0.16318929 -0.12802927 0.010702273 4284306784
0.16081095 -0.12706551 -0.033428319 4282267718
0.16205892 -0.12847455 -0.031503335 4283583325
0.16315195 -0.12978339 -0.031574387 4283254878
0.16424499 -0.13109225 -0.03164544 4281215553
0.16519281 -0.13231258 -0.033713166 4279044645
0.16628827 -0.13362435 -0.033784378 4278978854
0.1675241 -0.13501883 -0.031858601 4279768886
0.16861713 -0.13632768 -0.031929653 4279900986
0.16971016 -0.13763654 -0.032000709 4279637814
0.17080319 -0.13894539 -0.032071762 4278847784
0.17189623 -0.14025424 -0.032142814 4278386717
0.17298926 -0.1415631 -0.032213867 4278649630
0.17408229 -0.14287196 -0.032284923 4279241765
0.17517534 -0.14418082 -0.032355975 4279438114
0.17626837 -0.14548968 -0.032427028 4279372319
0.1772429 -0.146742 -0.03449649 4279240474
0.17833838 -0.14805377 -0.034567703 4278714384
0.17943384 -0.14936553 -0.034638915 4279701023
0.1805293 -0.15067729 -0.034710124 4280162087
0.18391961 -0.15465167 -0.032924403 4279637033
0.18501264 -0.15596052 -0.032995455 4279506218
0.18620428 -0.15730248 -0.031075696 4279834929
0.1872949 -0.15860845 -0.031146592 4280624447
0.18852727 -0.1599557 -0.028207779 4281281096
0.18961422 -0.16125728 -0.028278438 4280030770
0.19079265 -0.162581 -0.026301082 4280492085
0.19187713 -0.1638796 -0.02637158 4280361006
0.19304439 -0.16519369 -0.02448133 4282993745
0.19412647 -0.16648944 -0.024551673 4282796617
0.19532961 -0.16780037 -0.021579921 4284179035
0.196408 -0.16909169 -0.021650024 4284376413
0.1974864 -0.17038302 -0.021720126 4285034084
0.19863769 -0.17167561 -0.019773245 4287007106
0.19971363 -0.17296401 -0.019843187 4288848544
0.20085727 -0.17424783 -0.017904935 4289702828
0.20193078 -0.17553331 -0.017974719 4289833649
0.2030043 -0.17681879 -0.018044505 4290227125
0.20407781 -0.17810427 -0.018114289 4290424247
0.20515132 -0.17938974 -0.018184073 4290292918
0.20622483 -0.18067521 -0.018253857 4289768108
0.20729834 -0.18196069 -0.018323641 4289308068
0.20837185 -0.18324617 -0.018393427 4290031791
0.20939717 -0.18455958 -0.020472674 4288914080
0.21047312 -0.18584797 -0.020542616 4289045666
0.21154907 -0.18713637 -0.020612558 4288782494
0.21270658 -0.18835156 -0.01667168 4288781724
0.21377766 -0.18963413 -0.016741306 4289044896
0.21484874 -0.19091672 -0.016810933 4289044896
0.21591982 -0.19219927 -0.016880559 4289504934
0.15067026 -0.11547645 0.013343754 4284308831
0.15170963 -0.11672104 0.01327619 4284111452
0.152749 -0.11796564 0.013208624 4283782485
0.15378837 -0.11921023 0.013141059 4283914071
0.15464818 -0.12033224 0.011052757 4283782483
0.15569001 -0.12157977 0.010985032 4284374363
0.15673184 -0.12282732 0.010917307 4283913042
0.15777367 -0.12407486 0.010849582 4284439386
0.1588155 -0.1253224 0.010781857 4284702560
0.15985733 -0.12656994 0.010714132 4283780945
0.16089916 -0.12781748 0.010646407 4283254603
0.15840292 -0.12684283 -0.033487059 4283056971
0.15965623 -0.12825236 -0.031561945 4282332994
0.16090399 -0.12965564 -0.029645355 4281741374
0.16199461 -0.1309616 -0.029716251 4281741119
0.16308522 -0.13226755 -0.029787147 4280360238
0.16402836 -0.13348778 -0.031846158 4278847258
0.16512141 -0.13479663 -0.031917211 4278386966
0.16621444 -0.13610549 -0.031988267 4278387737
0.16744767 -0.13749139 -0.030070733 4278322201
0.16853829 -0.13879736 -0.030141629 4278585375
0.16949354 -0.14003205 -0.032201424 4278649889
0.17058657 -0.14134091 -0.03227248 4279044647
0.1716796 -0.14264977 -0.032343533 4279439146
0.17277263 -0.14395863 -0.032414585 4279044384
0.17386568 -0.14526749 -0.032485642 4278583573
0.17483488 -0.14651932 -0.034555234 4279306778
0.17593034 -0.14783108 -0.034626443 4279964448
0.17702581 -0.14914285 -0.034697656 4279569688
0.18489753 -0.15838675 -0.031205073 4279900205
0.18722488 -0.16103633 -0.028336724 4280821050
0.18831185 -0.1623379 -0.028407382 4280097327
0.18949325 -0.16365916 -0.026429731 4280031532
0.19057772 -0.16495776 -0.026500229 4281347903
0.19174784 -0.16626947 -0.024609698 4282466637
0.19282992 -0.16756523 -0.024680039 4283322712
0.19403748 -0.16887249 -0.021707851 4284178274
0.19511588 -0.17016381 -0.021777952 4285296237
0.19627255 -0.1714569 -0.01983094 4287072646
0.19734851 -0.1727453 -0.019900884 4288585626
0.19849749 -0.1740296 -0.0179625 4289900973
0.199571 -0.17531508 -0.018032284 4290097584
0.20064451 -0.17660056 -0.01810207 4289899696
0.20171802 -0.17788604 -0.018171854 4290030258
0.20285454 -0.17915583 -0.016241727 4290095541
0.20392562 -0.1804384 -0.016311353 4289832880
0.20499672 -0.18172097 -0.016380981 4290031793
0.20601207 -0.18302795 -0.018450992 4289308838
0.20708558 -0.18431343 -0.018520776 4289374631
0.20815909 -0.18559891 -0.01859056 4288782494
0.2092326 -0.18688439 -0.018660344 4288585115
0.21035214 -0.18813384 -0.016729115 4288914080
0.21142322 -0.18941641 -0.01679874 4288650138
0.21255571 -0.19063658 -0.013883344 4288979103
0.21362318 -0.19191481 -0.013952735 4289307555
0.21469064 -0.19319305 -0.014022126 4289570727
0.15009041 -0.11750042 0.009174834 4283387729
0.15131621 -0.11887292 0.011064615 4284111450
0.15235804 -0.12012046 0.01099689 4283979864
0.15322305 -0.12125161 0.0089711947 4283979864
0.15426727 -0.12250201 0.0089033144 4284176730
0.15531148 -0.1237524 0.008835434 4284242523
0.15635569 -0.1250028 0.0087675545 4284373595
0.15739991 -0.12625319 0.0086996742 4283913044
0.15844412 -0.12750359 0.0086317947 4282596671
0.15948834 -0.12875399 0.0085639143 4280886053
0.15725353 -0.12803017 -0.031620555 4279701781
0.15834656 -0.12933902 -0.031691611 4279240976
0.15959722 -0.1307399 -0.029774733 4279175696
0.16068783 -0.13204587 -0.029845631 4279044111
0.16162567 -0.13326558 -0.031904772 4278847246
0.16286907 -0.13465779 -0.029987423 4278979347
0.16381173 -0.1358833 -0.032046877 4279242776
0.16490477 -0.13719216 -0.032117929 4279243546
0.16614091 -0.13857566 -0.030200111 4279111960
0.16723153 -0.13988163 -0.030271007 4278848536
0.16818386 -0.14111874 -0.03233109 4279242275
0.16927691 -0.14242758 -0.032402147 4279307556
0.17036994 -0.14373644 -0.032473199 4279242018
0.17146297 -0.1450453 -0.032544252 4279176221
0.17255601 -0.14635415 -0.032615304 4279175961
0.17352231 -0.1476084 -0.034685187 4279176213
0.17461777 -0.14892016 -0.034756396 4279241489
0.18700947 -0.16341853 -0.028536327 4279835167
0.18819384 -0.16473731 -0.026558381 4279505952
0.18927832 -0.16603591 -0.026628878 4280624182
0.19045129 -0.16734526 -0.024738064 4282268754
0.19153337 -0.16864102 -0.024808407 4283321442
0.19274536 -0.1699446 -0.02183578 4284834934
0.19390741 -0.17123818 -0.019888638 4286874255
0.19498336 -0.17252658 -0.01995858 4289506225
0.19613771 -0.17381139 -0.018020066 4289834928
0.19728684 -0.17509039 -0.016090283 4290032559
0.19835792 -0.17637296 -0.016159909 4289900203
0.19942902 -0.17765553 -0.016229536 4289768106
0.2005001 -0.17893811 -0.016299162 4289701547
0.20157118 -0.18022068 -0.01636879 4289438124
0.20273696 -0.18147191 -0.013454844 4288978341
0.20371336 -0.18278582 -0.016508043 4288190103
0.20478444 -0.1840684 -0.016577668 4288322200
0.20585552 -0.18535097 -0.016647296 4288585372
0.20687282 -0.18666616 -0.018717909 4288980130
0.20807429 -0.18786311 -0.013801801 4289308838
0.20914175 -0.18914135 -0.013871193 4289506217
0.21013986 -0.19048126 -0.016925802 4289702826
0.21127668 -0.19169782 -0.014009976 4289833899
0.21234415 -0.19297607 -0.014079367 4290030508
0.21345189 -0.1942029 -0.012093375 4290030508
0.14114174 -0.11113432 -0.025768269 4280623910
0.14243111 -0.11257274 -0.023796657 4280821289
0.14351557 -0.11387134 -0.023867154 4280624423
0.14845602 -0.1182871 0.0050351303 4282532420
0.1496913 -0.11966421 0.0069432091 4283585108
0.15092766 -0.12103935 0.0089151999 4283848278
0.15160334 -0.12205586 0.0048305369 4284045657
0.15265244 -0.12331211 0.0047623389 4283781972
0.15370154 -0.12456837 0.004694141 4283979351
0.15492478 -0.12593105 0.0066030021 4284307802
0.15597148 -0.12718444 0.0065349606 4284176216
0.15701818 -0.1284378 0.0064669191 4283254601
0.15806489 -0.12969117 0.0063988781 4281741362
0.15594387 -0.12911683 -0.031750221 4280557086
0.1570369 -0.13042569 -0.031821273 4280096535
0.15829046 -0.13182417 -0.029904112 4280031257
0.15922298 -0.13304341 -0.031963382 4279768085
0.16031601 -0.13435225 -0.032034434 4279570704
0.16140904 -0.13566111 -0.032105491 4279374095
0.16235055 -0.13689159 -0.034174237 4279440145
0.16344602 -0.13820335 -0.034245446 4279440658
0.16468814 -0.13958769 -0.032318648 4279309072
0.16563694 -0.14082688 -0.034387872 4279111441
0.16673242 -0.14213866 -0.034459081 4279308060
0.16782787 -0.14345042 -0.034530293 4279307807
0.16892333 -0.14476219 -0.034601506 4279308061
0.17001881 -0.14607395 -0.034672718 4279242265
0.17111427 -0.14738572 -0.034743927 4279242004
0.18689445 -0.16581546 -0.02668703 4279177237
0.18797892 -0.16711406 -0.026757527 4280295215
0.18915474 -0.16842104 -0.024866432 4281544779
0.19037484 -0.16972539 -0.021893606 4282596958
0.19145323 -0.17101671 -0.021963708 4284833918
0.19261822 -0.17230786 -0.020016275 4287794596
0.19377793 -0.17359318 -0.018077631 4289373877
0.19505315 -0.17486374 -0.013165128 4289702576
0.1961206 -0.17614198 -0.013234519 4289637033
0.19718808 -0.17742021 -0.013303911 4289308066
0.19825554 -0.17869845 -0.013373302 4289044637
0.19932301 -0.17997669 -0.013442694 4288912799
0.20039047 -0.18125492 -0.013512085 4288911778
0.20152611 -0.18250912 -0.011527417 4288517790
0.20259108 -0.18378438 -0.011596647 4288913828
0.20359287 -0.18508965 -0.013720259 4288980130
0.20466033 -0.18636788 -0.013789651 4289177509
0.205786 -0.18761015 -0.011804335 4289440681
0.20685098 -0.18888541 -0.011873565 4289637803
0.20791595 -0.19016066 -0.011942794 4289900205
0.20898092 -0.1914359 -0.012012023 4289965485
0.2100459 -0.19271116 -0.012081253 4289965485
0.21111088 -0.19398642 -0.012150482 4290030508
0.21217585 -0.19526167 -0.012219711 4290030508
0.13983937 -0.11221495 -0.025897212 4280360738
0.14092633 -0.11351653 -0.025967872 4280426531
0.14201328 -0.11481811 -0.026038531 4280032286
0.14330065 -0.11624811 -0.024066301 4280427044
0.14699951 -0.11920367 0.0028514429 4282071869
0.14805113 -0.12046292 0.0027830822 4283387729
0.14929721 -0.1218426 0.0047742813 4283782487
0.15015435 -0.12298144 0.0026463605 4284111452
0.15093374 -0.12407628 -0.0003818119 4283914071
0.15225758 -0.12549995 0.0025096389 4283914071
0.15330918 -0.1267592 0.0024412782 4284110937
0.15454273 -0.12812386 0.004433292 4284110937
0.15559183 -0.12938011 0.004365094 4283715663
0.15371186 -0.12899055 -0.0298208 4282662975
0.15480247 -0.1302965 -0.029891698 4281741614
0.15589309 -0.13160247 -0.029962594 4281346856
0.1569837 -0.13290842 -0.03003349 4281017890
0.15807432 -0.13421439 -0.030104386 4280623645
0.15900634 -0.13543893 -0.032164101 4280294678
0.16009937 -0.13674779 -0.032235153 4279900690
0.16103798 -0.13798068 -0.03430419 4279769102
0.16213344 -0.13929243 -0.034375403 4279638029
0.16322891 -0.14060421 -0.034446612 4279440648
0.16432437 -0.14191598 -0.034517825 4279243019
0.16541983 -0.14322774 -0.034589037 4279176723
0.16651529 -0.14453951 -0.034660246 4279176726
0.16761076 -0.14585127 -0.034731459 4279176724
0.18559504 -0.16689362 -0.026815681 4278256386
0.18667951 -0.16819222 -0.026886176 4279242525
0.18785819 -0.16949683 -0.024994798 4281083971
0.18908271 -0.1707975 -0.022021536 4282530653
0.19025308 -0.17208916 -0.020073971 4284438396
0.19141814 -0.17337495 -0.018135196 4286806681
0.19249167 -0.17466043 -0.01820498 4288583339
0.19377412 -0.17592499 -0.01329176 4288846501
0.19492519 -0.17719162 -0.011307606 4288978592
0.19599018 -0.17846687 -0.011376836 4288781465
0.19705515 -0.17974213 -0.011446066 4288781465
0.19812012 -0.18101738 -0.011515295 4289044385
0.19918509 -0.18229264 -0.011584525 4289175719
0.20025006 -0.1835679 -0.011653754 4289044647
0.20131503 -0.18484315 -0.011722984 4289572271
0.20238002 -0.18611841 -0.011792213 4289572782
0.20344499 -0.18739367 -0.011861443 4289769648
0.20450996 -0.18866892 -0.011930672 4289835441
0.20557493 -0.18994418 -0.011999901 4289900721
0.2066399 -0.19121943 -0.01206913 4290031793
0.20770489 -0.19249468 -0.01213836 4290031280
0.20876986 -0.19376993 -0.012207589 4289965487
0.20988154 -0.19499403 -0.010306208 4290030510
0.21094413 -0.19626643 -0.010375283 4290030510
0.13745002 -0.11199399 -0.025955498 4280360736
0.13853699 -0.11329558 -0.026026158 4281413426
0.13962394 -0.11459716 -0.026096817 4281479219
0.14091676 -0.11602766 -0.024124453 4280953388
0.14200124 -0.11732627 -0.02419495 4281150767
0.1430857 -0.11862487 -0.024265448 4282532420
0.1461127 -0.12109816 -0.0043289666 4283453522
0.14717281 -0.1223676 -0.0043978803 4283650901
0.14823292 -0.12363704 -0.004466794 4283716694
0.14929304 -0.12490648 -0.0045357076 4284243036
0.15053931 -0.12628266 -0.0025854432 4283979862
0.15177983 -0.12765248 -0.00064418052 4283782483
0.15283504 -0.12891605 -0.00071277557 4283716433
0.15389025 -0.13017963 -0.00078137062 4283255882
0.15266745 -0.13021614 -0.026944719 4282531387
0.15375441 -0.13151772 -0.027015379 4281938992
0.15458632 -0.13268673 -0.030091971 4281610027
0.15567693 -0.13399269 -0.030162869 4281281060
0.15676755 -0.13529865 -0.030233765 4281017888
0.15769668 -0.1365256 -0.032293767 4280754970
0.15862994 -0.137758 -0.034362931 4280426516
0.15948491 -0.13895734 -0.037488628 4280163344
0.16082087 -0.14038153 -0.034505356 4279769355
0.16520272 -0.14562859 -0.034790203 4278913805
0.18418927 -0.167962 -0.028993819 4279046153
0.1853801 -0.16927038 -0.027014827 4279440409
0.18646458 -0.17056899 -0.027085323 4281346881
0.1877906 -0.17186962 -0.022149464 4283320420
0.18896389 -0.17315884 -0.020201609 4285096063
0.19013189 -0.1744422 -0.018262545 4286477201
0.19129458 -0.17571978 -0.016332213 4288319910
0.19258419 -0.17697513 -0.011364713 4288714917
0.19364916 -0.17825039 -0.011433943 4288978340
0.19471413 -0.17952564 -0.011503172 4289044383
0.1957791 -0.1808009 -0.011572402 4289307555
0.19684407 -0.18207616 -0.011641631 4289768106
0.1979825 -0.18332648 -0.0097415196 4290031282
0.19904509 -0.18459888 -0.009810593 4290031539
0.20010768 -0.18587127 -0.0098796673 4289901236
0.20117027 -0.18714367 -0.0099487416 4289835954
0.20223285 -0.18841606 -0.010017816 4289901236
0.20329544 -0.18968846 -0.01008689 4289966514
0.20435801 -0.19096085 -0.010155965 4290031539
0.2054206 -0.19223325 -0.010225039 4289966000
0.20648319 -0.19350564 -0.010294112 4289965489
0.20754577 -0.19477804 -0.010363187 4289899694
0.20860836 -0.19605044 -0.010432261 4290030512
0.20971973 -0.19726454 -0.0084637897 4290030510
0.13527948 -0.11191139 -0.023971114 4281084713
0.13636395 -0.11321001 -0.024041612 4281611057
0.1372346 -0.1143762 -0.026155101 4282860870
0.13832156 -0.11567779 -0.026225761 4282795077
0.13961737 -0.11710581 -0.024253102 4281940283
0.14070185 -0.11840442 -0.024323599 4281677111
0.14178631 -0.11970302 -0.024394097 4282598213
0.14484248 -0.1221521 -0.0044547268 4283256143
0.14590259 -0.12342154 -0.0045236405 4283387729
0.1467678 -0.12458028 -0.0066210851 4283585106
0.14802282 -0.12596042 -0.0046614683 4284046168
0.14908294 -0.12722985 -0.004730382 4283717201
0.15014306 -0.1284993 -0.0047992957 4283454029
0.15120317 -0.12976874 -0.0048682094 4283322186
0.15226328 -0.13103817 -0.004937123 4282663743
0.15154655 -0.13139044 -0.025028568 4281742126
0.15245204 -0.13259834 -0.027144322 4280886304
0.15327956 -0.13377099 -0.03022135 4280425753
0.15420094 -0.13499455 -0.032281324 4280951581
0.15529399 -0.13630341 -0.032352377 4280885788
0.15638702 -0.13761227 -0.032423433 4280885788
0.15731737 -0.13884708 -0.034492884 4280689177
0.18179993 -0.16774105 -0.029052105 4281218339
0.18299624 -0.16904993 -0.027072979 4282664764
0.18408071 -0.17034853 -0.027143475 4282335550
0.18542008 -0.17165041 -0.02220729 4283124046
0.18659876 -0.17294012 -0.020259304 4285294194
0.1877721 -0.17422399 -0.01832011 4287464597
0.18908115 -0.17549101 -0.013406241 4288845736
0.19024317 -0.17675865 -0.011421821 4289437873
0.1913964 -0.17802089 -0.0095222015 4289766835
0.19245899 -0.17929329 -0.0095912758 4290030261
0.19352157 -0.18056569 -0.0096603492 4290030258
0.19458416 -0.18183808 -0.0097294236 4289965487
0.19564675 -0.18311048 -0.0097984979 4290162864
0.19678822 -0.18435465 -0.0078314999 4290163377
0.19784833 -0.18562408 -0.0079004131 4290097586
0.19890845 -0.18689352 -0.0079693273 4289901236
0.19996856 -0.18816297 -0.0080382405 4289901236
0.20102869 -0.18943241 -0.0081071546 4289966518
0.2020888 -0.19070184 -0.0081760688 4289900723
0.20314892 -0.19197129 -0.008244982 4289965748
0.20420903 -0.19324072 -0.0083138961 4289965489
0.20526916 -0.19451016 -0.0083828093 4290096051
0.20632927 -0.19577961 -0.0084517235 4290030512
0.20738938 -0.19704904 -0.0085206367 4290095794
0.2084495 -0.19831848 -0.0085895509 4290095792
0.20955867 -0.19952451 -0.0066298898 4290030258
0.13398007 -0.11298956 -0.024099765 4281413678
0.13484526 -0.11415526 -0.026213389 4282005815
0.13593222 -0.11545683 -0.026284046 4282071354
0.13701917 -0.11675842 -0.026354706 4282005561
0.13810614 -0.11806 -0.026425363 4281084974
0.13919309 -0.11936158 -0.026496023 4280690216
0.14048691 -0.12078118 -0.024522746 4281545525
0.14157137 -0.12207978 -0.024593243 4282598213
0.14443202 -0.12436428 -0.0066780644 4283387729
0.14530319 -0.12553196 -0.0087097501 4283980377
0.1465572 -0.12690908 -0.0068162126 4283586385
0.14761978 -0.12818147 -0.0068852869 4283520591
0.14868237 -0.12945387 -0.0069543612 4283586384
0.14974496 -0.13072626 -0.0070234356 4283520077
0.14934164 -0.13126016 -0.023128953 4282664255
0.15006268 -0.1323774 -0.027202608 4281216296
0.15114965 -0.13367897 -0.027273268 4280031508
0.15197279 -0.13485526 -0.030350728 4279438858
0.15289129 -0.13608122 -0.03241099 4280359190
0.15398432 -0.13739008 -0.032482043 4280556569
0.15507735 -0.13869894 -0.032553095 4280819741
0.18169683 -0.17012809 -0.027201628 4286546805
0.18288645 -0.17142846 -0.025309557 4286217327
0.18423362 -0.1727214 -0.020316999 4286743160
0.18577221 -0.17399167 -0.011340469 4288584596
0.18658569 -0.17528434 -0.016447082 4289964715
0.18790215 -0.17654216 -0.011478928 4290293684
0.18906063 -0.1778049 -0.0095791807 4290161334
0.19012322 -0.1790773 -0.0096482551 4290424508
0.1911858 -0.18034969 -0.0097173294 4290556351
0.19233765 -0.18160027 -0.0077505186 4290490812
0.19339776 -0.1828697 -0.0078194328 4290294200
0.19445787 -0.18413915 -0.007888346 4290360245
0.19551799 -0.18540859 -0.0079572601 4290294961
0.19657812 -0.18667802 -0.0080261733 4290097582
0.19771479 -0.18791103 -0.006067819 4290032309
0.19877245 -0.18917754 -0.0061365729 4289900982
0.1998301 -0.19044404 -0.0062053269 4289966518
0.20088777 -0.19171053 -0.0062740808 4290097334
0.20194542 -0.19297703 -0.0063428348 4290096821
0.20300308 -0.19424352 -0.0064115888 4290096821
0.20412228 -0.19545619 -0.0044614784 4290227637
0.20517749 -0.19671975 -0.0045300731 4290227637
0.2062327 -0.19798332 -0.0045986683 4290095794
0.20728792 -0.1992469 -0.0046672635 4290095794
0.20829138 -0.20057601 -0.0067553585 4290030258
0.13268067 -0.11406771 -0.024228415 4281084713
0.13376515 -0.11536632 -0.024298912 4281216299
0.13484962 -0.11666492 -0.024369409 4280426529
0.13593408 -0.11796352 -0.024439905 4280623908
0.13701856 -0.11926213 -0.024510402 4280032284
0.13810304 -0.12056074 -0.0245809 4279769112
0.1391875 -0.12185933 -0.024651395 4280624423
0.14047046 -0.12326568 -0.022764925 4281874490
0.14185674 -0.12472416 -0.019799272 4283058510
0.14353004 -0.12632887 -0.013858705 4284046170
0.14509213 -0.12786599 -0.0089053158 4283323725
0.1461571 -0.12914124 -0.0089745456 4283389772
0.14722209 -0.1304165 -0.0090437746 4283520845
0.14781438 -0.13145916 -0.014137211 4283388489
0.14832713 -0.13247213 -0.020219885 4282401081
0.14894775 -0.13354675 -0.025285868 4281019171
0.14984725 -0.1347596 -0.027402213 4279965715
0.15066603 -0.13593952 -0.030480107 4279570444
0.15158163 -0.13716789 -0.032540653 4280227605
0.15267466 -0.13847674 -0.032611709 4280556057
0.15376769 -0.1397856 -0.032682762 4280885024
0.15469222 -0.14102525 -0.034752794 4281082403
0.18141194 -0.17122692 -0.0092907883 4289244317
0.18247452 -0.17249931 -0.0093598627 4289441433
0.18353711 -0.17377171 -0.009428937 4289967771
0.18470672 -0.17503758 -0.0074627968 4290690724
0.18556114 -0.17632568 -0.011536035 4290755239
0.18672486 -0.17758889 -0.0096361591 4290359463
0.18778744 -0.17886129 -0.0097052334 4290293169
0.18894719 -0.18011534 -0.0077384519 4290556092
0.1900073 -0.18138477 -0.0078073656 4290621633
0.19106741 -0.18265422 -0.0078762788 4290358974
0.19221686 -0.18389656 -0.0059182718 4290228154
0.19327453 -0.18516305 -0.0059870258 4290360245
0.19433218 -0.18642955 -0.0060557798 4290361007
0.19538985 -0.18769604 -0.0061245337 4290295214
0.19652665 -0.18892385 -0.004175087 4290098102
0.19758186 -0.19018741 -0.0042436817 4290032056
0.19863707 -0.19145098 -0.0043122768 4290097335
0.19969228 -0.19271454 -0.004380872 4290097335
0.2007475 -0.19397812 -0.0044494667 4290096822
0.20180272 -0.19524169 -0.0045180619 4290227638
0.20285793 -0.19650526 -0.004586657 4290358711
0.20391314 -0.19776882 -0.0046552517 4290358711
0.20496836 -0.1990324 -0.0047238469 4290095539
0.20602357 -0.20029597 -0.0047924421 4290095539
0.20707878 -0.20155953 -0.0048610368 4290030259
0.13138127 -0.11514586 -0.024357064 4280427042
0.13246575 -0.11644448 -0.024427561 4280032286
0.13355023 -0.11774307 -0.024498057 4280032286
0.13463469 -0.11904167 -0.024568554 4280492583
0.13571917 -0.12034028 -0.024639051 4280295204
0.13680364 -0.12163889 -0.024709549 4280032032
0.1378881 -0.12293749 -0.024780044 4280689963
0.13917391 -0.12434147 -0.022893291 4281610552
0.14056462 -0.12579627 -0.019927202 4282597447
0.14204638 -0.12729214 -0.015980566 4283453268
0.14331777 -0.1286763 -0.014055394 4283125582
0.14468038 -0.1301017 -0.011149266 4283060043
0.14545994 -0.13124144 -0.014194647 4282928455
0.14614895 -0.13234368 -0.018264163 4282598975
0.147035 -0.13354425 -0.020347813 4281611565
0.14764835 -0.13462491 -0.025414517 4280492827
0.14854488 -0.13584024 -0.027531156 4279965715
0.14935926 -0.13702379 -0.030609485 4280096018
0.15027197 -0.13825455 -0.032670319 4280424473
0.15154049 -0.13963571 -0.030751277 4280621598
0.15245803 -0.14087227 -0.032812428 4280950565
0.15337965 -0.14211433 -0.034882747 4281147944
0.17707579 -0.16847488 -0.0071750744 4283584075
0.17813592 -0.16974431 -0.0072439881 4285954167
0.17919603 -0.17101376 -0.0073129018 4288652448
0.18025614 -0.1722832 -0.0073818155 4291020729
0.18143065 -0.17354958 -0.0054249545 4291481016
0.18248831 -0.17481607 -0.0054937084 4291152045
0.18354596 -0.17608257 -0.0055624624 4290559136
0.18449661 -0.17736095 -0.0076574702 4290361250
0.18566129 -0.17861557 -0.0056999708 4290820782
0.18671894 -0.17988206 -0.0057687247 4290557106
0.18777661 -0.18114856 -0.0058374787 4290753724
0.18883426 -0.18241505 -0.0059062326 4290621887
0.18989192 -0.18368155 -0.0059749866 4290227388
0.19094959 -0.18494806 -0.0060437405 4290096054
0.19209665 -0.18618222 -0.004094481 4290097075
0.19315186 -0.18744577 -0.0041630762 4290228910
0.19420707 -0.18870935 -0.0042316709 4290163630
0.1952623 -0.18997292 -0.004300266 4290229172
0.19631751 -0.19123648 -0.0043688607 4290163127
0.19737272 -0.19250005 -0.0044374559 4290097334
0.19842793 -0.19376361 -0.0045060511 4290096821
0.19948316 -0.19502719 -0.0045746458 4290227637
0.20053837 -0.19629076 -0.0046432409 4290227637
0.20159358 -0.19755433 -0.0047118361 4290293173
0.20264879 -0.19881789 -0.0047804308 4290293173
0.20370401 -0.20008147 -0.004849026 4290095794
0.20475923 -0.20134504 -0.0049176211 4290030258
0.20581444 -0.2026086 -0.0049862158 4290030258
0.13008186 -0.11622402 -0.024485713 4280230439
0.13116634 -0.11752263 -0.02455621 4279901476
0.13225082 -0.11882123 -0.024626708 4280427822
0.13333528 -0.12011983 -0.024697203 4280164650
0.13441975 -0.12141843 -0.024767701 4280953398
0.13550423 -0.12271705 -0.024838198 4280755506
0.13658871 -0.12401564 -0.024908694 4281807681
0.13787736 -0.12541726 -0.023021659 4281609788
0.13927251 -0.12686838 -0.02005513 4282332998
0.14035091 -0.12815972 -0.020125233 4282201157
0.14163192 -0.12954818 -0.018181972 4282202440
0.14270785 -0.13083658 -0.018251916 4281808194
0.14398064 -0.13221583 -0.016317269 4281018928
0.14485976 -0.13341337 -0.018391801 4281677109
0.14574289 -0.13461636 -0.020475741 4280690465
0.14653409 -0.13578327 -0.023584396 4280690206
0.14743342 -0.13700168 -0.025613664 4280097299
0.14851789 -0.13830027 -0.025684161 4280753948
0.14960235 -0.13959888 -0.025754657 4280950563
0.15068683 -0.14089748 -0.025825154 4281015847
0.15177131 -0.14219607 -0.025895651 4280423711
0.15285578 -0.14349468 -0.025966149 4281936949
0.15316254 -0.14451519 -0.035083912 4280819490
0.17275974 -0.16573559 -0.0050691455 4280754215
0.17368534 -0.16698994 -0.0071630073 4281544244
0.17474546 -0.16825938 -0.007231921 4283649620
0.17580557 -0.16952883 -0.0073008346 4286413694
0.17686568 -0.17079826 -0.0073697483 4288256920
0.17792581 -0.1720677 -0.007438662 4289309606
0.17910571 -0.17333458 -0.0054816697 4291086272
0.18028016 -0.17459559 -0.0035337093 4291875784
0.18133537 -0.17585915 -0.0036023045 4291349181
0.18239059 -0.17712273 -0.0036708994 4290822324
0.18344581 -0.1783863 -0.0037394944 4290689970
0.18450102 -0.17964986 -0.0038080893 4290361009
0.18555623 -0.18091343 -0.0038766845 4290491829
0.18661144 -0.18217701 -0.0039452794 4290556856
0.18766665 -0.18344057 -0.0040138746 4290490809
0.18872188 -0.18470414 -0.0040824693 4290490809
0.18977709 -0.18596771 -0.0041510644 4290556602
0.1908323 -0.18723127 -0.0042196596 4290556856
0.19188751 -0.18849485 -0.0042882543 4290425268
0.19294274 -0.18975842 -0.0043568495 4290359473
0.19399795 -0.19102198 -0.0044254446 4290359475
0.19505316 -0.19228555 -0.0044940393 4290162868
0.19610837 -0.19354911 -0.0045626345 4290162868
0.1971636 -0.19481269 -0.0046312292 4290293684
0.19821881 -0.19607626 -0.0046998244 4290293684
0.19927402 -0.19733983 -0.0047684195 4290293684
0.20032923 -0.19860339 -0.0048370147 4290293684
