# .PCD v0.7 - Point Cloud Data file format
VERSION 0.7
FIELDS x y z rgb
SIZE 4 4 4 4
TYPE F F F U
COUNT 1 1 1 1
WIDTH 1013
HEIGHT 1
VIEWPOINT 0 0 0 1 0 0 0
POINTS 1013
DATA ascii
0.17046529 -0.072381482 -0.073644169 4287336087
0.17164764 -0.073756434 -0.073726028 4287598230
0.17298315 -0.075439885 -0.070849724 4287663763
0.17416185 -0.076810576 -0.07093133 4287728527
0.17544162 -0.078389227 -0.06896168 4287925134
0.17661777 -0.079756945 -0.069043107 4288188306
0.17779391 -0.081124678 -0.069124535 4287860113
0.17897005 -0.082492396 -0.069205962 4287860113
0.1801462 -0.083860122 -0.06928739 4287925906
0.18144846 -0.085503556 -0.066439889 4287925906
0.18262097 -0.086867057 -0.066521063 4287925906
0.18367462 -0.087963291 -0.069531672 4287925906
0.18485077 -0.089331016 -0.069613099 4287860111
0.18602692 -0.090698741 -0.069694526 4287860111
0.18720305 -0.092066467 -0.069775954 4287794318
0.18837918 -0.093434185 -0.069857381 4287202181
0.18955533 -0.09480191 -0.069938809 4287333765
0.19066346 -0.096000127 -0.07207378 4287728523
0.19184215 -0.097370811 -0.072155379 4287662730
0.19302084 -0.098741494 -0.072236985 4287794316
0.19419952 -0.10011218 -0.072318591 4288189074
0.19537821 -0.10148286 -0.07240019 4288319633
0.1965569 -0.10285354 -0.072481796 4286606192
0.19773559 -0.10422423 -0.072563402 4283052343
0.16554567 -0.06942372 -0.073620409 4287666081
0.16672803 -0.070798673 -0.073702268 4287994276
0.16791038 -0.07217361 -0.073784128 4287599518
0.16925751 -0.073861986 -0.070907645 4287336087
0.17054786 -0.075447008 -0.068938047 4287532437
0.17172401 -0.076814733 -0.069019474 4287663508
0.17290016 -0.078182459 -0.069100901 4287860113
0.17407629 -0.079550177 -0.069182329 4287990927
0.17539731 -0.081206918 -0.066335157 4288122513
0.17656982 -0.082570419 -0.066416331 4287860113
0.17774233 -0.08393392 -0.066497505 4287925906
0.17891484 -0.085297421 -0.066578679 4287925906
0.18008736 -0.086660914 -0.06665986 4287991699
0.18125987 -0.088024423 -0.066741034 4287991699
0.18243237 -0.089387916 -0.066822208 4287925906
0.18360488 -0.090751417 -0.066903383 4287925904
0.18477739 -0.092114918 -0.066984564 4287860111
0.18583772 -0.093227416 -0.069996603 4287662732
0.18701385 -0.094595134 -0.07007803 4287202181
0.18819 -0.09596286 -0.070159458 4287465351
0.18936615 -0.097330585 -0.070240885 4287728523
0.19054228 -0.098698311 -0.070322312 4287531144
0.19171843 -0.10006603 -0.07040374 4287728523
0.19289456 -0.10143375 -0.070485167 4288123281
0.19407071 -0.10280148 -0.070566595 4288319633
0.19524686 -0.1041692 -0.070648022 4286343533
0.19642299 -0.10553692 -0.070729449 4282658099
0.24308047 -0.16251165 -0.0077226362 4281477402
0.2441249 -0.16380849 -0.0057890858 4282924076
0.16435315 -0.070913397 -0.07088396 4287929253
0.16553184 -0.07228408 -0.070965566 4288060069
0.16671053 -0.073654763 -0.071047164 4287665311
0.16800641 -0.075240232 -0.069077268 4287466903
0.16918254 -0.07660795 -0.069158696 4287466644
0.17035869 -0.077975675 -0.069240123 4287663508
0.17153482 -0.079343401 -0.06932155 4287860372
0.17286368 -0.081000783 -0.066473946 4287925906
0.17403619 -0.082364284 -0.06655512 4288056720
0.1752087 -0.083727784 -0.066636294 4287925906
0.17638122 -0.085091285 -0.066717476 4287925906
0.17755373 -0.086454779 -0.06679865 4287991699
0.17872624 -0.08781828 -0.066879824 4287991699
0.1800328 -0.089452408 -0.063960589 4287991699
0.18107127 -0.090545282 -0.067042179 4287991699
0.18224376 -0.091908783 -0.067123353 4287925904
0.18341628 -0.093272284 -0.067204528 4287925904
0.18458879 -0.094635785 -0.067285702 4287860111
0.1857613 -0.095999286 -0.067366883 4287465353
0.18693382 -0.097362787 -0.067448057 4287596937
0.18800081 -0.098491527 -0.070461534 4287728523
0.18917696 -0.099859253 -0.070542961 4287399558
0.19045134 -0.10145328 -0.067691587 4287662730
0.19152924 -0.1025947 -0.070705816 4288123281
0.19279636 -0.10418028 -0.067853935 4288253840
0.19396888 -0.10554378 -0.067935109 4285752166
0.19514139 -0.10690729 -0.068016291 4282329647
0.22320503 -0.14203256 -0.0046333214 4281016346
0.22429684 -0.1433022 -0.0047089099 4280292623
0.22538863 -0.14457186 -0.0047844979 4280818967
0.22647069 -0.14590631 -0.0028619266 4280357902
0.22756003 -0.14717309 -0.0029373439 4281081625
0.22864936 -0.14843987 -0.0030127615 4280752658
0.2297387 -0.14970663 -0.0030881788 4281015830
0.23082803 -0.15097341 -0.0031635964 4281147416
0.23191737 -0.15224019 -0.003239014 4280885014
0.23303126 -0.15345937 -0.0053136162 4281608737
0.23409604 -0.15477374 -0.0033898489 4281345822
0.23518537 -0.15604052 -0.0034652662 4282661682
0.2362747 -0.1573073 -0.0035406838 4282859316
0.23736404 -0.15857407 -0.0036161011 4284306760
0.23845337 -0.15984085 -0.0036915187 4284570186
0.23948401 -0.16115294 -0.0007835835 4285359702
0.24056967 -0.16241543 -0.000858746 4286675562
0.24176568 -0.16361654 -0.0059183231 4286082910
0.24281071 -0.16490795 -0.0039931885 4286477668
0.16329499 -0.072613642 -0.066125683 4287665309
0.16446751 -0.07397715 -0.066206858 4287862690
0.16546492 -0.075033456 -0.06921649 4287665311
0.16664107 -0.076401174 -0.069297917 4287532696
0.16798504 -0.078067653 -0.066450387 4287466644
0.16915755 -0.079431146 -0.066531561 4287597715
0.17033006 -0.080794647 -0.066612735 4287860372
0.17150258 -0.082158141 -0.066693917 4287991699
0.17267507 -0.083521649 -0.066775091 4287860113
0.17384759 -0.084885143 -0.066856265 4287925906
0.17516963 -0.086528569 -0.063937098 4287925906
0.17633842 -0.087887742 -0.064018019 4287991699
0.17750721 -0.089246921 -0.064098939 4287991699
0.17867601 -0.090606093 -0.06417986 4287991699
0.1798448 -0.091965273 -0.064260773 4287991699
0.18101358 -0.093324445 -0.064341694 4287925904
0.18218239 -0.094683625 -0.064422615 4287925904
0.18335117 -0.096042797 -0.064503528 4287991697
0.18451996 -0.097401977 -0.064584449 4287596939
0.1855727 -0.098520145 -0.067668028 4287596937
0.18674521 -0.099883653 -0.067749202 4287596937
0.18791772 -0.10124715 -0.067830376 4287399558
0.18909024 -0.10261065 -0.06791155 4287794316
0.19026273 -0.10397415 -0.067992732 4288320660
0.19143525 -0.10533765 -0.068073906 4288319890
0.19260776 -0.10670115 -0.06815508 4285423458
0.19378027 -0.10806465 -0.068236254 4282001965
0.21865423 -0.13922137 -0.0066180201 4280357900
0.219754 -0.14057097 -0.0046869721 4280226313
0.2208458 -0.14184062 -0.0047625606 4279963141
0.2219376 -0.14311026 -0.0048381491 4280489485
0.2230294 -0.14437991 -0.0049137375 4280423435
0.22411679 -0.1457148 -0.0029908731 4281344535
0.22520614 -0.14698158 -0.0030662906 4281147156
0.22629547 -0.14824834 -0.003141708 4282528809
0.22738481 -0.14951512 -0.0032171255 4283055153
0.22847414 -0.1507819 -0.0032925429 4283976255
0.22956347 -0.15204868 -0.0033679605 4284897616
0.23067202 -0.15326743 -0.0054428554 4284898386
0.23176382 -0.15453708 -0.0055184439 4286082660
0.23285563 -0.15580672 -0.0055940324 4286148964
0.23394743 -0.15707636 -0.0056696204 4287727996
0.23501015 -0.15838256 -0.0037450478 4287860095
0.23609948 -0.15964934 -0.0038204652 4289110160
0.23718882 -0.16091612 -0.0038958827 4289241746
0.23822372 -0.16222456 -0.00098725653 4289768090
0.23930937 -0.16348706 -0.001062419 4290228382
0.24039502 -0.16474956 -0.0011375818 4289569939
0.24148068 -0.16601205 -0.0012127443 4288714630
0.24256633 -0.16727455 -0.001287907 4288450943
0.16193388 -0.073771 -0.066345647 4286152070
0.1631064 -0.075134508 -0.066426829 4287467932
0.16427891 -0.076498002 -0.066508003 4287599005
0.16545141 -0.077861503 -0.066589177 4287664282
0.16680008 -0.079527207 -0.063670859 4287401108
0.16796885 -0.080886379 -0.063751779 4287466644
0.16913766 -0.082245559 -0.0638327 4287663508
0.17030644 -0.083604731 -0.063913614 4287860372
0.17147525 -0.08496391 -0.063994534 4287860113
0.17264403 -0.086323082 -0.064075455 4287925906
0.17391635 -0.087868154 -0.062136937 4287991699
0.17508264 -0.08922442 -0.062217683 4287991699
0.17624892 -0.090580687 -0.062298428 4288057492
0.17741522 -0.091936953 -0.062379174 4288057492
0.178488 -0.093118966 -0.064480044 4287991699
0.17965679 -0.094478145 -0.064560965 4287991697
0.18091409 -0.096005753 -0.062621407 4287925904
0.18199438 -0.09719649 -0.064722799 4287860111
0.18316317 -0.098555669 -0.06480372 4287465353
0.18433195 -0.099914849 -0.06488464 4287465351
0.18538409 -0.10104101 -0.067969166 4287531144
0.18655661 -0.10240451 -0.06805034 4287531144
0.18783833 -0.10399237 -0.065127395 4288057488
0.18890163 -0.10513151 -0.068212695 4288386453
0.19017592 -0.10671072 -0.065289229 4288056718
0.19134471 -0.1080699 -0.06537015 4284239954
0.1925135 -0.10942908 -0.065451071 4281278499
0.21739477 -0.14037903 -0.0048162108 4281607707
0.21849489 -0.14172296 -0.0028935664 4281870879
0.21958423 -0.14298972 -0.002968984 4283318325
0.22067356 -0.1442565 -0.0030444013 4284107841
0.2217629 -0.14552328 -0.0031198189 4284896841
0.22285223 -0.14679006 -0.0031952362 4285817943
0.22394158 -0.14805683 -0.0032706538 4286081115
0.22503091 -0.14932361 -0.0033460713 4287068010
0.22612025 -0.15059039 -0.0034214887 4287791733
0.22720958 -0.15185717 -0.0034969063 4288515970
0.22827819 -0.15319623 -0.00058962841 4288977036
0.2294046 -0.15434512 -0.0056476821 4289438614
0.23049641 -0.15561478 -0.0057232706 4289438614
0.2315882 -0.15688442 -0.0057988586 4290557608
0.23268001 -0.15815406 -0.0058744471 4290162850
0.23377182 -0.15942371 -0.0059500355 4291083952
0.23479213 -0.16077121 -0.0010406042 4290820780
0.23587778 -0.16203369 -0.0011157667 4291215538
0.23696344 -0.16329619 -0.0011909296 4290689192
0.23804909 -0.16455869 -0.0012660922 4290623399
0.23913474 -0.16582118 -0.0013412548 4289899419
0.2402204 -0.16708368 -0.0014164173 4288714632
0.24130605 -0.16834618 -0.00149158 4288779653
0.16174528 -0.076291874 -0.066646792 4287138708
0.16291779 -0.077655368 -0.066727966 4287533466
0.16427448 -0.07932172 -0.063809209 4287730075
0.16544329 -0.080680899 -0.063890129 4287466901
0.16661207 -0.082040064 -0.06397105 4287335058
0.16778086 -0.083399244 -0.064051963 4287531922
0.16906358 -0.084950574 -0.062113505 4287729301
0.17022988 -0.08630684 -0.062194251 4287860372
0.17139617 -0.087663107 -0.062274992 4287991699
0.17256245 -0.089019373 -0.062355738 4287991699
0.17372875 -0.090375639 -0.062436484 4288057492
0.17489503 -0.091731906 -0.062517233 4288057492
0.17621104 -0.093352571 -0.059540056 4288057492
0.17737354 -0.094704434 -0.059620537 4288057492
0.17853604 -0.096056297 -0.059701022 4287991697
0.17969856 -0.097408161 -0.059781503 4287991697
0.18086106 -0.098760024 -0.059861988 4287794318
0.18202356 -0.10011189 -0.059942469 4287465353
0.18318605 -0.10146375 -0.060022954 4287531144
0.18422535 -0.10258204 -0.063163191 4287662730
0.18539165 -0.1039383 -0.06324394 4287662730
0.18655793 -0.10529457 -0.063324682 4288057488
0.18765034 -0.10650524 -0.065427579 4287925902
0.18889052 -0.1080071 -0.063486174 4287070593
0.1900568 -0.10936337 -0.063566916 4282924607
0.1912231 -0.11071964 -0.063647665 4280292887
0.20851566 -0.13266401 -0.0024945908 4280950557
0.20964745 -0.13406792 0.00040930067 4279437568
0.21066834 -0.13510849 -0.0046430947 4279963909
0.21176013 -0.13637812 -0.0047186832 4280950804
0.21285194 -0.13764778 -0.0047942712 4282398250
0.21394375 -0.13891742 -0.0048698597 4284174147
0.21503554 -0.14018707 -0.0049454481 4285753179
0.21612735 -0.14145671 -0.0050210361 4286871660
0.21721914 -0.14272636 -0.0050966246 4287463797
0.21831095 -0.143996 -0.0051722131 4288516485
0.21940276 -0.14526565 -0.0052478011 4288911243
0.22049834 -0.14659855 -0.0033241829 4289766039
0.22158767 -0.14786533 -0.0033996003 4289897625
0.22267701 -0.1491321 -0.0034750178 4290358176
0.22376095 -0.15048037 -0.00056781364 4290358176
0.2248466 -0.15174286 -0.00064297626 4290950313
0.22593226 -0.15300536 -0.00071813888 4291082412
0.22701791 -0.15426786 -0.00079330144 4290622377
0.22812368 -0.15546598 -0.0038521052 4291017648
0.22921301 -0.15673275 -0.0039275228 4290688683
0.23030236 -0.15799953 -0.0040029404 4291347126
0.23141259 -0.15923175 -0.0060792728 4290557610
0.2325044 -0.16050141 -0.0061548613 4290952882
0.23353183 -0.16184284 -0.0012442773 4290426538
0.23461749 -0.16310532 -0.0013194398 4290623917
0.23567156 -0.1643915 0.00066043774 4290755503
0.23675467 -0.16565105 0.00058545062 4290886575
0.23783781 -0.1669106 0.00051046332 4289899167
0.23892093 -0.16817015 0.00043547599 4289569689
0.24000405 -0.1694297 0.00036048883 4288910989
0.16038416 -0.07744924 -0.066866763 4286875536
0.16155668 -0.078812733 -0.066947937 4287401880
0.16291769 -0.080475412 -0.064028479 4287861661
0.16408648 -0.081834592 -0.0641094 4287532696
0.16537711 -0.083389267 -0.062170815 4287335058
0.16654341 -0.084745534 -0.06225156 4287400849
0.16770969 -0.0861018 -0.062332302 4287663508
0.16887598 -0.087458067 -0.062413048 4287729301
0.17004228 -0.088814333 -0.062493794 4287926165
0.17137404 -0.090444475 -0.059516694 4287991699
0.17253654 -0.091796339 -0.059597179 4288057492
0.17369904 -0.093148194 -0.05967766 4288057492
0.17486154 -0.094500057 -0.059758145 4288057492
0.17602405 -0.095851921 -0.059838627 4288057492
0.17718655 -0.097203784 -0.059919111 4287991697
0.17834905 -0.098555647 -0.059999593 4287991697
0.17951156 -0.09990751 -0.060080077 4287925904
0.18067406 -0.10125937 -0.060160559 4287596939
0.18183656 -0.10261124 -0.060241044 4287662730
0.18299906 -0.1039631 -0.060321525 4287794316
0.18416157 -0.10531496 -0.06040201 4287794316
0.18532407 -0.10666683 -0.060482491 4287925902
0.18648657 -0.10801868 -0.060562976 4287399558
0.18764907 -0.10937054 -0.060643457 4286149491
0.1888826 -0.11085825 -0.058722734 4282530876
0.19004263 -0.11220723 -0.058803048 4280096535
0.20616177 -0.13247249 -0.0026235357 4280292887
0.2072511 -0.13373926 -0.002698953 4280161041
0.20838717 -0.13513955 0.0002056285 4282201133
0.20947282 -0.13640204 0.00013046585 4283122488
0.21051911 -0.1375396 -0.0029252055 4284767313
0.21160844 -0.13880637 -0.0030006228 4286675310
0.21269777 -0.14007315 -0.0030760404 4288451208
0.21378711 -0.14133993 -0.0031514578 4289635482
0.21487644 -0.14260671 -0.0032268753 4290227619
0.21596578 -0.14387347 -0.0033022929 4290424998
0.21705511 -0.14514025 -0.0033777102 4290753963
0.21814445 -0.14640702 -0.0034531278 4290556584
0.21924371 -0.1477645 -0.00054599781 4291213744
0.22032312 -0.14894058 -0.0036039627 4290621607
0.22141246 -0.15020736 -0.0036793801 4291279537
0.22250067 -0.15155199 -0.00077148579 4290687400
0.22358632 -0.15281449 -0.00084664841 4291213744
0.22467197 -0.15407698 -0.00092181104 4290951342
0.22574925 -0.15538424 0.0010571376 4290885807
0.22684328 -0.15660198 -0.0010721362 4290622635
0.22794847 -0.15780801 -0.0041318848 4291083699
0.22899862 -0.15916289 0.00083217595 4290359976
0.23008174 -0.16042244 0.00075718865 4290755504
0.23116486 -0.16168198 0.00068220153 4290031783
0.23224796 -0.16294153 0.0006072144 4290623920
0.2333311 -0.16420108 0.00053222704 4290360748
0.2344142 -0.16546063 0.00045723992 4290426541
0.23549733 -0.16672018 0.00038225277 4290821299
0.23658045 -0.16797973 0.00030726547 4289504671
0.23766358 -0.16923928 0.00023227815 4290096295
0.23874669 -0.17049883 0.000157291 4288385164
0.1592233 -0.078910761 -0.064085916 4285625467
0.16039209 -0.080269933 -0.064166836 4287599257
0.16156089 -0.081629112 -0.06424775 4288256419
0.16285694 -0.083184227 -0.06230887 4287730075
0.16402322 -0.084540494 -0.062389616 4287730075
0.1651895 -0.08589676 -0.062470358 4287532694
0.1663558 -0.087253019 -0.062551104 4287335058
0.16769953 -0.088888235 -0.059573822 4287795094
0.16886203 -0.090240099 -0.059654303 4287926165
0.17002453 -0.091591962 -0.059734788 4287991699
0.17118704 -0.092943825 -0.059815269 4288057492
0.17234954 -0.094295688 -0.059895754 4288057492
0.17361565 -0.095815472 -0.057976622 4288057492
0.17467454 -0.096999407 -0.06005672 4288057492
0.1759357 -0.098513439 -0.058137245 4287991697
0.17709573 -0.099862427 -0.058217555 4287991697
0.17816205 -0.101055 -0.060298167 4287925904
0.17932455 -0.10240686 -0.060378652 4287728525
0.18048707 -0.10375872 -0.060459133 4287728523
0.18164957 -0.10511059 -0.060539618 4287531144
0.18281206 -0.10646245 -0.060620099 4287794316
0.18405589 -0.10795633 -0.058699425 4288583832
0.18521592 -0.10930531 -0.058779739 4286741628
0.18637595 -0.1106543 -0.058860049 4282794048
0.18753599 -0.11200328 -0.058940362 4280820258
0.18869601 -0.11335227 -0.059020672 4280491806
0.20386991 -0.13242368 0.00022744334 4279898386
0.20489721 -0.13354775 -0.0028278998 4280029715
0.20598654 -0.13481453 -0.0029033171 4283714121
0.20707588 -0.13608131 -0.0029787347 4286412400
0.20816521 -0.13734809 -0.003054152 4287860614
0.20925455 -0.13861486 -0.0031295696 4289505439
0.21034388 -0.13988164 -0.0032049869 4290229162
0.21143322 -0.14114842 -0.0032804045 4290360748
0.21255514 -0.14252366 -0.00037385774 4290492334
0.21361189 -0.14368196 -0.0034312394 4290820529
0.21472645 -0.14504865 -0.00052418298 4290952115
0.2158121 -0.14631115 -0.00059934566 4290754736
0.21687989 -0.14748229 -0.0036574919 4290754736
0.21798341 -0.14883614 -0.0007496709 4290754223
0.21906906 -0.15009864 -0.00082483346 4290688430
0.22015472 -0.15136112 -0.0008999962 4290688432
0.22124039 -0.15262362 -0.00097515888 4290688432
0.22232604 -0.15388612 -0.0010503215 4290754225
0.22341169 -0.15514861 -0.0011254841 4290754225
0.22449191 -0.15645336 0.00085394073 4290688691
0.225583 -0.15767361 -0.0012758094 4290622898
0.22666866 -0.1589361 -0.0013509719 4290622898
0.22774127 -0.16023201 0.00062897906 4290622898
0.22882439 -0.16149156 0.00055399176 4290492082
0.22990751 -0.16275111 0.00047900461 4290426290
0.23099063 -0.16401066 0.00040401745 4290360754
0.23207375 -0.16527021 0.00032903015 4290360754
0.23315687 -0.16652976 0.000254043 4290426290
0.23424 -0.16778931 0.00017905585 4290294704
0.23529361 -0.16906112 0.0020751865 4290162094
0.23640624 -0.17030841 2.9081224e-05 4289701286
0.23748936 -0.17156796 -4.5905923e-05 4289042843
0.15786651 -0.080064446 -0.064305186 4284308837
0.15917046 -0.081622913 -0.06236618 4286217604
0.16033675 -0.08297918 -0.062446926 4287730075
0.16150303 -0.084335446 -0.062527671 4287730075
0.16286252 -0.085980132 -0.05955046 4287532696
0.16383561 -0.087047979 -0.062689163 4287401110
0.16518754 -0.088683851 -0.059711426 4287466903
0.16635004 -0.090035714 -0.059791908 4287861402
0.16762891 -0.091564581 -0.057872999 4287926165
0.16878894 -0.092913561 -0.057953309 4287991699
0.16994897 -0.094262548 -0.058033623 4287991699
0.17110899 -0.095611528 -0.058113933 4288057492
0.17226903 -0.096960515 -0.058194246 4288057492
0.17342906 -0.098309502 -0.058274556 4287991699
0.17458908 -0.099658482 -0.058354869 4287991697
0.17574911 -0.10100747 -0.058435179 4287991697
0.17690913 -0.10235645 -0.058515493 4287991697
0.17806916 -0.10370544 -0.058595803 4287596939
0.1792292 -0.10505442 -0.058676116 4287465351
0.18030007 -0.10625806 -0.060757708 4287728523
0.18154925 -0.10775239 -0.05883674 4287860109
0.18270928 -0.10910138 -0.058917053 4287004800
0.1838693 -0.11045036 -0.058997363 4284175701
0.18502933 -0.11179934 -0.059077673 4280951844
0.18618935 -0.11314832 -0.059157986 4280491806
0.18734939 -0.11449731 -0.0592383 4280886564
0.20260963 -0.13349532 2.3770262e-05 4281872176
0.20369528 -0.13475782 -5.139237e-05 4284306517
0.20478094 -0.13602032 -0.00012655501 4288714902
0.20586659 -0.1372828 -0.00020171764 4289242528
0.20695224 -0.1385453 -0.00027688028 4289966765
0.20798998 -0.13969013 -0.0033339337 4290756281
0.20907931 -0.14095689 -0.0034093512 4290690488
0.21016864 -0.14222367 -0.0034847686 4290295730
0.21129486 -0.14359528 -0.00057753082 4290164144
0.21234733 -0.14475723 -0.0036356035 4290361009
0.21343666 -0.146024 -0.003711021 4290426802
0.21455182 -0.14738277 -0.00080301875 4290426802
0.21563748 -0.14864527 -0.00087818131 4290426802
0.21672313 -0.14990777 -0.00095334393 4290426289
0.21780878 -0.15117025 -0.0010285066 4290426289
0.21890208 -0.1524843 0.00095069176 4290426290
0.2199852 -0.15374385 0.00087570463 4290426290
0.22106832 -0.1550034 0.00080071727 4290426290
0.22215144 -0.15626295 0.00072573009 4290492083
0.22323456 -0.15752248 0.00065074291 4290622645
0.22431768 -0.15878204 0.00057575566 4290622645
0.22540081 -0.16004159 0.00050076848 4290622645
0.22648393 -0.16130114 0.00042578124 4290491829
0.22755493 -0.16258751 0.0023213583 4290491831
0.22865017 -0.16382024 0.00027580676 4290360758
0.22973329 -0.16507979 0.00020081963 4290360758
0.23079701 -0.16635768 0.0020969009 4290360758
0.2318777 -0.1676144 0.002022082 4290426040
0.23295839 -0.16887113 0.0019472629 4290360247
0.23403908 -0.17012785 0.0018724439 4290359477
0.23511977 -0.17138457 0.0017976247 4289898926
0.23620047 -0.17264131 0.0017228058 4289240483
0.15802552 -0.083072029 -0.059527103 4284177251
0.15918802 -0.084423892 -0.059607584 4286677387
0.16035053 -0.085775755 -0.059688069 4287730075
0.16164218 -0.087313689 -0.057769377 4287336087
0.16267553 -0.088479482 -0.059849035 4287336087
0.16383803 -0.089831337 -0.059929516 4287533466
0.16512226 -0.091360636 -0.058010314 4287532437
0.16628228 -0.092709623 -0.058090623 4287926165
0.16744231 -0.094058603 -0.058170937 4287991699
0.16860235 -0.09540759 -0.058251247 4287991699
0.16976237 -0.096756577 -0.05833156 4287991699
0.1709224 -0.098105557 -0.05841187 4287991699
0.17208242 -0.099454544 -0.058492184 4287991699
0.17324245 -0.10080352 -0.058572493 4287991697
0.17440249 -0.10215251 -0.058652807 4287991697
0.17556252 -0.1035015 -0.058733121 4287925904
0.17672254 -0.10485048 -0.05881343 4287925904
0.17788257 -0.10619947 -0.058893744 4287860109
0.17904259 -0.10754845 -0.058974054 4287925902
0.18020262 -0.10889743 -0.059054367 4287136386
0.18136266 -0.11024642 -0.059134677 4284504666
0.18252268 -0.1115954 -0.059214991 4281543981
0.18368271 -0.11294438 -0.0592953 4280162328
0.18484274 -0.11429337 -0.059375614 4280754978
0.19801074 -0.13063118 -0.0029349572 4279702290
0.19910008 -0.13189796 -0.0030103745 4281215529
0.20026368 -0.13330445 -0.00010474017 4283912529
0.20134933 -0.13456695 -0.00017990281 4286741628
0.20243499 -0.13582945 -0.00025506545 4288978590
0.20352064 -0.13709193 -0.00033022807 4291347138
0.20460629 -0.13835444 -0.00040539072 4290690489
0.20569195 -0.13961694 -0.00048055337 4290888381
0.2067776 -0.14087942 -0.00055571599 4290888381
0.20786326 -0.14214192 -0.00063087861 4290493623
0.20894891 -0.14340442 -0.00070604123 4290098865
0.21003456 -0.14466691 -0.00078120385 4290033072
0.21112022 -0.14592941 -0.00085636653 4290295733
0.21220587 -0.14719191 -0.00093152915 4290361526
0.21329153 -0.1484544 -0.0010066918 4290164147
0.21439537 -0.14977477 0.00097245554 4290098354
0.21547849 -0.15103433 0.00089746836 4290229172
0.21656162 -0.15229388 0.00082248118 4290229172
0.21764474 -0.15355343 0.00074749393 4290229172
0.21872786 -0.15481298 0.00067250675 4290294965
0.21981098 -0.15607253 0.00059751945 4290294965
0.22089694 -0.15737061 0.0024927119 4290360758
0.22197722 -0.15859163 0.00044754508 4290491833
0.22306034 -0.15985116 0.00037255784 4290491833
0.22414346 -0.16111071 0.00029757063 4290491833
0.22522658 -0.16237026 0.0002225834 4290491833
0.2263097 -0.16362981 0.00014759609 4290426040
0.2273811 -0.16491096 0.0020437974 4290360504
0.22847594 -0.16614892 -2.3782063e-06 4290360504
0.22954248 -0.16742441 0.0018941594 4290229688
0.23062317 -0.16868113 0.0018193403 4290360506
0.23170386 -0.16993786 0.0017445212 4290294713
0.23275989 -0.1712023 0.0037082606 4290228407
0.23383808 -0.1724561 0.0036336153 4289964465
0.23494594 -0.17370804 0.0015200641 4289372071
0.15667602 -0.084219508 -0.059745193 4282006082
0.15783852 -0.085571371 -0.059825674 4284900976
0.15900104 -0.086923234 -0.059906159 4286875536
0.16029556 -0.088458724 -0.057987005 4287204501
0.16132604 -0.08962696 -0.060067125 4287599259
0.16261561 -0.091156691 -0.058147628 4287730591
0.16377564 -0.092505679 -0.058227938 4287072145
0.16511525 -0.094107755 -0.055366751 4287991958
0.16627163 -0.095452502 -0.055446811 4287991699
0.16742802 -0.096797258 -0.055526871 4287991699
0.16858441 -0.098142013 -0.055606931 4287991699
0.1697408 -0.099486761 -0.055686988 4287991699
0.17089719 -0.10083152 -0.055767048 4287991699
0.17205358 -0.10217626 -0.055847108 4287991697
0.17320997 -0.10352101 -0.055927169 4288057490
0.17436635 -0.10486577 -0.056007229 4287794318
0.17552274 -0.10621051 -0.056087289 4288320662
0.17653595 -0.1073445 -0.059111368 4287925902
0.17769597 -0.10869349 -0.059191678 4286741628
0.178856 -0.11004247 -0.059271991 4284767838
0.18001603 -0.11139145 -0.059352301 4281741360
0.18117605 -0.11274043 -0.059432615 4280228121
0.18246107 -0.11427902 -0.056567647 4281017637
0.18361746 -0.11562378 -0.056647707 4281478701
0.19565685 -0.13043967 -0.0030639037 4281149736
0.19674619 -0.13170645 -0.0031393212 4283057733
0.19791774 -0.13311358 -0.00023324971 4285886832
0.1990034 -0.13437608 -0.00030841233 4288518552
0.20014058 -0.13572931 0.0016691053 4290492342
0.20117471 -0.13690107 -0.0004587376 4291149759
0.20226036 -0.13816357 -0.00053390022 4291018686
0.20334601 -0.13942607 -0.0006090629 4290427576
0.20443167 -0.14068855 -0.00068422552 4290296503
0.20551732 -0.14195105 -0.00075938815 4290099124
0.20660298 -0.14321354 -0.00083455077 4289901745
0.20768863 -0.14447604 -0.00090971339 4289835952
0.20880555 -0.1458057 0.0010692076 4290033331
0.20988867 -0.14706525 0.00099422038 4290295992
0.21097179 -0.1483248 0.00091923308 4290427578
0.21205491 -0.14958435 0.00084424589 4290032820
0.21315828 -0.15089698 0.0027388847 4290032820
0.21423897 -0.15215372 0.0026640655 4290098102
0.21531966 -0.15341043 0.0025892465 4290098102
0.21640036 -0.15466715 0.0025144273 4290098102
0.21748105 -0.15592389 0.0024396083 4290163895
0.21856174 -0.15718061 0.0023647891 4290163895
0.21964243 -0.15843734 0.0022899702 4290360504
0.22072312 -0.15969406 0.0022151512 4290491579
0.22180381 -0.16095078 0.002140332 4290491579
0.22288451 -0.16220751 0.0020655131 4290491579
0.2239652 -0.16346423 0.0019906939 4290360506
0.22504589 -0.16472095 0.0019158749 4290360506
0.22612658 -0.16597769 0.0018410557 4290229690
0.22720727 -0.16723441 0.0017662367 4290229690
0.22828797 -0.16849114 0.0016914177 4290163897
0.22935192 -0.16975895 0.00365528 4290360506
0.23043011 -0.17101274 0.0035806347 4290097334
0.23148663 -0.17227176 0.00553559 4289833650
0.23258647 -0.17352036 0.0034313442 4289438891
0.23366465 -0.17477417 0.0033566989 4289043364
0.15532652 -0.085366994 -0.059963282 4280558636
0.15648903 -0.086718857 -0.060043763 4282664014
0.1577889 -0.08825478 -0.058124319 4284901746
0.15894893 -0.089603767 -0.058204629 4286151559
0.16010895 -0.090952754 -0.058284942 4287270553
0.16126898 -0.092301741 -0.058365252 4287862691
0.162429 -0.093650721 -0.058445565 4287466903
0.16377285 -0.095249206 -0.055583693 4287991958
0.16492924 -0.096593954 -0.055663753 4288057492
0.16608563 -0.097938702 -0.055743814 4287991699
0.16724202 -0.099283457 -0.055823874 4287925906
0.1683984 -0.1006282 -0.055903934 4287925906
0.1695548 -0.10197296 -0.05598399 4287991699
0.17071117 -0.10331771 -0.056064051 4288057490
0.17197873 -0.10481683 -0.054077171 4288057490
0.17302395 -0.10600721 -0.056224171 4287991697
0.17418034 -0.10735197 -0.056304231 4288123283
0.17533673 -0.10869671 -0.056384291 4286478456
0.17649312 -0.11004147 -0.056464352 4283978322
0.17750938 -0.11118751 -0.059489615 4282004532
0.17866941 -0.1125365 -0.059569929 4280293914
0.17982943 -0.11388548 -0.059650239 4280162328
0.18098946 -0.11523446 -0.059730552 4281741360
0.18227506 -0.11676522 -0.056864649 4281347115
0.19130139 -0.12798159 0.001990818 4281807666
0.19238451 -0.12924114 0.0019158308 4283123526
0.19346763 -0.13050069 0.0018408436 4284768351
0.19448616 -0.13166022 -0.0002865975 4286413176
0.19557181 -0.13292271 -0.00036176015 4288519322
0.19665746 -0.13418521 -0.00043692277 4289966768
0.19780011 -0.13553889 0.0015408947 4290164147
0.19888324 -0.13679844 0.0014659074 4290427319
0.19996636 -0.13805799 0.0013909203 4291084479
0.20104948 -0.13931753 0.0013159331 4290690491
0.2021326 -0.14057708 0.0012409458 4290361783
0.20321572 -0.14183663 0.0011659586 4290230197
0.20429884 -0.14309618 0.0010909714 4290164404
0.20538196 -0.14435573 0.0010159841 4290164404
0.20646508 -0.14561528 0.00094099692 4290164404
0.2075482 -0.14687483 0.00086600968 4290164404
0.20863132 -0.14813438 0.0007910225 4290163893
0.20971444 -0.14939393 0.00071603525 4290163893
0.21079756 -0.15065348 0.00064104807 4290229688
0.21190375 -0.15196371 0.0025361429 4290229688
0.21298444 -0.15322044 0.0024613237 4290294711
0.21406513 -0.15447716 0.0023865048 4290294711
0.21514583 -0.15573388 0.0023116856 4290294713
0.21622652 -0.15699062 0.0022368666 4290294713
0.21730721 -0.15824734 0.0021620474 4290360506
0.2183879 -0.15950407 0.0020872285 4290360506
0.21947487 -0.16079275 0.004050171 4290491579
0.22055304 -0.16204655 0.003975526 4290425786
0.22163123 -0.16330037 0.0039008805 4290360506
0.2227094 -0.16455416 0.0038262352 4290360506
0.22378759 -0.16580798 0.0037515899 4290360506
0.22486576 -0.16706178 0.0036769446 4290163897
0.22594395 -0.16831559 0.0036022994 4290163895
0.22702214 -0.16956939 0.0035276541 4290098615
0.22810031 -0.1708232 0.0034530088 4290163895
0.22916225 -0.17208265 0.00540826 4289769137
0.23023793 -0.17333356 0.0053337878 4289307818
0.23131362 -0.17458445 0.0052593155 4288912801
0.2323893 -0.17583536 0.0051848432 4288714398
0.15513954 -0.087866344 -0.060261853 4280821810
0.15644227 -0.089399822 -0.058341943 4282401612
0.15760231 -0.090748809 -0.058422256 4284046696
0.15876234 -0.092097796 -0.058502566 4285757314
0.15992236 -0.093446784 -0.05858288 4287270554
0.16108239 -0.094795763 -0.058663189 4287927970
0.16243045 -0.096390657 -0.055800635 4287926680
0.1637163 -0.097905084 -0.053814337 4288057492
0.16474323 -0.099080153 -0.055960756 4287991699
0.16602397 -0.10058864 -0.053974103 4287925906
0.1671778 -0.10193042 -0.054053985 4287925906
0.16833162 -0.1032722 -0.05413387 4287991699
0.16948546 -0.10461398 -0.054213751 4288057490
0.17063929 -0.10595576 -0.054293633 4288123283
0.17179313 -0.10729754 -0.054373518 4288386455
0.17294696 -0.10863932 -0.054453399 4287004802
0.17399433 -0.10983817 -0.056601234 4284241494
0.17515072 -0.11118292 -0.056681294 4281741360
0.17630711 -0.11252767 -0.056761354 4280754465
0.1774635 -0.11387242 -0.056841414 4280622879
0.1784828 -0.11503053 -0.059867866 4281017637
0.17964283 -0.11637951 -0.05994818 4281741360
0.1878778 -0.12653162 0.0019375946 4282991940
0.18896092 -0.12779117 0.0018626073 4283452491
0.19011608 -0.12915267 0.0037549627 4283649870
0.19112717 -0.13031027 0.0017126329 4284768351
0.19221029 -0.13156982 0.0016376458 4287794829
0.19329341 -0.13282937 0.0015626585 4289965998
0.19437653 -0.13408892 0.0014876713 4290822077
0.19545965 -0.13534847 0.0014126841 4290953663
0.19654277 -0.13660802 0.0013376969 4290493112
0.19762589 -0.13786757 0.0012627096 4290164147
0.19870901 -0.13912712 0.0011877224 4290624698
0.19979213 -0.14038667 0.0011127351 4290098611
0.20087525 -0.14164621 0.0010377479 4290295733
0.20195837 -0.14290576 0.00096276077 4290098865
0.20304149 -0.14416531 0.00088777352 4290229940
0.20412461 -0.14542486 0.00081278628 4290427319
0.20520774 -0.14668441 0.0007377991 4290493112
0.20632645 -0.14800355 0.0026326766 4290295733
0.20740715 -0.14926027 0.0025578574 4290098100
0.20848784 -0.150517 0.0024830385 4290163379
0.20956853 -0.15177372 0.0024082195 4290492344
0.21064922 -0.15303044 0.0023334003 4290492090
0.21172991 -0.15428717 0.0022585811 4290426297
0.21283235 -0.15558797 0.0042211264 4290360504
0.2138913 -0.15680063 0.002108943 4290425786
0.21498871 -0.15809558 0.0040718359 4290425786
0.2160669 -0.1593494 0.0039971904 4290425786
0.21714507 -0.1606032 0.0039225454 4290425786
0.21822326 -0.16185699 0.0038479001 4290425786
0.21930143 -0.16311081 0.0037732548 4290426040
0.22037962 -0.16436461 0.0036986093 4290360506
0.22145945 -0.16563904 0.005653291 4290360504
0.22253513 -0.16688994 0.0055788187 4290163895
0.2236108 -0.16814084 0.0055043469 4290163895
0.22468068 -0.16940358 0.0074503506 4290098615
0.22575386 -0.1706516 0.0073760506 4290098613
0.22682706 -0.1718996 0.0073017506 4290163893
0.22790025 -0.1731476 0.0072274501 4289703342
0.22897345 -0.17439562 0.0071531502 4289308070
0.2300649 -0.17564623 0.0050575132 4288913312
0.23111984 -0.17689162 0.0070045502 4288912029
0.23219304 -0.17813964 0.0069302502 4288648857
0.15379004 -0.08901383 -0.060479946 4280361259
0.15509565 -0.090544857 -0.058559567 4280888373
0.15625569 -0.091893844 -0.05863988 4282072906
0.15741572 -0.093242832 -0.05872019 4283454560
0.15877527 -0.094842598 -0.055857461 4285231487
0.15993166 -0.096187353 -0.055937521 4287467419
0.16122304 -0.097702228 -0.053950917 4287926680
0.16237687 -0.09904401 -0.054030802 4288057492
0.16353071 -0.10038579 -0.054110684 4287991699
0.16468453 -0.10172757 -0.054190569 4287860113
0.16583836 -0.10306935 -0.05427045 4287860113
0.16716945 -0.10463634 -0.051351439 4287991699
0.16831958 -0.10597381 -0.051431067 4288057490
0.1694697 -0.10731128 -0.051510692 4288123283
0.1704537 -0.10843647 -0.054589979 4287399560
0.17160752 -0.10977825 -0.054669864 4284899426
0.17276137 -0.11112003 -0.054749746 4282465083
0.17391519 -0.11246181 -0.054829631 4281215016
0.17496471 -0.11366912 -0.056978296 4280886051
0.1761211 -0.11501387 -0.057058357 4281346602
0.17727749 -0.11635862 -0.057138417 4281675567
0.17829622 -0.11752454 -0.060165804 4281478188
0.18561947 -0.12644923 0.0037766783 4284439386
0.18670017 -0.12770595 0.0037018592 4287860109
0.18778086 -0.12896268 0.0036270402 4287465351
0.18886155 -0.1302194 0.003552221 4285228902
0.18986982 -0.1313794 0.0015094361 4284899937
0.19095294 -0.13263895 0.0014344488 4288321173
0.19203606 -0.1338985 0.0013594616 4290755514
0.19311918 -0.13515805 0.0012844744 4290558905
0.1942023 -0.1364176 0.0012094871 4290427319
0.19528542 -0.13767713 0.0011344999 4290756541
0.19636855 -0.13893668 0.0010595127 4290493369
0.19745167 -0.14019623 0.00098452554 4290427576
0.19858778 -0.14152993 0.0028788494 4289638060
0.19966847 -0.14278665 0.0028040302 4290229938
0.20074916 -0.14404337 0.0027292112 4290032558
0.20182985 -0.14530011 0.002654392 4290229168
0.20291054 -0.14655682 0.0025795731 4290492340
0.20399123 -0.14781354 0.0025047539 4290558133
0.20511165 -0.14912939 0.0044667269 4290360754
0.20615262 -0.150327 0.0023551157 4290294963
0.20726801 -0.151637 0.0043174364 4290557622
0.208314 -0.15284045 0.0022054778 4290623415
0.20942438 -0.15414461 0.0041681458 4290623417
0.21050255 -0.15539841 0.0040935003 4290557624
0.21158074 -0.15665223 0.0040188553 4290426038
0.21265891 -0.15790603 0.0039442102 4290556856
0.2137371 -0.15915984 0.0038695647 4290491063
0.21481527 -0.16041364 0.0037949195 4290491063
0.21590801 -0.16169722 0.0057493779 4290491063
0.21698369 -0.16294813 0.0056749056 4290426040
0.21805938 -0.16419902 0.0056004333 4290360758
0.21914206 -0.16547088 0.0075462153 4290360504
0.22021526 -0.1667189 0.0074719153 4290294965
0.22128846 -0.1679669 0.0073976154 4290163893
0.22236165 -0.1692149 0.0073233154 4290163893
0.22343485 -0.17046292 0.0072490154 4290098613
0.22450805 -0.17171092 0.0071747154 4290098611
0.22558124 -0.17295893 0.0071004154 4290229940
0.22665444 -0.17420694 0.0070261154 4289966768
0.22772764 -0.17545494 0.006951815 4289900205
0.22877818 -0.17669548 0.0098555842 4289768619
0.22984771 -0.17793924 0.0097815385 4289767590
0.23091725 -0.17918298 0.0097074918 4289241246
0.15374903 -0.0916899 -0.058777194 4280559408
0.15490906 -0.093038887 -0.058857508 4281151291
0.15606909 -0.094387874 -0.058937818 4281677636
0.15743288 -0.095984049 -0.056074403 4283520099
0.15872978 -0.097499378 -0.054087501 4286414731
0.1600837 -0.099084266 -0.051169079 4287926682
0.16123383 -0.10042173 -0.051248703 4287991958
0.16238394 -0.1017592 -0.051328331 4287860372
0.16353408 -0.10309667 -0.051407956 4287794577
0.16468419 -0.10443414 -0.05148758 4287794577
0.16583432 -0.10577161 -0.051567208 4287925904
0.16698445 -0.10710908 -0.051646832 4288057490
0.16813457 -0.10844655 -0.05172646 4288123283
0.1692847 -0.10978401 -0.051806085 4285491563
0.17043483 -0.11112148 -0.051885713 4282859843
0.17142193 -0.11225896 -0.054966211 4281478192
0.17257576 -0.11360073 -0.055046093 4281412397
0.1737296 -0.11494251 -0.055125974 4281083432
0.17488343 -0.11628429 -0.055205859 4281280811
0.17593509 -0.11750007 -0.057355359 4281609776
0.18328427 -0.12625922 0.0036487556 4284044630
0.18436496 -0.12751596 0.0035739366 4287531659
0.18544565 -0.12877268 0.0034991174 4290689210
0.18652634 -0.13002941 0.0034242985 4289307557
0.18760704 -0.13128613 0.0033494793 4286412924
0.18861248 -0.13244852 0.0013062382 4286084213
0.1896956 -0.13370807 0.0012312509 4287926417
0.19077872 -0.13496763 0.0011562638 4291347653
0.19186184 -0.13622718 0.0010812766 4291019202
0.19294496 -0.13748673 0.0010062893 4290361272
0.19409119 -0.13882647 0.0029005648 4290492858
0.19517188 -0.14008321 0.0028257458 4290032818
0.19625257 -0.14133993 0.0027509267 4290361783
0.19733326 -0.14259665 0.0026761077 4290361783
0.19841395 -0.14385338 0.0026012885 4290756284
0.19949464 -0.1451101 0.0025264695 4290558135
0.20062549 -0.14643222 0.0044883923 4290492342
0.20170368 -0.14768603 0.0044137472 4290558135
0.20278186 -0.14893983 0.0043391017 4290557622
0.20386004 -0.15019365 0.0042644567 4290294452
0.20493822 -0.15144745 0.0041898116 4290426038
0.20605384 -0.15275182 0.0061433539 4290689210
0.20709458 -0.15395506 0.0040405211 4290689210
0.20820521 -0.15525362 0.0059944093 4290623417
0.20928088 -0.15650451 0.005919937 4290688442
0.21035656 -0.15775542 0.0058454648 4290426040
0.21143225 -0.15900631 0.0057709925 4290490809
0.21250793 -0.16025722 0.0056965202 4290425016
0.21358362 -0.16150811 0.0056220479 4290425016
0.2146593 -0.16275902 0.0055475757 4290425270
0.21574986 -0.1640342 0.0074934792 4290360758
0.21682306 -0.16528222 0.0074191797 4290360758
0.21789624 -0.16653022 0.0073448797 4290360758
0.21896943 -0.16777822 0.0072705792 4290294965
0.22004263 -0.16902624 0.0071962792 4290163893
0.22111583 -0.17027424 0.0071219793 4290163893
0.22218902 -0.17152224 0.0070476793 4290163893
0.2232585 -0.17277622 0.0099511221 4290098354
0.22433542 -0.17401826 0.0068990793 4290295733
0.22540861 -0.17526627 0.0068247793 4290360756
0.22646709 -0.17650746 0.009728983 4290492342
0.2275366 -0.1777512 0.0096549364 4290623669
0.22860613 -0.17899494 0.0095808906 4290557106
0.22967568 -0.18023869 0.009506844 4289767589
0.15356244 -0.094183937 -0.059075132 4280427054
0.15472247 -0.095532916 -0.059155446 4280690226
0.15623651 -0.097296521 -0.054224078 4282137417
0.15759844 -0.098882057 -0.05130522 4283716449
0.15874857 -0.10021953 -0.051384844 4286545290
0.1598987 -0.101557 -0.051464472 4288058527
0.16104881 -0.10289447 -0.051544096 4287860887
0.16232528 -0.10438 -0.049662936 4287597968
0.16347298 -0.10571465 -0.049742393 4287795345
0.16462068 -0.1070493 -0.049821854 4287926415
0.16576838 -0.10838396 -0.04990131 4287925902
0.16691609 -0.10971861 -0.049980771 4287136388
0.16806379 -0.11105326 -0.050060228 4284767842
0.16921149 -0.11238791 -0.050139688 4281412145
0.17024982 -0.11359422 -0.052181106 4280754216
0.17139995 -0.1149317 -0.052260734 4281872697
0.17255008 -0.11626916 -0.052340358 4281083693
0.173544 -0.11742321 -0.055422321 4280688935
0.17986836 -0.12481251 0.0035956521 4283781206
0.18094905 -0.12606923 0.0035208329 4284504929
0.18202974 -0.12732595 0.0034460139 4285820790
0.18320116 -0.12868939 0.0054058004 4288781475
0.18419112 -0.12983941 0.0032963757 4291478988
0.18527181 -0.13109612 0.0032215568 4290426300
0.18635251 -0.13235286 0.0031467376 4287465361
0.18735513 -0.13351765 0.0011030404 4286149755
0.18851389 -0.13486631 0.0029970994 4287268236
0.18959458 -0.13612303 0.0029222805 4290360507
0.19067527 -0.13737975 0.0028474613 4291281608
0.19175597 -0.13863648 0.0027726423 4290426299
0.19283666 -0.1398932 0.0026978231 4290623676
0.19391735 -0.14114994 0.0026230041 4290427065
0.19506116 -0.14248125 0.0045847027 4290032561
0.19613935 -0.14373507 0.0045100572 4290558651
0.19721752 -0.14498886 0.0044354121 4290623676
0.19829571 -0.14624268 0.0043607666 4290623678
0.19937389 -0.14749648 0.0042861216 4290557885
0.20045207 -0.14875028 0.0042114761 4290492092
0.20157808 -0.15006091 0.0061649685 4290492092
0.20265377 -0.1513118 0.0060904962 4290426300
0.20372945 -0.15256271 0.0060160239 4290426300
0.20480514 -0.1538136 0.0059415516 4290360507
0.20588081 -0.15506451 0.0058670794 4290557886
0.20695649 -0.1563154 0.0057926071 4290492093
0.20803218 -0.15756629 0.0057181348 4290425533
0.20913807 -0.1588535 0.0076636444 4290294460
0.21021126 -0.16010152 0.0075893444 4290359740
0.21128446 -0.16134952 0.0075150444 4290425533
0.21235766 -0.16259752 0.0074407444 4290425533
0.21343084 -0.16384552 0.0073664444 4290426300
0.21450403 -0.16509354 0.0072921445 4290558137
0.21557723 -0.16634154 0.0072178445 4290361526
0.21665043 -0.16758955 0.0071435445 4290229686
0.21773879 -0.16885695 0.010046659 4290163893
0.21880832 -0.17010069 0.0099726124 4290294965
0.21987785 -0.17134444 0.0098985666 4290360504
0.22094738 -0.17258818 0.00982452 4290426297
0.22201692 -0.17383194 0.0097504733 4290492090
0.22308645 -0.17507568 0.0096764276 4290492090
0.22415598 -0.17631942 0.0096023809 4290360245
0.22522551 -0.17756318 0.0095283343 4290360245
0.22629504 -0.17880692 0.0094542885 4290688438
0.22735219 -0.18003747 0.011453968 4290557106
0.22841917 -0.18127824 0.011380097 4289767590
0.15511319 -0.098679855 -0.05144136 4281084471
0.15626331 -0.10001732 -0.051520988 4281873988
0.15741344 -0.1013548 -0.051600613 4285361274
0.15869756 -0.10284357 -0.049719334 4287466905
0.15984526 -0.10417822 -0.04979879 4287795607
0.16099297 -0.10551287 -0.049878251 4287532688
0.16214067 -0.10684752 -0.049957708 4287729806
0.16328837 -0.10818218 -0.050037168 4287729034
0.16443607 -0.10951683 -0.050116625 4287531144
0.16558377 -0.11085148 -0.050196081 4286412665
0.16673148 -0.11218613 -0.050275542 4282662466
0.16787918 -0.11352079 -0.050354999 4280556837
0.16902688 -0.11485544 -0.050434459 4280753962
0.17017458 -0.11619008 -0.050513916 4282004029
0.17132229 -0.11752474 -0.050593376 4281478198
0.17537175 -0.12210906 0.0036173665 4281675830
0.17645244 -0.12336579 0.0035425476 4283321425
0.17753313 -0.12462252 0.0034677284 4284439904
0.17861383 -0.12587924 0.0033929094 4284965480
0.17969452 -0.12713596 0.0033180905 4285294446
0.18087138 -0.12849984 0.0052781743 4286149755
0.18194956 -0.12975365 0.0052035293 4288715428
0.18302774 -0.13100745 0.0051288842 4291215562
0.18410592 -0.13226126 0.0050542387 4290426046
0.18518411 -0.13351506 0.0049795937 4287860121
0.18617867 -0.13467632 0.002869176 4286741638
0.18725936 -0.13593304 0.0027943568 4287991705
0.18834005 -0.13718976 0.0027195378 4290228921
0.18942074 -0.13844649 0.0026447186 4290952644
0.19050144 -0.13970321 0.0025698997 4290426299
0.19158213 -0.14095995 0.0024950805 4290492090
0.19273137 -0.14229169 0.0044570765 4290558137
0.19387528 -0.1436173 0.0064099994 4290426549
0.19488773 -0.14479931 0.004307786 4290755516
0.19596592 -0.14605312 0.004233141 4290755264
0.19710232 -0.14737 0.0061865831 4290755265
0.19823349 -0.14868078 0.0081310086 4290689472
0.19930668 -0.14992878 0.0080567086 4290689472
0.20037988 -0.1511768 0.0079824086 4290623679
0.20145307 -0.1524248 0.0079081086 4290623679
0.20252627 -0.1536728 0.0078338087 4290623679
0.20359945 -0.15492082 0.0077595087 4290623679
0.20467265 -0.15616882 0.0076852087 4290689472
0.20574585 -0.15741682 0.0076109087 4290623679
0.20681904 -0.15866482 0.0075366087 4290623425
0.20789224 -0.15991284 0.0074623083 4290557632
0.20896544 -0.16116084 0.0073880083 4290491839
0.21003863 -0.16240884 0.0073137083 4290491839
0.21111183 -0.16365686 0.0072394083 4290491839
0.21218501 -0.16490486 0.0071651083 4290492093
0.21328864 -0.16618142 0.01006815 4290624446
0.21435817 -0.16742517 0.0099941036 4290558651
0.2154277 -0.16866891 0.0099200578 4290492858
0.21649723 -0.16991267 0.0098460112 4290361274
0.21756676 -0.17115641 0.0097719645 4290426297
0.21863629 -0.17240015 0.0096979188 4290294713
0.21970582 -0.1736439 0.0096238721 4290294713
0.22077535 -0.17488764 0.0095498255 4290228920
0.22184488 -0.17613138 0.0094757797 4290491579
0.22291441 -0.17737514 0.0094017331 4290623419
0.22398394 -0.17861888 0.0093276864 4290885821
0.22504659 -0.17984988 0.011327667 4290951612
0.22611357 -0.18109067 0.011253797 4290754231
0.22716907 -0.18231352 0.013170871 4290030762
0.15377806 -0.099815123 -0.051657129 4280229162
0.15492818 -0.10115259 -0.051736753 4280163369
0.15621755 -0.1026418 -0.049855188 4283716704
0.15736525 -0.10397644 -0.049934648 4286743180
0.15851295 -0.1053111 -0.050014105 4287729814
0.15966065 -0.10664575 -0.050093561 4287532688
0.16080835 -0.1079804 -0.050173022 4287598220
0.16215393 -0.10952934 -0.04719799 4287597448
0.16329786 -0.11085961 -0.047277186 4287136640
0.16444179 -0.11218987 -0.047356382 4285623147
0.16539916 -0.11331901 -0.050490856 4281412399
0.16654687 -0.11465366 -0.050570313 4279898907
0.16769457 -0.11598831 -0.050649773 4280490790
0.16884227 -0.11732296 -0.05072923 4282332994
0.16998997 -0.11865761 -0.05080869 4283188816
0.17389658 -0.12294005 -0.00060668436 4284241757
0.17509235 -0.12431996 0.0013715297 4285163629
0.17617548 -0.12557951 0.0012965425 4285229420
0.1773593 -0.12694597 0.0031901677 4285557617
0.17843999 -0.12820269 0.0031153488 4285491824
0.17961976 -0.12956409 0.0050759036 4285754996
0.18069795 -0.13081791 0.0050012581 4288057752
0.18177612 -0.1320717 0.0049266131 4290755265
0.18285431 -0.13332552 0.0048519676 4290228921
0.18393248 -0.13457932 0.0047773225 4287991705
0.18501067 -0.13583311 0.004702677 4287136650
0.18600483 -0.13699977 0.0025916151 4287070857
0.18716703 -0.13834073 0.0045533865 4288781475
0.18816622 -0.13951322 0.0024419769 4290294713
0.18924691 -0.14076994 0.002367158 4290755262
0.19040158 -0.14210215 0.0043294509 4290755516
0.19147976 -0.14335595 0.0042548059 4290689721
0.19262657 -0.14467908 0.0062081977 4290558135
0.19370225 -0.14592998 0.0061337254 4290426549
0.19477794 -0.14718089 0.0060592531 4290623676
0.19591448 -0.1484921 0.0080039734 4290623678
0.19698766 -0.1497401 0.0079296734 4290623678
0.19806086 -0.15098812 0.0078553734 4290623678
0.19913405 -0.15223612 0.0077810735 4290557885
0.20028223 -0.15355593 0.010682012 4290557885
0.20128044 -0.15473212 0.0076324735 4290557885
0.20235364 -0.15598014 0.0075581735 4290557885
0.20342684 -0.15722814 0.0074838735 4290623678
0.20456035 -0.15853092 0.010385826 4290623678
0.20562989 -0.15977466 0.01031178 4290557885
0.2066994 -0.16101842 0.010237734 4290557885
0.20776893 -0.16226216 0.010163687 4290492092
0.20883846 -0.1635059 0.010089641 4290426299
0.20990801 -0.16474965 0.010015595 4290360506
0.21097752 -0.16599339 0.0099415481 4290360506
0.21204706 -0.16723713 0.0098675014 4290295481
0.21311659 -0.16848089 0.0097934557 4290295481
0.21418612 -0.16972463 0.009719409 4290361274
0.21525565 -0.17096838 0.0096453624 4290361276
0.21632518 -0.17221212 0.0095713167 4290492092
0.21739471 -0.17345586 0.00949727 4290426300
0.21847308 -0.17469917 0.011496847 4290426300
0.21954006 -0.17593996 0.011422977 4290360507
0.22060704 -0.17718074 0.011349107 4290359994
0.22167403 -0.17842151 0.011275236 4290557372
0.22274101 -0.1796623 0.011201367 4290754235
0.22380798 -0.18090308 0.011127497 4290556854
0.22487496 -0.18214385 0.011053627 4290491061
0.22592436 -0.18334331 0.015026644 4290096301
0.15244293 -0.10095039 -0.051872898 4280360746
0.15359305 -0.10228786 -0.051952522 4279965990
0.15488522 -0.10377467 -0.050070502 4282269258
0.15603292 -0.10510933 -0.050149959 4285953664
0.15718062 -0.10644397 -0.050229419 4287598228
0.15832832 -0.10777862 -0.050308876 4287532688
0.15968208 -0.10932823 -0.047333397 4287729036
0.16082601 -0.11065849 -0.047412593 4287531655
0.16196993 -0.11198875 -0.047491793 4286939261
0.16311386 -0.11331902 -0.047570989 4285228389
0.16425779 -0.11464929 -0.047650184 4281346606
0.16798855 -0.11864705 -0.0054917186 4280951595
0.16920035 -0.12004011 -0.0035675489 4281938236
0.17028968 -0.12130689 -0.0036429665 4283714647
0.17155063 -0.12274918 -0.00073519477 4284899688
0.17275189 -0.12412954 0.001243319 4285754996
0.17383501 -0.1253891 0.0011683318 4285755764
0.17502409 -0.12675597 0.003062245 4284900455
