# .PCD v0.7 - Point Cloud Data file format
VERSION 0.7
FIELDS x y z rgb
SIZE 4 4 4 4
TYPE F F F U
COUNT 1 1 1 1
WIDTH 979
HEIGHT 1
VIEWPOINT 0 0 0 1 0 0 0
POINTS 979
DATA ascii
-0.086628303 -0.023043018 0.04833011 4294572537
-0.088322483 -0.022941437 0.048333447 4294967295
-0.090016671 -0.022839854 0.048336785 4294769403
-0.091710851 -0.02273827 0.048340123 4294966782
-0.093405031 -0.022636689 0.048343461 4294966782
-0.095099218 -0.022535106 0.048346795 4294900475
-0.096793398 -0.022433525 0.048350133 4294967039
-0.098716959 -0.023056082 0.045410596 4294834682
-0.027181385 -0.029193362 0.030860335 4286016126
-0.028912464 -0.028353689 0.033822361 4287989662
-0.030633217 -0.028250514 0.033825751 4293648114
-0.034087282 -0.028779287 0.030873938 4294965247
-0.035813756 -0.028675769 0.030877339 4292988893
-0.037516214 -0.027837813 0.033839311 4293186274
-0.039236967 -0.027734637 0.033842701 4290159028
-0.040957715 -0.027631462 0.033846088 4287329163
-0.042678464 -0.027528288 0.033849478 4281670201
-0.044368953 -0.026952205 0.035761431 4283316568
-0.04608601 -0.026849251 0.03576481 4286807449
-0.047803067 -0.026746297 0.035768192 4288651704
-0.049520124 -0.026643343 0.035771575 4289901258
-0.051190481 -0.026050853 0.037754305 4292466671
-0.052903708 -0.025948128 0.03775768 4294109951
-0.054534763 -0.025106164 0.040752843 4294568959
-0.056242205 -0.025003787 0.040756203 4294962687
-0.057949644 -0.024901409 0.040759567 4294962431
-0.059657082 -0.024799032 0.040762931 4294564083
-0.06136452 -0.024696656 0.040766295 4294234859
-0.062999271 -0.024111789 0.042726871 4292722132
-0.064702921 -0.024009639 0.042730227 4294962942
-0.066406578 -0.023907488 0.04273358 4290818235
-0.068110228 -0.023805339 0.042736936 4291872463
-0.069813877 -0.023703188 0.042740293 4293914355
-0.071517535 -0.023601038 0.042743649 4294638332
-0.073126197 -0.023019895 0.044695504 4293913326
-0.074826077 -0.022917971 0.044698853 4293649895
-0.076370977 -0.022092709 0.04764745 4292465621
-0.078065164 -0.021991126 0.047650788 4292729306
-0.079759344 -0.021889545 0.047654126 4293124064
-0.081453525 -0.021787962 0.047657464 4292598234
-0.08314772 -0.021686379 0.047660798 4293454056
-0.084717073 -0.021093821 0.049667932 4294375158
-0.08653608 -0.021483215 0.047667474 4294638330
-0.088230267 -0.021381631 0.047670811 4294835709
-0.089924447 -0.02128005 0.047674149 4294111473
-0.091618635 -0.021178467 0.047677487 4294045680
-0.093312815 -0.021076884 0.047680821 4294176752
-0.095006995 -0.020975303 0.047684159 4294374131
-0.096701182 -0.02087372 0.047687497 4294966783
-0.09839537 -0.020772137 0.047690835 4294966525
-0.02709805 -0.026872603 0.033145946 4287595156
-0.028818799 -0.026769428 0.033149336 4290358464
-0.03053955 -0.026666252 0.033152726 4294569215
-0.032266829 -0.02729327 0.03019527 4294305529
-0.037422549 -0.026253551 0.033166282 4285751411
-0.039143298 -0.026150376 0.033169672 4282789959
-0.04086405 -0.0260472 0.033173062 4281604920
-0.051097222 -0.024473518 0.037084222 4287268519
-0.052810453 -0.024370795 0.037087597 4289504711
-0.054441825 -0.023534158 0.040085021 4290424785
-0.056149263 -0.02343178 0.040088385 4292594412
-0.057856701 -0.023329403 0.040091749 4294698751
-0.059564143 -0.023227027 0.040095109 4294962943
-0.061271578 -0.023124648 0.040098473 4294962431
-0.06297902 -0.023022272 0.040101837 4294631673
-0.064686462 -0.022919893 0.040105201 4294501364
-0.066393897 -0.022817517 0.040108565 4294306291
-0.068101339 -0.02271514 0.040111929 4292136917
-0.069808781 -0.022612762 0.040115293 4294901759
-0.071424797 -0.02203251 0.042077307 4294901759
-0.073033668 -0.021454845 0.04403064 4294967039
-0.074584574 -0.020634487 0.046981476 4294967039
-0.076278761 -0.020532906 0.046984814 4294374131
-0.077972949 -0.020431323 0.046988152 4294572024
-0.079667129 -0.02032974 0.04699149 4294506231
-0.081244446 -0.019740293 0.049000155 4293190884
-0.08293476 -0.019638943 0.049003482 4293190884
-0.084625065 -0.019537592 0.049006812 4293585642
-0.086315364 -0.019436242 0.049010143 4292006610
-0.088005669 -0.019334892 0.049013473 4292269782
-0.089695983 -0.019233542 0.049016804 4291742925
-0.091386288 -0.019132193 0.04902013 4292006097
-0.093076594 -0.019030843 0.049023461 4292663513
-0.094914779 -0.019415498 0.047021523 4293452516
-0.096608959 -0.019313917 0.047024861 4294899192
-0.098303147 -0.019212333 0.047028199 4294834169
-0.099997327 -0.01911075 0.047031537 4294704123
0.019621367 -0.028809292 0.029417977 4286411125
0.017735114 -0.027970899 0.032384787 4286213746
0.01601436 -0.027867723 0.032388177 4286279539
0.014293614 -0.027764549 0.032391567 4286279539
-0.027004384 -0.02528834 0.03247292 4287200397
-0.028725132 -0.025185164 0.032476306 4287858327
-0.030445885 -0.025081988 0.032479696 4288976809
-0.037328884 -0.024669288 0.032493256 4280685351
-0.044182025 -0.023790473 0.034418259 4281935176
-0.052717194 -0.022793448 0.036417507 4284373116
-0.062886082 -0.021450251 0.039434012 4289896119
-0.064593516 -0.021347875 0.039437376 4290358204
-0.066300958 -0.021245496 0.03944074 4292004051
-0.068008393 -0.02114312 0.039444104 4293387754
-0.069715835 -0.021040743 0.039447464 4294376185
-0.07133206 -0.020463996 0.041410971 4293981681
-0.072941132 -0.019889783 0.043365769 4294572024
-0.074492358 -0.019074684 0.04631884 4294967039
-0.076186538 -0.018973101 0.046322178 4294572024
-0.077880725 -0.018871518 0.046325516 4294967295
-0.079574905 -0.018769937 0.04632885 4294967295
-0.081152439 -0.018184062 0.048339035 4294638330
-0.082842745 -0.018082712 0.048342366 4294704123
-0.084533051 -0.017981362 0.048345696 4294835709
-0.086351641 -0.018363606 0.046342202 4294309365
-0.088045828 -0.018262023 0.046345539 4294440951
-0.089740008 -0.018160442 0.046348874 4293453543
-0.091434188 -0.018058859 0.046352211 4292992478
-0.093128376 -0.017957276 0.046355549 4292399828
-0.094822556 -0.017855695 0.046358887 4291807691
-0.096516736 -0.017754111 0.046362225 4292070093
-0.098210931 -0.017652528 0.046365563 4291347140
-0.099905111 -0.017550947 0.046368901 4293914609
0.019715345 -0.027219757 0.02874271 4285818988
0.017988862 -0.027116239 0.028746109 4285687402
0.016108027 -0.026283447 0.031715143 4285752941
0.014291394 -0.025710041 0.033631675 4285752941
0.012478717 -0.02511964 0.035619181 4285621355
0.010765489 -0.025016915 0.035622556 4285753195
0.0090522608 -0.02491419 0.035625931 4286016876
-0.023446506 -0.024631793 0.028827732 4287727242
-0.025172979 -0.024528274 0.028831132 4287200902
-0.026910717 -0.023704063 0.031799886 4285687408
-0.028631466 -0.023600888 0.031803276 4284897381
-0.030352218 -0.023497712 0.031806663 4284502623
-0.037235215 -0.023085011 0.031820223 4281014829
-0.064500578 -0.019775867 0.038769554 4282463561
-0.066208012 -0.019673491 0.038772918 4284899436
-0.067915455 -0.019571114 0.038776282 4291743187
-0.069622897 -0.019468736 0.038779646 4293718770
-0.07123933 -0.01889547 0.040744629 4294705151
-0.072848603 -0.018324733 0.042700905 4294835709
-0.074400134 -0.017514879 0.045656204 4294967039
-0.076094322 -0.017413298 0.045659538 4294572024
-0.077788502 -0.017311715 0.045662876 4294572537
-0.079482689 -0.017210132 0.045666214 4294901502
-0.081060432 -0.016627818 0.047677912 4294441464
-0.082750738 -0.016526468 0.047681242 4294704636
-0.084565237 -0.016905384 0.045676228 4294836222
-0.086259425 -0.016803803 0.045679566 4294638330
-0.087953605 -0.01670222 0.0456829 4294967295
-0.089647792 -0.016600637 0.045686238 4294769403
-0.091341972 -0.016499056 0.045689575 4294966268
-0.093036152 -0.016397472 0.045692913 4294899962
-0.09473034 -0.016295889 0.045696251 4294701813
-0.09642452 -0.016194308 0.045699589 4294964472
-0.098118708 -0.016092725 0.045702927 4294242032
-0.099812888 -0.015991142 0.045706261 4293125093
0.019809322 -0.025630223 0.028067442 4286016367
0.01808284 -0.025526702 0.028070843 4285818988
0.016201692 -0.024699198 0.031042123 4285818734
0.014480946 -0.024596022 0.031045513 4285752941
0.012760195 -0.024492847 0.031048903 4285555562
0.011039443 -0.024389673 0.031052291 4285687402
0.0093186963 -0.024286497 0.031055681 4285885290
0.0075979456 -0.024183322 0.031059071 4285885289
-0.023352528 -0.023042258 0.028152464 4286740599
-0.025079001 -0.02293874 0.028155865 4284766811
-0.028537801 -0.022016639 0.031130254 4281739568
-0.030258553 -0.021913463 0.031133642 4282002742
-0.0319793 -0.021810288 0.031137032 4281081641
-0.064407632 -0.018203849 0.038101729 4280227628
-0.066115074 -0.018101471 0.038105093 4285689981
-0.067822509 -0.017999094 0.038108457 4290033598
-0.069529951 -0.017896717 0.038111821 4294047481
-0.071146592 -0.017326942 0.040078286 4294310907
-0.072756074 -0.016759684 0.042036038 4294573050
-0.074455954 -0.01665776 0.042039387 4294967295
-0.076002099 -0.015853493 0.044996902 4294769916
-0.077696286 -0.015751909 0.04500024 4294769916
-0.079390466 -0.015650328 0.045003578 4294901759
-0.080968425 -0.015071576 0.047016788 4294836222
-0.08265873 -0.014970225 0.047020119 4294901759
-0.084349036 -0.014868875 0.047023445 4294836222
-0.086167201 -0.015243998 0.045016926 4294704123
-0.087861389 -0.015142416 0.045020264 4294967295
-0.089555569 -0.015040834 0.045023602 4294900989
-0.091249749 -0.01493925 0.045026939 4294967039
-0.092943937 -0.014837668 0.045030277 4294966526
-0.094638117 -0.014736086 0.045033615 4294965499
-0.096332297 -0.014634503 0.045036953 4294966271
-0.098026492 -0.014532921 0.045040287 4294768376
-0.099720672 -0.014431339 0.045043625 4294769407
0.019903298 -0.024040701 0.027392181 4285490282
0.018176818 -0.023937183 0.027395582 4286148212
0.016295359 -0.023114922 0.03036909 4286148212
0.014574612 -0.023011746 0.03037248 4285885040
0.012853861 -0.022908572 0.03037587 4285753454
0.01113311 -0.022805396 0.03037926 4285753452
0.0095444527 -0.023419589 0.027412586 4285753704
0.007817979 -0.02331607 0.027415987 4285819496
-0.069350205 -0.015860563 0.039408587 4293587449
-0.070963658 -0.015296546 0.041367821 4294574079
-0.072663546 -0.015194621 0.041371167 4294835967
-0.074215695 -0.014395257 0.044330925 4294901502
-0.075909883 -0.014293675 0.044334263 4294901502
-0.077604063 -0.014192092 0.044337597 4294836222
-0.079298243 -0.01409051 0.044340935 4294836222
-0.08099243 -0.013988928 0.044344272 4294836222
-0.082566723 -0.013413996 0.046358999 4294836222
-0.084380798 -0.013785763 0.044350948 4294836222
-0.086074986 -0.013684181 0.044354286 4294836222
-0.087769166 -0.013582597 0.044357624 4294901502
-0.089463353 -0.013481015 0.044360958 4294966782
-0.091157533 -0.013379433 0.044364296 4294966782
-0.092851713 -0.01327785 0.044367634 4294966526
-0.094545901 -0.013176268 0.044370972 4294966270
-0.096240081 -0.013074686 0.044374309 4294966014
-0.097934268 -0.012973103 0.044377647 4294966526
-0.099628448 -0.012871521 0.044380981 4294966783
0.019997276 -0.022451151 0.026716908 4284634973
0.018270796 -0.022347633 0.02672031 4285227110
0.016389025 -0.02153066 0.029696064 4285621868
0.014668277 -0.021427484 0.029699452 4285687661
0.012947527 -0.021324309 0.029702842 4285687661
0.011226776 -0.021221133 0.029706232 4285687659
0.0095060291 -0.021117957 0.029709622 4285885290
0.0079119569 -0.021726523 0.026740715 4285885289
-0.028350469 -0.018848101 0.029784193 4281937702
-0.069257468 -0.01429205 0.038742252 4292666607
-0.07087113 -0.013731496 0.040702954 4294047999
-0.072571017 -0.013629572 0.040706303 4294835967
-0.074123479 -0.012835453 0.043668289 4294901502
-0.075817659 -0.012733871 0.043671623 4294901502
-0.077511847 -0.012632288 0.043674961 4294836222
-0.079206027 -0.012530706 0.043678299 4294836222
-0.080900207 -0.012429124 0.043681636 4294836222
-0.082474709 -0.011857752 0.045697875 4294836222
-0.084288575 -0.012225959 0.043688312 4294836222
-0.08585532 -0.011655052 0.045704532 4294836222
-0.087676942 -0.012022793 0.043694984 4294836222
-0.08937113 -0.011921211 0.043698322 4294901502
-0.09106531 -0.011819629 0.04370166 4294966782
-0.092616551 -0.011249652 0.045717854 4294966782
-0.094453678 -0.011616464 0.043708336 4294966526
-0.096147858 -0.011514882 0.043711673 4294966270
-0.097842045 -0.011413299 0.043715008 4294966526
-0.099536233 -0.011311716 0.043718345 4294901503
0.014761943 -0.019843221 0.029026426 4285161319
0.013041193 -0.019740045 0.029029815 4285358698
0.011320442 -0.019636869 0.029033205 4285424489
0.009599695 -0.019533696 0.029036595 4285424741
-0.028256802 -0.017263837 0.029111166 4282989873
-0.067461081 -0.012825673 0.038072553 4288914614
-0.069078721 -0.012268385 0.040034749 4293324287
-0.070778601 -0.012166461 0.040038098 4294574079
-0.072337076 -0.011377231 0.043002315 4294835967
-0.074031256 -0.011275649 0.043005649 4294901502
-0.075725444 -0.011174067 0.043008987 4294901502
-0.077419624 -0.011072484 0.043012325 4294901502
-0.079113804 -0.010970902 0.043015663 4294836222
-0.080692396 -0.010402872 0.045033425 4294836222
-0.082382701 -0.010301522 0.045036756 4294705150
-0.084073007 -0.010200172 0.045040086 4294705150
-0.085763313 -0.010098822 0.045043416 4294836222
-0.087584727 -0.010462989 0.043032348 4294836222
-0.089278907 -0.010361407 0.043035686 4294901502
-0.090973094 -0.010259825 0.043039024 4294966782
-0.092667274 -0.010158243 0.043042362 4294966782
-0.094361462 -0.01005666 0.0430457 4294966526
-0.096055642 -0.0099550774 0.043049034 4294966526
-0.097749829 -0.0098534944 0.043052372 4294966782
-0.099444009 -0.0097519122 0.043055709 4294901503
0.014855609 -0.018258959 0.028353399 4284371803
0.013134859 -0.018155783 0.028356789 4284832354
0.011414108 -0.018052608 0.028360179 4285095524
0.0096933609 -0.017949432 0.028363567 4285490534
0.0079726102 -0.017846256 0.028366957 4285687911
-0.067286305 -0.010805246 0.039366528 4287927721
-0.068856485 -0.010020578 0.042332996 4292797944
-0.070550673 -0.0099189961 0.042336334 4293850367
-0.072244853 -0.009817414 0.042339671 4294835967
-0.073939033 -0.0097158309 0.042343009 4294966782
-0.07563322 -0.0096142488 0.042346347 4294966782
-0.077219777 -0.009049342 0.044365648 4294901502
-0.078910083 -0.0089479927 0.044368979 4294901502
-0.080600388 -0.0088466424 0.044372309 4294836222
-0.082290694 -0.0087452922 0.044375639 4294705150
-0.083981 -0.008643942 0.04437897 4294705150
-0.085671306 -0.0085425926 0.044382297 4294836222
-0.087361611 -0.0084412424 0.044385627 4294836222
-0.089186691 -0.0088015888 0.042373043 4294901502
-0.090880871 -0.0087000066 0.04237638 4294901502
-0.092432529 -0.0081371926 0.044395618 4294966782
-0.094269238 -0.0084968423 0.042383056 4294966782
-0.09581314 -0.0079344921 0.044402275 4294966782
-0.097503453 -0.0078331428 0.044405606 4294966782
-0.099193759 -0.0077317925 0.044408936 4294901502
0.014949276 -0.016674682 0.027680365 4283714130
0.013228525 -0.016571507 0.027683755 4284306267
0.011507775 -0.016468331 0.027687145 4284701279
0.0097010089 -0.015915981 0.029612318 4285687659
0.008066277 -0.01626198 0.027693924 4285819499
0.0063455258 -0.016158804 0.027697314 4285885038
-0.065493897 -0.009342121 0.038698316 4283517278
-0.067193776 -0.009240197 0.038701665 4286677655
-0.068764269 -0.0084607741 0.04167036 4292666104
-0.070458449 -0.0083591919 0.041673698 4294574079
-0.072152637 -0.0082576098 0.041677035 4294901247
-0.073747151 -0.0076957988 0.043697868 4294966782
-0.075338341 -0.0071541108 0.045632403 4294966782
-0.077127762 -0.0074930987 0.043704525 4294901502
-0.078711532 -0.006951856 0.045639049 4294901502
-0.080398127 -0.0068507288 0.045642372 4294836222
-0.082084723 -0.0067496011 0.045645695 4294705150
-0.083771318 -0.0066484739 0.045649014 4294705150
-0.085457914 -0.0065473462 0.045652337 4294705150
-0.087269604 -0.0068849991 0.043724503 4294705150
-0.08895991 -0.0067836489 0.043727834 4294836222
-0.090650216 -0.0066822991 0.043731164 4294901502
-0.092340522 -0.0065809488 0.043734491 4294901502
-0.094030827 -0.006479599 0.043737821 4294966782
-0.095721133 -0.0063782488 0.043741152 4294966782
-0.097411439 -0.006276899 0.043744482 4294966782
-0.099101745 -0.0061755488 0.043747813 4294901502
0.015042942 -0.015090419 0.027007338 4283516751
0.013322191 -0.014987244 0.027010728 4283845716
0.011511533 -0.014438068 0.028937351 4284108888
0.0097944746 -0.014335114 0.028940734 4283977043
0.0080774156 -0.01423216 0.028944116 4284108627
0.0063603576 -0.014129206 0.028947499 4284108627
-0.065401368 -0.007777072 0.038033452 4283977570
-0.066977866 -0.007002553 0.041004386 4286611092
-0.068672046 -0.0069009704 0.041007724 4291021022
-0.070366234 -0.0067993877 0.041011062 4294376447
-0.072060414 -0.0066978056 0.041014399 4294901247
-0.073655143 -0.006139569 0.043036748 4294966782
-0.075345449 -0.0060382187 0.043040078 4294966782
-0.076933131 -0.0055001639 0.044976056 4294966782
-0.078619726 -0.0053990362 0.044979379 4294901502
-0.080306321 -0.005297909 0.044982702 4294836222
-0.081992917 -0.0051967814 0.044986024 4294836222
-0.083679512 -0.0050956542 0.044989347 4294705150
-0.085366108 -0.0049945265 0.044992667 4294705150
-0.087052703 -0.0048933988 0.04499599 4294705150
-0.088739298 -0.0047922716 0.044999313 4294836222
-0.090425886 -0.0046911445 0.045002636 4294836222
-0.092112482 -0.0045900168 0.045005959 4294836222
-0.093799077 -0.0044888891 0.045009281 4294901502
-0.095485672 -0.0043877619 0.045012601 4294901502
-0.097172268 -0.0042866343 0.045015924 4294901502
-0.098858863 -0.0041855071 0.045019247 4294836220
0.015136608 -0.013506156 0.026334312 4283385165
0.013415857 -0.013402981 0.026337702 4283187786
0.011604997 -0.012857201 0.028265767 4282990407
0.0098879393 -0.012754247 0.028269149 4281937460
0.0081708813 -0.012651293 0.028272532 4281937460
0.0064538228 -0.012548339 0.028275913 4281805874
0.0047367681 -0.012445385 0.028279295 4281805874
0.0030197101 -0.012342431 0.028282678 4282200630
-0.063608952 -0.006313947 0.037365235 4280948774
-0.065191463 -0.0055443309 0.040338412 4284568937
-0.066885643 -0.0054427488 0.04034175 4287926694
-0.06857983 -0.0053411662 0.040345088 4290560471
-0.07027401 -0.0052395836 0.040348426 4294573823
-0.07187283 -0.0046846755 0.042372294 4294966527
-0.073563136 -0.0045833252 0.042375624 4294966526
-0.075253442 -0.0044819755 0.042378955 4294966782
-0.076682441 -0.0032752142 0.047316674 4294966782
-0.078363277 -0.0031744321 0.047319982 4294901502
-0.080044121 -0.0030736499 0.047323294 4294836222
-0.081724957 -0.0029728676 0.047326606 4294836222
-0.083405793 -0.0028720854 0.047329918 4294705150
-0.085274301 -0.0034417065 0.044333 4294705150
-0.086960897 -0.0033405791 0.044336323 4294705150
-0.088448308 -0.0025697385 0.047339849 4294705150
-0.09033408 -0.0031383245 0.044342965 4294705150
-0.092020676 -0.0030371968 0.044346288 4294705150
-0.093490817 -0.0022673919 0.047349785 4294836222
-0.095393866 -0.002834942 0.044352934 4294836222
-0.096852496 -0.0020658274 0.047356404 4294836222
-0.098767057 -0.0026326871 0.044359576 4294836220
0.011698463 -0.011276335 0.027594183 4281872180
0.0099814041 -0.011173381 0.027597565 4281608495
0.008264346 -0.011070427 0.027600946 4281345321
0.006547288 -0.010967473 0.027604328 4280884770
0.0047518862 -0.010409949 0.029605277 4280555805
0.0030386583 -0.010307225 0.029608652 4280885024
0.0012185854 -0.0095181083 0.032631345 4282135091
-0.00048885285 -0.0094157318 0.032634709 4283911502
-0.063405059 -0.0040861093 0.039672438 4284368981
-0.065099239 -0.0039845272 0.039675776 4289831088
-0.066793427 -0.0038829446 0.039679114 4292859878
-0.068400204 -0.0033311318 0.041704509 4292137696
-0.070181794 -0.0036797796 0.039685786 4294046205
-0.071780816 -0.0031284317 0.04171117 4294966527
-0.073376328 -0.0025967788 0.043650072 4294966526
-0.075062923 -0.0024956514 0.043653395 4294966782
-0.076590948 -0.0017277079 0.046659261 4294966782
-0.078271784 -0.0016269258 0.046662573 4294901502
-0.079952627 -0.0015261435 0.046665881 4294901502
-0.081633464 -0.0014253611 0.046669193 4294836222
-0.0833143 -0.001324579 0.046672504 4294705150
-0.084995136 -0.001223797 0.046675816 4294836222
-0.086675979 -0.0011230144 0.046679128 4294705150
-0.088356815 -0.0010222323 0.046682436 4294836222
-0.090037644 -0.00092145021 0.046685748 4294705150
-0.091718487 -0.00082066783 0.04668906 4294836222
-0.093399324 -0.00071988552 0.046692371 4294836222
-0.09530206 -0.0012821221 0.043693263 4294836222
-0.096988656 -0.0011809947 0.043696586 4294836222
-0.098675251 -0.0010798671 0.043699909 4294836220
0.013508985 -0.0097984355 0.026919222 4282990400
0.011791927 -0.0096954815 0.026922604 4282595642
0.0099848267 -0.0091407895 0.028925069 4281082403
0.0082715955 -0.0090380646 0.028928444 4280687645
0.0065583671 -0.0089353407 0.028931819 4281411368
0.0048451428 -0.0088326167 0.028935194 4281937710
0.0030189685 -0.0080484804 0.031960163 4281806123
0.0013115266 -0.0079461029 0.031963527 4282924604
-0.0003959116 -0.0078437254 0.031966891 4284437843
-0.0021033499 -0.0077413479 0.031970251 4284635222
-0.0072768386 -0.0069897911 0.033957049 4284240465
-0.0089804912 -0.0068876408 0.033960406 4284240467
-0.010640549 -0.0072294618 0.031987071 4283121732
-0.012287134 -0.0078053731 0.028968941 4283187527
-0.014000363 -0.0077026486 0.028972317 4282792771
-0.015762864 -0.0069223302 0.031997159 4282990408
-0.017470304 -0.0068199527 0.032000523 4282464580
-0.019202404 -0.0062747397 0.033980541 4282004542
-0.020906057 -0.0061725895 0.033983897 4283385936
-0.061618652 -0.0026278878 0.039006464 4291340982
-0.06323728 -0.0020789655 0.04103341 4291801531
-0.064927585 -0.0019776155 0.04103674 4294964219
-0.066617891 -0.0018762656 0.04104007 4293712349
-0.068308197 -0.0017749156 0.041043397 4290423980
-0.069998503 -0.0016735656 0.041046727 4293517791
-0.071688809 -0.0015722157 0.041050058 4294966782
-0.073284522 -0.0010439589 0.042990405 4294966782
-0.074971117 -0.00094283151 0.042993724 4294966782
-0.076499455 -0.00018018785 0.046001844 4294901502
-0.078180291 -7.9405756e-05 0.046005152 4294901502
-0.079861134 2.1376574e-05 0.046008464 4294901502
-0.081425615 0.00055997586 0.048003532 4294901502
-0.083102636 0.00066052942 0.048006836 4294836222
-0.084903643 0.0003237231 0.046018396 4294901502
-0.086584486 0.00042450565 0.046021707 4294836222
-0.0881337 0.00096218946 0.048016746 4294901502
-0.089946151 0.00062606984 0.046028331 4294836222
-0.091626994 0.00072685222 0.046031643 4294901502
-0.09330783 0.00082763453 0.046034951 4294901502
-0.094988666 0.00092841662 0.046038263 4294901502
-0.09666951 0.001029199 0.046041574 4294901502
-0.098350339 0.001129981 0.046044886 4294901502
0.01350454 -0.0077689053 0.028248236 4283714121
0.011791311 -0.0076661808 0.028251611 4283582535
0.010078083 -0.0075634564 0.028254986 4282727226
0.0083648516 -0.0074607315 0.028258361 4282332468
0.0066516232 -0.0073580076 0.028261736 4283318850
0.0048193489 -0.0065788375 0.031288974 4283319105
0.0031119105 -0.00647646 0.031292338 4283253312
0.0014044687 -0.006374083 0.031295702 4283055933
-0.00036949242 -0.0058298642 0.033277284 4283845194
-0.0021356065 -0.0052880547 0.03525009 4283253057
-0.0038354883 -0.0051861308 0.035253439 4284042573
-0.0054804506 -0.0055234134 0.03328735 4284042573
-0.0071841031 -0.0054212636 0.033290707 4283713610
-0.0088877557 -0.0053191134 0.033294063 4283713610
-0.010547606 -0.0056574419 0.031319246 4283318854
-0.012193878 -0.00622804 0.028298859 4283450440
-0.013870468 -0.0065703057 0.026301755 4283252807
-0.015620333 -0.0060225911 0.028305607 4283319113
-0.017377362 -0.0052479329 0.031332698 4282727489
-0.0190848 -0.0051455558 0.031336062 4282924868
-0.02079224 -0.0050431783 0.031339426 4283648591
-0.061526433 -0.0010680837 0.038343828 4294828011
-0.063145272 -0.00052272191 0.040372286 4294697191
-0.064835578 -0.00042137192 0.040375616 4294965242
-0.066525884 -0.00032002205 0.040378947 4294963950
-0.06813293 0.00020547856 0.042320766 4293515987
-0.069906496 -0.00011732204 0.040385604 4294964975
-0.071365446 0.0010649854 0.045334492 4294966778
-0.073046289 0.0011657677 0.045337804 4294901502
-0.074727125 0.0012665499 0.045341112 4294901502
-0.076303266 0.0018023162 0.047337696 4294901502
-0.077980287 0.0019028697 0.047341 4294901502
-0.079657309 0.0020034229 0.047344305 4294901502
-0.08133433 0.0021039764 0.047347609 4294901502
-0.083011352 0.0022045299 0.047350913 4294901502
-0.084688373 0.0023050832 0.047354214 4294901502
-0.086365394 0.0024056367 0.047357518 4294901502
-0.088042416 0.00250619 0.047360823 4294901502
-0.089719437 0.0026067435 0.047364127 4294901502
-0.091396458 0.002707297 0.047367427 4294901502
-0.093216337 0.0023751545 0.045377534 4294901502
-0.094897173 0.0024759367 0.045380846 4294901502
-0.096578009 0.002576719 0.045384157 4294901502
-0.098258846 0.0026775012 0.045387466 4294966782
-0.099939689 0.0027782836 0.045390777 4294966782
0.013597797 -0.0061915582 0.027578147 4284766809
0.011742047 -0.0054163402 0.030607698 4285029980
0.01017134 -0.0059861094 0.027584897 4285161307
0.0084581086 -0.005883385 0.027588271 4284766549
0.0066197282 -0.0051092086 0.03061779 4285752674
0.0049122903 -0.0050068311 0.030621152 4285555297
0.0032048519 -0.0049044541 0.030624516 4285555298
0.0014974099 -0.0048020766 0.03062788 4284699737
-0.00027675682 -0.0042613368 0.032610942 4284633946
-0.0020430756 -0.003722992 0.034585219 4283581258
-0.0037429577 -0.0036210679 0.034588568 4282660156
-0.0054428396 -0.0035191437 0.034591917 4282331189
-0.0070913676 -0.0038527357 0.032624364 4282199601
-0.0087950202 -0.0037505855 0.03262772 4282199855
-0.010498673 -0.0036484355 0.032631077 4282659892
-0.0121621 -0.003983059 0.030654786 4282791732
-0.01381385 -0.0045479685 0.027632143 4282857523
-0.015527076 -0.0044452446 0.027635518 4282725937
-0.017284419 -0.0036759269 0.030664878 4283318335
-0.018991858 -0.0035735497 0.03066824 4283186750
-0.020699298 -0.0034711724 0.030671604 4283647301
-0.05967265 0.00083082163 0.039704502 4294962168
-0.061362956 0.00093217159 0.039707832 4294962681
-0.063053265 0.0010335216 0.039711162 4294963960
-0.064743571 0.0011348716 0.039714493 4294964468
-0.066354528 0.0016571709 0.041657776 4294965491
-0.067912281 0.0024109411 0.044670451 4294966258
-0.069593117 0.0025117232 0.044673763 4294572527
-0.071180917 0.0030446565 0.046671864 4294901754
-0.072857939 0.00314521 0.046675168 4294901502
-0.07453496 0.0032457632 0.046678472 4294901502
-0.076211981 0.0033463167 0.046681773 4294901502
-0.077889003 0.0034468703 0.046685077 4294901502
-0.079454415 0.0039764978 0.048674125 4294901502
-0.081127636 0.0040768231 0.048677422 4294901502
-0.082800858 0.0041771489 0.048680719 4294901502
-0.084597088 0.0038490838 0.046698291 4294901502
-0.08627411 0.0039496371 0.046701595 4294901502
-0.087951131 0.0040501906 0.0467049 4294901502
-0.089628153 0.0041507441 0.046708204 4294901502
-0.091305174 0.0042512976 0.046711504 4294901502
-0.092982195 0.0043518506 0.046714809 4294901502
-0.094659217 0.0044524041 0.046718113 4294901502
-0.096336238 0.0045529576 0.046721417 4294901502
-0.098013259 0.0046535111 0.046724722 4294966782
-0.099690273 0.0047540641 0.046728022 4294966782
0.013691053 -0.0046142247 0.026908064 4284437844
0.011834988 -0.0038443343 0.029939879 4284832089
0.01012755 -0.003741957 0.029943243 4285292126
0.0084201116 -0.00363958 0.029946607 4285028954
0.0067126695 -0.0035372025 0.029949969 4284634196
0.0050052311 -0.0034348252 0.029953333 4284634196
0.0032977932 -0.0033324482 0.029956697 4284107341
0.0015196315 -0.0027949593 0.031941243 4283778376
-0.00018402124 -0.0026928091 0.031944599 4282988606
-0.0018876739 -0.0025906588 0.031947955 4282396723
-0.0035913265 -0.0024885086 0.031951312 4282330160
-0.0053503099 -0.0019540945 0.033927053 4281869607
-0.0070501883 -0.0018521707 0.033930399 4281738276
-0.0087500699 -0.0017502466 0.033933748 4281606688
-0.010405937 -0.0020799078 0.031964734 4282330150
-0.012109586 -0.0019777578 0.031968091 4282395942
-0.0137766 -0.0023086753 0.02999033 4282461735
-0.015484039 -0.0022062983 0.029993694 4282132770
-0.017191479 -0.0021039208 0.029997056 4282066465
-0.018860275 -0.0026624624 0.026972184 4283250739
-0.020573504 -0.002559738 0.026975559 4283579704
-0.056200027 0.0021843514 0.039036725 4294965759
-0.057890333 0.0022857015 0.039040055 4294962942
-0.059580639 0.0023870515 0.039043386 4294304751
-0.061270948 0.0024884015 0.039046712 4294963193
-0.062889531 0.0030077361 0.040991459 4294966014
-0.064576127 0.0031088635 0.040994782 4294637042
-0.066058569 0.0042870105 0.046006024 4294967033
-0.06773559 0.004387564 0.046009328 4294770678
-0.069412611 0.0044881175 0.046012633 4294508276
-0.071089633 0.0045886706 0.046015937 4294836220
-0.072670445 0.0051157037 0.048006501 4294901502
-0.074443676 0.0047897776 0.046022542 4294901502
-0.076016888 0.0053163548 0.048013095 4294901502
-0.07769011 0.0054166801 0.048016392 4294901502
-0.079363331 0.0055170064 0.048019685 4294901502
-0.081036553 0.0056173317 0.048022982 4294901502
-0.082709774 0.0057176575 0.048026279 4294901502
-0.084382996 0.0058179828 0.048029575 4294901502
-0.086056218 0.0059183086 0.048032872 4294901502
-0.087729447 0.0060186344 0.048036166 4294901502
-0.089402661 0.0061189597 0.048039462 4294901502
-0.091213889 0.0057953116 0.046055578 4294901502
-0.092890903 0.0058958651 0.046058882 4294901502
-0.094567932 0.0059964187 0.046062183 4294901502
-0.096244954 0.0060969717 0.046065487 4294901502
-0.097921968 0.0061975252 0.046068791 4294966782
-0.099598989 0.0062980787 0.046072096 4294966782
0.01378431 -0.0030368778 0.026237974 4282858812
0.012071081 -0.0029341537 0.026241349 4282989889
0.010220491 -0.0021699374 0.029275417 4284107349
0.0085130539 -0.0020675601 0.029278779 4283975252
0.0068056118 -0.0019651828 0.029282143 4282264632
0.0050981734 -0.0018628056 0.029285507 4282791229
0.003316019 -0.0013285957 0.031271551 4281869607
0.0016123662 -0.0012264454 0.031274907 4282988341
-9.1286456e-05 -0.0011242952 0.03127826 4282133284
-0.0018580158 -0.00059289369 0.033255491 4282593834
-0.0035578979 -0.00049096957 0.033258837 4281738264
-0.0052577797 -0.00038904542 0.033262186 4281409299
-0.0069576581 -0.00028712154 0.033265535 4281080334
-0.0086575402 -0.00018519739 0.033268884 4281146129
-0.010357426 -8.3273029e-05 0.033272233 4281408790
-0.012057308 1.8651102e-05 0.033275582 4281540121
-0.013720506 -0.00030709352 0.031305108 4281276951
-0.015424158 -0.00020494328 0.031308465 4281144593
-0.017098537 -0.00053190114 0.029329231 4282657056
-0.018805975 -0.00042952396 0.029332595 4282788640
-0.020513415 -0.00032714664 0.029335957 4282722847
-0.022220856 -0.00022476933 0.029339321 4283972914
-0.056051347 0.0041560461 0.0403185 4294569467
-0.057737943 0.0042571737 0.040321823 4294832126
-0.05932511 0.0050020562 0.043339066 4294897917
-0.061005946 0.0051028384 0.043342378 4294966015
-0.062613241 0.0056299041 0.045343496 4294966783
-0.064290263 0.0057304576 0.0453468 4294967293
-0.065967284 0.0058310111 0.045350101 4294705147
-0.067559697 0.0063552354 0.047342174 4294443002
-0.069321327 0.0060321176 0.04535671 4294508538
-0.07090614 0.0065558865 0.047348768 4294705148
-0.072579361 0.0066562118 0.047352064 4294901502
-0.074252591 0.0067565376 0.047355358 4294901502
-0.075925812 0.0068568634 0.047358654 4294901502
-0.07749211 0.0073775956 0.049341716 4294901502
-0.079272255 0.0070575145 0.047365248 4294901502
-0.080945477 0.0071578398 0.047368545 4294901502
-0.082500435 0.0076778922 0.04935158 4294901502
-0.08429192 0.0073584914 0.047375135 4294901502
-0.085965142 0.0074588167 0.047378432 4294901502
-0.087638363 0.0075591425 0.047381729 4294901502
-0.089311585 0.0076594679 0.047385022 4294901502
-0.090984806 0.0077597937 0.047388319 4294901502
-0.092799619 0.0074398657 0.045402959 4294901502
-0.094476648 0.0075404192 0.04540626 4294901502
-0.096153662 0.0076409723 0.045409564 4294901502
-0.097830683 0.0077415258 0.045412868 4294901502
-0.099350914 0.0082614217 0.0474048 4294901502
0.013728309 -0.00080268574 0.02860087 4282595640
0.012020871 -0.00070030853 0.028604234 4282463545
0.010313433 -0.00059793133 0.028607596 4284436316
0.0086059952 -0.00049555412 0.02861096 4284041304
0.0068985526 -0.00039317671 0.028614324 4281607215
0.0051911147 -0.00029079951 0.028617686 4281278249
0.0034087545 0.00023993199 0.030605208 4280159761
0.0017051018 0.0003420822 0.030608563 4281080860
1.4491353e-06 0.00044423243 0.030611919 4280422412
-0.001765485 0.00097216916 0.03259062 4281277974
-0.003465367 0.0010740933 0.032593969 4280356870
-0.0051652491 0.0011760175 0.032597315 4280685576
-0.0068651275 0.0012779414 0.032600664 4280225024
-0.0085650096 0.0013798655 0.032604013 4280948489
-0.010264895 0.0014817899 0.032607362 4280356352
-0.011964777 0.0015837139 0.032610711 4280948235
-0.01362777 0.0012614341 0.030638767 4280487170
-0.015331423 0.0013635843 0.030642122 4280684034
-0.017035075 0.0014657344 0.030645479 4281143557
-0.018738726 0.0015678847 0.030648835 4283117086
-0.02044238 0.0016700348 0.030652191 4283972397
-0.022127913 0.0013472367 0.028671501 4284169774
-0.052635398 0.0050941384 0.037707817 4292990433
-0.054272946 0.0056077386 0.03965551 4292859360
-0.055871937 0.006348012 0.042675026 4293187814
-0.057552777 0.0064487942 0.042678338 4294766846
-0.059233617 0.0065495763 0.042681649 4294966015
-0.060914449 0.0066503584 0.042684957 4294966271
-0.062521957 0.0071739047 0.044687573 4294966271
-0.064198978 0.0072744582 0.044690877 4294770687
-0.065876 0.0073750117 0.044694178 4294246393
-0.067468621 0.0078957435 0.046687737 4293787123
-0.069141842 0.0079960693 0.04669103 4294377466
-0.070815064 0.0080963951 0.046694327 4294705148
-0.072488286 0.0081967199 0.046697624 4294901502
-0.074161507 0.0082970457 0.046700921 4294901502
-0.075731799 0.0088145137 0.048685472 4294901502
-0.077401243 0.0089146122 0.048688758 4294901502
-0.07890588 0.0096362112 0.051647108 4294901502
-0.080569677 0.0097359717 0.051650386 4294901502
-0.082409561 0.0092149088 0.048698626 4294901502
-0.084079005 0.0093150074 0.048701916 4294901502
-0.085874066 0.0089993253 0.046723992 4294901502
-0.087547287 0.0090996511 0.046727289 4294901502
-0.089220501 0.0091999769 0.046730585 4294901502
-0.090893731 0.0093003018 0.046733879 4294901502
-0.092566952 0.0094006276 0.046737175 4294901502
-0.094240174 0.0095009534 0.046740472 4294901502
-0.095913395 0.0096012792 0.046743769 4294901502
-0.097586617 0.009701605 0.046747062 4294901502
-0.09941642 0.0093860794 0.04476025 4294901502
0.015427055 0.0010934082 0.029915374 4283582537
0.013821252 0.00076933397 0.027933042 4283056193
0.012113813 0.00087171118 0.027936406 4282661433
0.010406375 0.00097408838 0.02793977 4283976780
0.0086124483 0.0015020089 0.029928798 4283450436
0.0069087916 0.0016041594 0.029932152 4281805615
0.0052051428 0.0017063094 0.029935509 4280226329
0.00350149 0.0018084596 0.029938865 4280225561
0.0017268127 0.0023333698 0.031919058 4279699218
2.693064e-05 0.002435294 0.031922407 4279501326
-0.0017689115 0.0031755648 0.034913834 4279962132
-0.0034630967 0.0032771474 0.034917172 4280027921
-0.0051572779 0.0033787296 0.034920506 4281146139
-0.0068514668 0.0034803124 0.034923844 4280751631
-0.0085456483 0.0035818948 0.034927182 4282396194
-0.010172365 0.003046839 0.031942498 4281014790
-0.011872247 0.0031487632 0.031945847 4282396694
-0.013572128 0.0032506872 0.031949192 4281672710
-0.015238687 0.002932112 0.029975781 4282593298
-0.016942339 0.003034262 0.029979136 4281670149
-0.018645991 0.0031364122 0.029982492 4287195736
-0.020349644 0.0032385625 0.029985849 4288313963
-0.022053294 0.0033407125 0.029989203 4284761909
-0.035670597 0.004575701 0.031992726 4292198571
-0.037370477 0.0046776254 0.031996075 4292724917
-0.03907036 0.0047795493 0.03199942 4289501828
-0.052543391 0.0066503547 0.037046704 4291148227
-0.054181136 0.0071605584 0.03899584 4292069331
-0.055780444 0.0078955321 0.042017609 4294174707
-0.057461284 0.0079963142 0.042020917 4294964991
-0.05907663 0.0085168127 0.044025037 4294965759
-0.060753647 0.0086173657 0.044028342 4294966015
-0.062357873 0.0091352612 0.046023414 4294966271
-0.064031094 0.009235587 0.04602671 4294967295
-0.065704316 0.0093359128 0.046030007 4294639614
-0.067293726 0.0098510487 0.048016068 4294377467
-0.06896317 0.0099511473 0.048019357 4294508541
-0.070632607 0.010051247 0.048022643 4294705150
-0.072302051 0.010151345 0.048025932 4294901502
-0.073971488 0.010251444 0.048029222 4294901502
-0.075640932 0.010351543 0.048032511 4294901502
-0.077151507 0.01106829 0.050993074 4294901502
-0.078702077 0.011592304 0.053032 4294901502
-0.080361992 0.011691832 0.05303527 4294901502
-0.082142904 0.011367572 0.051002905 4294901502
-0.083806708 0.011467333 0.051006183 4294901502
-0.085470505 0.011567093 0.051009461 4294901502
-0.087327011 0.011052235 0.04805553 4294901502
-0.089129426 0.010740471 0.046076149 4294901502
-0.090802647 0.010840797 0.046079446 4294901502
-0.092475876 0.010941123 0.046082743 4294901502
-0.09414909 0.011041448 0.046086039 4294901502
-0.095971093 0.010728987 0.044097714 4294901502
-0.097495534 0.011242099 0.046092629 4294836222
-0.099325135 0.010930094 0.044104319 4294836222
0.01551979 0.0026619222 0.029249037 4283385158
0.013816137 0.0027640725 0.029252393 4282727228
0.012112484 0.0028662225 0.029255748 4282200884
0.010408832 0.0029683728 0.029259104 4281937969
0.0087051829 0.0030705228 0.029262461 4282003762
0.0070015267 0.0031726733 0.029265817 4282595901
0.0052191066 0.0036945709 0.031247495 4281542961
0.0035192247 0.0037964948 0.031250846 4284371548
0.0018193426 0.003898419 0.031254191 4283845204
1.7489681e-05 0.0046337866 0.03424786 4285292393
-0.0016766917 0.0047353688 0.034251198 4285884529
-0.0033708769 0.0048369514 0.034254532 4286805113
-0.0050650584 0.004938534 0.03425787 4288384397
-0.0067592473 0.0050401166 0.034261208 4288120961
-0.0084534287 0.0051416988 0.034264546 4290423967
-0.01014761 0.0052432814 0.034267884 4288648061
-0.011779717 0.0047138124 0.03128098 4290752918
-0.013479598 0.0048157363 0.031284329 4289963652
-0.015179479 0.0049176603 0.031287678 4291279001
-0.016879363 0.0050195847 0.031291027 4291539612
-0.018579245 0.0051215091 0.031294376 4291867555
-0.020279128 0.005223433 0.031297725 4290617488
-0.02196056 0.0049092267 0.029322868 4288841590
-0.035578068 0.0061407504 0.031327859 4294966247
-0.037277948 0.0062426743 0.031331208 4294568148
-0.03894873 0.006970183 0.034324616 4294963676
-0.040642913 0.0070717656 0.034327954 4292726457
-0.042337097 0.0071733478 0.034331292 4292134068
-0.044031281 0.0072749304 0.03433463 4287067245
-0.045725465 0.007376513 0.034337968 4288251268
-0.047419645 0.0074780951 0.034341305 4291476154
-0.049070768 0.008003898 0.03637892 4292660688
-0.050716139 0.0085111232 0.038329527 4291279553
-0.052402735 0.0086122509 0.03833285 4291345861
-0.05408933 0.0087133786 0.038336169 4293055967
-0.055631299 0.0098597063 0.043362506 4294832124
-0.05730832 0.0099602593 0.04336581 4294965503
-0.058985341 0.010060812 0.043369114 4294964735
-0.060662363 0.010161366 0.043372419 4294965759
-0.062266793 0.010675783 0.045368969 4294966015
-0.063940018 0.010776109 0.045372266 4294966015
-0.065533414 0.011287967 0.047359824 4294901503
-0.067202851 0.011388065 0.04736311 4294770687
-0.068872295 0.011488164 0.047366399 4294508282
-0.070541732 0.011588263 0.047369689 4294836222
-0.072211176 0.011688362 0.047372978 4294901502
-0.073880613 0.01178846 0.047376264 4294901502
-0.075550057 0.01188856 0.047379553 4294901502
-0.077060945 0.012600116 0.050342321 4294901502
-0.078611724 0.013120556 0.052382767 4294901502
-0.080388546 0.012799637 0.050348878 4294901502
-0.081931561 0.013319612 0.052389309 4294901502
-0.083716147 0.012999159 0.050355431 4294901502
-0.085379943 0.01309892 0.050358709 4294901502
-0.08704374 0.01319868 0.050361987 4294901502
-0.088905573 0.01268935 0.047405861 4294901502
-0.090575017 0.012789449 0.047409151 4294901502
-0.092244454 0.012889548 0.04741244 4294901502
-0.093913898 0.012989647 0.04741573 4294901502
-0.095583335 0.013089745 0.047419015 4294901502
-0.097252779 0.013189845 0.047422305 4294836222
-0.099077679 0.012882947 0.045441482 4294836222
0.015612526 0.0042304499 0.028582694 4283516744
0.013811046 0.0047499994 0.030565888 4282200884
0.012111165 0.0048519233 0.030569237 4280687906
0.010411283 0.0049538477 0.030572586 4279832862
0.0087114004 0.0050557717 0.030575933 4280227880
0.0070115151 0.0051576961 0.030579282 4285294196
0.0053116367 0.00525962 0.030582631 4291215562
0.003498076 0.0059904261 0.033578549 4294504952
0.0018038946 0.0060920082 0.033581886 4292465619
0.00010970952 0.0061935908 0.033585224 4294833904
-0.0015844719 0.006295173 0.033588558 4292728524
-0.0032786571 0.0063967556 0.033591896 4294570983
-0.0049728383 0.0064983377 0.033595234 4294307807
-0.0066670272 0.0065999208 0.033598572 4294768101
-0.0083612083 0.0067015029 0.03360191 4293978583
-0.01005539 0.0068030856 0.033605248 4294833892
-0.011749575 0.0069046677 0.033608586 4294504414
-0.013387067 0.0063807857 0.030619465 4294767586
-0.01508695 0.0064827097 0.030622814 4294240215
-0.016832123 0.0072094151 0.033618595 4294963683
-0.018526308 0.0073109977 0.033621933 4294961627
-0.020243553 0.0078371922 0.035661194 4293579717
-0.021933857 0.0079385424 0.035664525 4290619289
-0.032085773 0.007501951 0.030656299 4288187258
-0.033785656 0.0076038754 0.030659646 4293648077
-0.035485536 0.0077057993 0.030662995 4294966763
-0.037162326 0.008428405 0.033658642 4294966506
-0.03885651 0.0085299872 0.03366198 4294965991
-0.040550694 0.0086315693 0.033665318 4294307290
-0.042244878 0.0087331524 0.033668656 4293253577
-0.043939061 0.0088347346 0.033671994 4290621350
-0.045598146 0.0093574421 0.035711139 4290555304
-0.047288451 0.0094587915 0.03571447 4290621358
-0.048937738 0.0099628158 0.037666533 4290753459
-0.05050895 0.011102046 0.042696673 4291148478
-0.052185971 0.0112026 0.042699978 4292134862
-0.053862993 0.011303153 0.042703282 4293778920
-0.055540014 0.011403707 0.042706583 4294963452
-0.057217035 0.01150426 0.042709887 4294963711
-0.058829274 0.012015641 0.044707939 4294369006
-0.060502496 0.012115967 0.044711232 4294964991
-0.062175713 0.012216291 0.044714529 4294965503
-0.063773103 0.012724911 0.046703566 4294964478
-0.06544254 0.01282501 0.046706855 4294964988
-0.067111976 0.012925109 0.046710145 4294966783
-0.068781421 0.013025207 0.04671343 4294703610
-0.070450865 0.013125307 0.04671672 4294901502
-0.072120301 0.013225405 0.046720009 4294901502
-0.073789738 0.013325504 0.046723299 4294967295
-0.075459182 0.013425604 0.046726588 4294967295
-0.076970376 0.014131956 0.049691565 4294967295
-0.078521371 0.014648807 0.051733535 4294901502
-0.080181286 0.014748335 0.051736806 4294835709
-0.081841201 0.014847863 0.051740076 4294835709
-0.083501115 0.014947391 0.051743343 4294967295
-0.08516103 0.015046919 0.051746614 4294967295
-0.086953178 0.01473052 0.049711231 4294967295
-0.088616975 0.01483028 0.049714509 4294967295
-0.090484142 0.014326492 0.046756182 4294967295
-0.092153579 0.014426592 0.046759471 4294967295
-0.093823023 0.01452669 0.046762761 4294967295
-0.09549246 0.014626789 0.04676605 4294967295
-0.097161904 0.014726888 0.046769336 4294770429
-0.098831341 0.014826987 0.046772625 4294770429
0.015705261 0.0057989773 0.027916351 4283648330
0.013903578 0.0063150623 0.029901018 4282595642
0.012203695 0.0064169862 0.029904366 4281477422
0.010503814 0.0065189102 0.029907715 4278583308
0.0088039311 0.0066208346 0.029911064 4280097064
0.0069786622 0.007347065 0.032909237 4288123809
0.005284477 0.0074486476 0.032912575 4293584880
0.0035902958 0.0075502298 0.032915913 4294966783
0.0018961144 0.0076518124 0.03291925 4294308338
0.00020192935 0.007753395 0.032922585 4294967290
-0.0015581772 0.0082785729 0.034963448 4294967286
-0.0032484801 0.0083799222 0.034966778 4294966770
-0.0049387868 0.0084812725 0.034970108 4294703083
-0.0066290936 0.0085826218 0.034973439 4294967283
-0.0082689887 0.0082613071 0.032939274 4294967280
-0.0099631706 0.0083628893 0.032942612 4294967281
-0.011657355 0.0084644724 0.032945946 4294111200
-0.013351538 0.0085660545 0.032949284 4294834153
-0.015045722 0.0086676367 0.032952622 4294967025
-0.016739903 0.0087692197 0.032955959 4294965742
-0.018434089 0.0088708019 0.032959297 4294965741
-0.020151544 0.0093934219 0.035000075 4294966257
-0.021841848 0.0094947722 0.035003405 4294963684
-0.023532156 0.0095961224 0.035006735 4292923333
-0.031987555 0.0096834619 0.032985996 4291939002
-0.033693124 0.0091689378 0.029994776 4294438882
-0.038764291 0.010089791 0.032999344 4294967279
-0.040435217 0.010609622 0.035040032 4294307809
-0.043815833 0.010812322 0.035046689 4292332225
-0.045506138 0.010913672 0.03505002 4291608505
-0.047159337 0.011414508 0.037003543 4291016114
-0.048740644 0.012545507 0.042037442 4290819252
-0.050417665 0.01264606 0.042040743 4291214525
-0.052094687 0.012746613 0.042044047 4292069069
-0.053771708 0.012847167 0.042047352 4293252575
-0.05544873 0.01294772 0.042050656 4294238444
-0.057064973 0.013455823 0.044050202 4292855767
-0.058738194 0.013556149 0.044053499 4291012793
-0.060411416 0.013656475 0.044056796 4291801796
-0.062084638 0.0137568 0.044060089 4294960885
-0.063682228 0.014261927 0.046050612 4294964991
-0.065351665 0.014362026 0.046053898 4294965503
-0.067021109 0.014462125 0.046057187 4294966271
-0.068690546 0.014562224 0.046060476 4294966527
-0.07035999 0.014662323 0.046063766 4294966782
-0.072029427 0.014762422 0.046067055 4294901502
-0.073698863 0.014862521 0.046070341 4294967295
-0.075368308 0.014962619 0.04607363 4294967295
-0.076771103 0.016077532 0.051081035 4294901502
-0.078431018 0.01617706 0.051084302 4294901502
-0.080090933 0.016276587 0.051087573 4294835709
-0.081750847 0.016376115 0.051090844 4294835709
-0.083410762 0.016475642 0.051094111 4294901502
-0.085070677 0.016575171 0.051097382 4294901502
-0.086862609 0.016262345 0.049060479 4294901502
-0.088526405 0.016362106 0.049063757 4294901502
-0.090393268 0.01586351 0.046103228 4294901502
-0.092062704 0.015963608 0.046106517 4294901502
-0.093732148 0.016063707 0.046109803 4294901502
-0.095401585 0.016163805 0.046113092 4294901502
-0.097071029 0.016263904 0.046116382 4294901502
-0.098740466 0.016364003 0.046119671 4294836222
0.012296225 0.0079820352 0.029239502 4282530106
0.010459253 0.008703704 0.032239925 4279965460
0.0087650632 0.0088052871 0.032243263 4280229404
0.0070708822 0.0089068692 0.032246601 4287926931
0.0053766971 0.0090084514 0.032249939 4292532445
0.0036825156 0.0091100344 0.032253277 4294308603
0.001914449 0.0096321162 0.034295667 4294966783
0.00022413873 0.0097334664 0.034298997 4294374143
-0.0014661679 0.0098348157 0.034302324 4294966527
-0.0031564708 0.009936166 0.034305654 4294966527
-0.0048467773 0.010037516 0.034308985 4294702845
-0.006537084 0.010138866 0.034312315 4294900475
-0.0082273902 0.010240216 0.034315646 4294966519
-0.0099176969 0.010341566 0.034318972 4294967284
-0.011565136 0.010024277 0.03228331 4294835948
-0.013259319 0.010125859 0.032286648 4294967276
-0.014953502 0.010227441 0.032289986 4294967276
-0.016647683 0.010329023 0.032293323 4294966256
-0.018369228 0.010848315 0.034335621 4294965487
-0.020059535 0.010949666 0.034338951 4294966518
-0.021749839 0.011051016 0.034342282 4294966772
-0.023440147 0.011152365 0.034345612 4294964975
-0.025130453 0.011253715 0.034348942 4294966772
-0.02682076 0.011355066 0.034352269 4294966003
-0.028511066 0.011456415 0.034355599 4294044384
-0.030201154 0.011141683 0.032320023 4294570730
-0.031895336 0.011243266 0.032323357 4294834670
-0.03358952 0.011344848 0.032326695 4294966258
-0.035283703 0.01144643 0.032330032 4294900976
-0.036977887 0.011548012 0.03233337 4294967286
-0.038672071 0.011649596 0.032336708 4294967284
-0.043723822 0.012368565 0.034385566 4293846235
-0.04706753 0.012967329 0.036343873 4291213493
-0.048649356 0.014089508 0.041381519 4290819507
-0.050326381 0.014190061 0.04138482 4291411904
-0.052003402 0.014290614 0.041388124 4292266448
-0.05368042 0.014391168 0.041391429 4293120732
-0.055357441 0.014491721 0.041394733 4293645794
-0.056973893 0.014996332 0.043395761 4290486449
-0.058647115 0.015096658 0.043399058 4288446353
-0.060320336 0.015196983 0.043402355 4287985286
-0.061921913 0.015698845 0.045394365 4294039012
-0.063591354 0.015798943 0.045397654 4294963967
-0.065260798 0.015899042 0.045400944 4294964734
-0.066806458 0.016597059 0.048370395 4294965759
-0.068599671 0.016099241 0.045407519 4294964729
