# .PCD v0.7 - Point Cloud Data file format
VERSION 0.7
FIELDS x y z rgb
SIZE 4 4 4 4
TYPE F F F U
COUNT 1 1 1 1
WIDTH 962
HEIGHT 1
VIEWPOINT 0 0 0 1 0 0 0
POINTS 962
DATA ascii
-0.044070359 0.026472185 -0.041512661 4289501862
-0.045770735 0.026329523 -0.04147736 4287133318
-0.047489084 0.027132278 -0.039679345 4288778402
-0.04914983 0.025103278 -0.043161735 4287594896
-0.050808016 0.023539148 -0.045779377 4291017154
-0.05249894 0.023397278 -0.04574427 4293913069
-0.054189865 0.023255408 -0.045709167 4293651174
-0.05584304 0.022147194 -0.047479216 4294967288
-0.057530094 0.022005647 -0.047444191 4293125342
-0.059173603 0.020939698 -0.049137279 4292136917
-0.060856957 0.020798463 -0.049102332 4292596706
-0.062461264 0.01922421 -0.051748361 4289569977
-0.064138867 0.019083457 -0.051713534 4289766851
-0.065816469 0.018942704 -0.051678706 4288911546
-0.067494079 0.018801952 -0.051643874 4289240511
-0.069171682 0.018661199 -0.051609047 4288319659
-0.070849285 0.018520446 -0.051574219 4291346899
-0.072526895 0.018379694 -0.051539388 4291675854
-0.074204497 0.018238943 -0.05150456 4292070861
-0.0758821 0.01809819 -0.051469728 4292729042
-0.077473029 0.017010415 -0.053212751 4293847777
-0.079146825 0.016869983 -0.053178001 4294702832
-0.08082062 0.016729549 -0.053143252 4294505456
-0.082494423 0.016589116 -0.053108498 4294570999
-0.084168218 0.016448684 -0.053073749 4294966783
-0.085842013 0.01630825 -0.053038999 4294966782
-0.087515809 0.016167818 -0.05300425 4294967293
-0.089189604 0.016027385 -0.0529695 4294967039
-0.090863399 0.015886953 -0.052934751 4294835450
-0.092658147 0.016690666 -0.05112144 4294967039
-0.094335757 0.016549913 -0.051086608 4294572024
-0.09601336 0.016409162 -0.051051781 4294966782
-0.097558588 0.015325221 -0.052795749 4294703096
-0.099232376 0.015184788 -0.052761 4294571510
-0.0012055861 -0.0040420727 -0.1025602 4287334026
-0.0026879308 -0.0032335625 -0.10078532 4287071104
-0.0042611565 -0.0033655572 -0.10075266 4287136637
-0.0058343858 -0.0034975524 -0.10072 4287728260
-0.007407615 -0.0036295475 -0.10068734 4286937726
-0.0089083016 -0.0028181726 -0.098903842 4287068801
-0.010485279 -0.0029504821 -0.098871104 4287529354
-0.011994656 -0.0021027501 -0.097018093 4287924113
-0.013575538 -0.0022353872 -0.096985273 4287200647
-0.015156425 -0.002368025 -0.096952453 4287463821
-0.014971354 0.02842796 -0.0394095 4290885570
-0.01667551 0.02828498 -0.039374117 4294570492
-0.018379664 0.028142001 -0.039338738 4294966527
-0.020083822 0.027999021 -0.039303359 4294506495
-0.021787977 0.027856041 -0.039267976 4294572799
-0.023492131 0.02771306 -0.039232597 4293718516
-0.025148187 0.029016709 -0.036501169 4294180091
-0.02690044 0.027427102 -0.039161835 4294508543
-0.028604599 0.027284121 -0.039126456 4294443005
-0.030308753 0.027141141 -0.039091073 4293654254
-0.03201291 0.02699816 -0.039055694 4293586151
-0.033717062 0.026855182 -0.039020315 4294967033
-0.035421219 0.026712202 -0.038984932 4294967035
-0.037125375 0.026569221 -0.038949553 4294967035
-0.038830761 0.025482383 -0.040678576 4294966527
-0.040531136 0.025339719 -0.040643275 4294898683
-0.042231515 0.025197055 -0.040607974 4291674062
-0.04393189 0.025054393 -0.040572669 4286738820
-0.045632266 0.02491173 -0.040537369 4289041839
-0.047332641 0.024769068 -0.040502068 4291213522
-0.049011666 0.023688624 -0.042223826 4291214034
-0.050708279 0.023546277 -0.0421886 4293452275
-0.052361242 0.021987371 -0.044809509 4294638079
-0.054052167 0.021845501 -0.044774402 4293849841
-0.055705655 0.020740511 -0.046546593 4294705146
-0.057392713 0.020598965 -0.046511568 4294244851
-0.059079766 0.02045742 -0.046476543 4294702331
-0.060719874 0.019394869 -0.048171755 4293845491
-0.062403224 0.019253636 -0.048136804 4291871198
-0.064086579 0.019112401 -0.048101857 4287068060
-0.065679856 0.017543901 -0.050751302 4288581049
-0.067357466 0.017403148 -0.050716475 4287002530
-0.069035068 0.017262395 -0.050681647 4289831879
-0.07064154 0.016176516 -0.052426454 4292332260
-0.072315335 0.016036084 -0.052391704 4292793567
-0.073989138 0.015895652 -0.052356955 4292925654
-0.075662933 0.015755219 -0.052322205 4292728524
-0.077336729 0.015614786 -0.052287456 4292597193
-0.079010524 0.015474353 -0.052252706 4292465354
-0.080684319 0.015333921 -0.052217953 4292267724
-0.082358114 0.015193488 -0.052183203 4293122783
-0.08403191 0.015053055 -0.052148454 4294570745
-0.085705705 0.014912622 -0.052113704 4293716717
-0.0873795 0.014772189 -0.052078955 4293848814
-0.089053296 0.014631757 -0.052044205 4293717228
-0.090727091 0.014491323 -0.052009452 4293585642
-0.092400894 0.014350891 -0.051974703 4293585129
-0.094074689 0.014210458 -0.051939953 4294243059
-0.095748484 0.014070026 -0.051905204 4294768889
-0.097422279 0.013929592 -0.051870454 4294966525
-0.099096075 0.013789159 -0.051835705 4294966012
-0.002471952 -0.0036038279 -0.098163031 4287334531
-0.0039614951 -0.0027577141 -0.096308276 4286939512
-0.0055423812 -0.0028903517 -0.096275449 4287136123
-0.0071232636 -0.003022989 -0.096242629 4287859080
-0.0086305887 -0.0022061793 -0.09443973 4287727242
-0.01021526 -0.0023391345 -0.094406836 4287595145
-0.011799935 -0.0024720901 -0.094373934 4288187282
-0.013322119 -0.0016519959 -0.092562214 4286805889
-0.014910602 -0.0017852709 -0.092529237 4287134856
-0.014832578 0.027007025 -0.038467422 4292069590
-0.016536733 0.026864044 -0.038432043 4294965759
-0.018240888 0.026721064 -0.038396664 4294899967
-0.019945046 0.026578084 -0.038361281 4294966527
-0.0216492 0.026435103 -0.038325902 4294966783
-0.023353355 0.026292125 -0.038290523 4294441471
-0.025057513 0.026149144 -0.03825514 4294310399
-0.026761664 0.026006164 -0.038219761 4294508543
-0.028465822 0.025863184 -0.038184382 4293851647
-0.030169977 0.025720205 -0.038148999 4294508543
-0.031874131 0.025577225 -0.03811362 4294901503
-0.033578288 0.025434244 -0.038078241 4294966783
-0.035291541 0.02434992 -0.039809193 4294966783
-0.036991917 0.024207259 -0.039773893 4293452265
-0.038692292 0.024064595 -0.039738592 4294966271
-0.040392667 0.023921933 -0.039703287 4294635260
-0.042093046 0.023779269 -0.039667986 4293516015
-0.043793421 0.023636607 -0.039632685 4287462807
-0.045493796 0.023493944 -0.039597381 4288449451
-0.047194172 0.02335128 -0.03956208 4291081684
-0.048873503 0.022273974 -0.041285921 4292661229
-0.050570115 0.022131627 -0.041250695 4293846782
-0.052223545 0.020577462 -0.043874748 4293913596
-0.053914469 0.020435592 -0.043839641 4293256687
-0.055605393 0.020293724 -0.043804534 4294244603
-0.057255328 0.019192282 -0.045578942 4294901759
-0.058942381 0.019050738 -0.045543917 4294899967
-0.060629439 0.018909192 -0.045508891 4294965503
-0.062266141 0.017850041 -0.04720623 4293384950
-0.063949496 0.017708806 -0.04717128 4290687188
-0.065543242 0.016145097 -0.049823903 4291081696
-0.067220852 0.016004344 -0.049789075 4290950110
-0.068898454 0.015863592 -0.049754243 4292332013
-0.070505239 0.014780888 -0.051501159 4294241023
-0.072179034 0.014640455 -0.051466409 4294966015
-0.07385283 0.014500023 -0.05143166 4294966524
-0.075526625 0.01435959 -0.05139691 4294571500
-0.07720042 0.014219157 -0.051362161 4293913568
-0.078874215 0.014078724 -0.051327407 4293386972
-0.080548011 0.013938292 -0.051292658 4292597459
-0.082221813 0.013797859 -0.051257908 4292597209
-0.083895609 0.013657426 -0.051223159 4293452777
-0.085569404 0.013516993 -0.051188409 4292203478
-0.087243199 0.013376561 -0.05115366 4292335575
-0.088916995 0.013236128 -0.051118907 4291480266
-0.09059079 0.013095695 -0.051084157 4291677645
-0.092264585 0.012955262 -0.051049408 4290821823
-0.09393838 0.012814829 -0.051014658 4291940304
-0.095612176 0.012674397 -0.050979909 4291939790
-0.097285978 0.012533964 -0.050945159 4292466134
-0.098959766 0.01239353 -0.05091041 4294505204
-0.0021628437 -0.0029956717 -0.093695305 4287466117
-0.0036618658 -0.0021768291 -0.091881961 4287005305
-0.0052503492 -0.0023101042 -0.091848984 4286742133
-0.0068388325 -0.0024433793 -0.091816001 4287003770
-0.0083553055 -0.0016542582 -0.090055592 4287266945
-0.0099474853 -0.0017878434 -0.090022534 4286740088
-0.011539666 -0.0019214285 -0.089989476 4287463813
-0.013131842 -0.0020550133 -0.089956425 4286345593
-0.014724018 -0.0021885983 -0.089923367 4287595407
-0.014748561 0.024644082 -0.039292827 4293188071
-0.016448937 0.024501421 -0.039257526 4294898687
-0.018149313 0.024358757 -0.039222222 4294175485
-0.01984969 0.024216093 -0.039186921 4294044927
-0.021510422 0.02501416 -0.037383825 4290032068
-0.023214577 0.024871182 -0.037348442 4291085015
-0.024918735 0.024728201 -0.037313063 4292928502
-0.026622886 0.024585221 -0.037277684 4293718527
-0.028327044 0.024442241 -0.037242301 4293982207
-0.030031199 0.024299262 -0.037206922 4294573823
-0.031735357 0.024156282 -0.037171539 4294374655
-0.033452697 0.023074791 -0.038904507 4294702847
-0.035153072 0.022932129 -0.038869202 4293188849
-0.036853448 0.022789465 -0.038833901 4293912313
-0.038555663 0.021713404 -0.040559351 4291345616
-0.040252276 0.021571057 -0.040524129 4291740117
-0.041948888 0.02142871 -0.040488906 4285752189
-0.043645501 0.021286363 -0.04045368 4281541440
-0.045342114 0.021144016 -0.040418457 4283975529
-0.047038727 0.021001667 -0.040383235 4286146957
-0.048735339 0.02085932 -0.040348008 4288581811
-0.050431956 0.020716973 -0.040312786 4289306813
-0.052085843 0.019167555 -0.042939983 4289636800
-0.053776767 0.019025685 -0.04290488 4290097861
-0.055467695 0.018883815 -0.042869773 4290954448
-0.057158619 0.018741945 -0.042834669 4292993515
-0.058804996 0.017644053 -0.044611294 4294571007
-0.060492054 0.017502509 -0.044576269 4294964479
-0.062179107 0.017360963 -0.044541243 4292266469
-0.063812412 0.016305212 -0.046240702 4293318907
-0.065495759 0.016163977 -0.046205755 4292134382
-0.067179114 0.016022744 -0.046170808 4293319423
-0.06876184 0.014464794 -0.048826847 4292464368
-0.070439443 0.014324042 -0.048792019 4294965247
-0.072042733 0.013244833 -0.050541118 4294965759
-0.073716529 0.0131044 -0.050506368 4294966526
-0.075390324 0.012963967 -0.050471619 4294834418
-0.077064119 0.012823534 -0.050436869 4294834929
-0.078737915 0.012683102 -0.050402116 4294967032
-0.08041171 0.012542669 -0.050367367 4294966266
-0.082085505 0.012402236 -0.050332617 4294307573
-0.0837593 0.012261803 -0.050297868 4294110707
-0.085433096 0.012121371 -0.050263118 4293321959
-0.087106891 0.011980938 -0.050228368 4293454056
-0.088780686 0.011840506 -0.050193615 4292796126
-0.090454482 0.011700072 -0.050158866 4292664540
-0.092128284 0.011559639 -0.050124116 4291874511
-0.09380208 0.011419207 -0.050089367 4292137683
-0.095475875 0.011278774 -0.050054617 4291742411
-0.09714967 0.011138341 -0.050019868 4291676618
-0.098688811 0.01006878 -0.051762253 4293123551
1.6727001e-05 0.00054145308 -0.083979271 4286544762
-0.0015869102 0.00040690665 -0.083945982 4287137152
-0.0032781519 -0.00069443334 -0.085729383 4287268475
-0.004877903 -0.00082865375 -0.085696168 4287465854
-0.0065543833 -0.0018912584 -0.087408818 4287332989
-0.008150409 -0.0020251661 -0.087375686 4288122251
-0.0097464295 -0.0021590735 -0.087342545 4287530115
-0.011342451 -0.0022929809 -0.087309413 4287924875
-0.012938476 -0.0024268888 -0.08727628 4287332486
-0.014534498 -0.0025607962 -0.08724314 4288713886
-0.014555024 0.024165139 -0.036583267 4292792802
-0.016310468 0.023083633 -0.038317539 4292200925
-0.018010845 0.022940971 -0.038282238 4291675353
-0.019711221 0.022798307 -0.038246937 4289043893
-0.021411598 0.022655645 -0.038211633 4282333523
-0.0230758 0.023450239 -0.036406364 4283518569
-0.024779959 0.023307258 -0.036370985 4289967055
-0.026484109 0.023164278 -0.036335602 4294704383
-0.028188268 0.023021298 -0.036300223 4294573567
-0.029913478 0.021942331 -0.038035125 4294046463
-0.031613853 0.021799667 -0.03799982 4293978879
-0.033314228 0.021657005 -0.037964519 4290557398
-0.035014603 0.021514341 -0.037929218 4287398818
-0.036714979 0.021371679 -0.037893917 4286214283
-0.0384175 0.020298749 -0.039621443 4282726482
-0.040114112 0.020156402 -0.03958622 4283778913
-0.041810725 0.020014055 -0.039550994 4279501857
-0.043507338 0.019871708 -0.039515771 4279698982
-0.045184445 0.018325128 -0.042145647 4280488759
-0.046900567 0.019587014 -0.039445322 4281607241
-0.048597179 0.019444665 -0.039410099 4283252579
-0.050293792 0.019302318 -0.039374877 4283648363
-0.051948145 0.017757649 -0.042005222 4284504440
-0.053639069 0.017615778 -0.041970115 4285755272
-0.055329993 0.017473908 -0.041935012 4286413713
-0.057020921 0.017332038 -0.041899905 4288189864
-0.058667615 0.016237371 -0.043678667 4290425795
-0.060354669 0.016095826 -0.043643642 4289306803
-0.062041726 0.01595428 -0.043608617 4289240759
-0.063675329 0.014901618 -0.045310128 4290622164
-0.065358676 0.014760383 -0.045275178 4292135150
-0.066947617 0.013206743 -0.047934279 4291214048
-0.068625227 0.01306599 -0.047899447 4292135403
-0.070302829 0.012925237 -0.04786462 4294570495
-0.071906425 0.011849204 -0.049615823 4294965759
-0.07358022 0.011708771 -0.049581073 4294966783
-0.075254016 0.011568339 -0.049546324 4294834933
-0.076927811 0.011427905 -0.04951157 4294638322
-0.078512765 0.010357684 -0.051255107 4294967290
-0.080182768 0.010217569 -0.051220436 4294967293
-0.081852779 0.010077454 -0.051185764 4294966015
-0.083622999 0.010866174 -0.049372572 4294900991
-0.085192785 0.0097972248 -0.051116422 4294835711
-0.08697059 0.010585309 -0.04930307 4294835709
-0.088644385 0.010444877 -0.04926832 4294967295
-0.090318181 0.010304444 -0.049233571 4294440951
-0.091991976 0.01016401 -0.049198821 4294769403
-0.093665771 0.010023578 -0.049164072 4294308852
-0.095339566 0.0098831449 -0.049129322 4294439924
-0.096882813 0.008816422 -0.050873723 4293913580
-0.098552816 0.0086763082 -0.050839052 4293978860
0.00014731749 -0.0007956684 -0.083092764 4287992210
-0.0014563197 -0.00093021477 -0.083059475 4287400069
-0.0030599532 -0.0010647608 -0.083026178 4287136891
-0.0048283874 -0.0030881281 -0.086559653 4287400061
-0.0063473838 -0.0022967588 -0.084778599 4286675572
-0.0079471348 -0.0024309792 -0.084745385 4287530368
-0.0095468899 -0.0025652 -0.08471217 4287201150
-0.011146641 -0.0026994203 -0.084678955 4287266945
-0.012746393 -0.0028336407 -0.084645748 4286937728
-0.014346144 -0.002967861 -0.084612533 4287529612
-0.014471623 0.021808503 -0.037412852 4288713890
-0.016171999 0.021665841 -0.037377547 4286739847
-0.017872376 0.021523178 -0.037342247 4288582312
-0.019572752 0.021380516 -0.037306946 4286609039
-0.021273129 0.021237852 -0.037271645 4282794074
-0.022973504 0.021095188 -0.03723634 4279965490
-0.024673881 0.020952526 -0.037201039 4284637054
-0.026374253 0.020809865 -0.037165739 4290756317
-0.028074631 0.020667201 -0.037130434 4289309385
-0.029775007 0.020524537 -0.037095133 4288848323
-0.031475384 0.020381875 -0.037059832 4285886103
-0.033175759 0.020239212 -0.037024532 4281740115
-0.034886111 0.019168794 -0.038753986 4282660956
-0.036582723 0.019026447 -0.03871876 4280292661
-0.038279336 0.0188841 -0.038683537 4281476417
-0.039975949 0.018741753 -0.038648315 4280028712
-0.041672565 0.018599406 -0.038613088 4280093992
-0.043369178 0.018457059 -0.038577866 4281015096
-0.04506579 0.018314712 -0.038542643 4281015357
-0.046778765 0.019097909 -0.036742114 4281146689
-0.04847914 0.018955246 -0.036706813 4281344581
-0.050155628 0.017887671 -0.038436972 4281279558
-0.051852241 0.017745323 -0.038401745 4282135124
-0.053548854 0.017602976 -0.038366523 4282925408
-0.055192295 0.016063994 -0.041000243 4283189345
-0.05688322 0.015922124 -0.04096514 4284176493
-0.05853023 0.014830688 -0.042746045 4284833390
-0.060217284 0.014689143 -0.04271102 4283845984
-0.061904341 0.014547598 -0.042675994 4285030007
-0.063591398 0.014406052 -0.042640969 4286411410
-0.0652216 0.013356795 -0.044344604 4288977084
-0.066904947 0.01321556 -0.044309657 4288319667
-0.068488613 0.011667186 -0.046972048 4290622675
-0.070166215 0.011526434 -0.04693722 4293123058
-0.071770124 0.010453575 -0.048690528 4293057770
-0.073443919 0.010313142 -0.048655778 4294440442
-0.075036764 0.0092454469 -0.050401252 4294967291
-0.076706767 0.0091053322 -0.05036658 4294967033
-0.07837677 0.0089652175 -0.050331909 4294769655
-0.080046773 0.0088251028 -0.050297238 4294440949
-0.081716783 0.0086849881 -0.050262563 4294506235
-0.083386786 0.0085448734 -0.050227892 4294901247
-0.085056789 0.0084047588 -0.05019322 4294835711
-0.086726792 0.0082646441 -0.050158549 4294638330
-0.088396795 0.0081245294 -0.050123878 4294967295
-0.090066798 0.0079844147 -0.050089207 4294375158
-0.091855675 0.0087683816 -0.048273526 4294967039
-0.093406811 0.0077041853 -0.050019864 4294835196
-0.095203266 0.0084875161 -0.048204027 4294967039
-0.096746817 0.0074239564 -0.049950521 4294966525
-0.09841682 0.0072838417 -0.04991585 4294966526
0.00027790861 -0.002132796 -0.082206257 4289044644
-0.0013257286 -0.0022673425 -0.082172967 4287597450
-0.0029293622 -0.0024018886 -0.082139671 4286873980
-0.0045329956 -0.0025364347 -0.082106374 4286939258
-0.0060193832 -0.0012728592 -0.079419874 4287136123
-0.0076286728 -0.0014078798 -0.079386458 4287398782
-0.0093438998 -0.0029400731 -0.082006499 4287464322
-0.011016367 -0.0040333108 -0.083794594 4287859082
-0.012551171 -0.0032091658 -0.081939913 4288450708
-0.012632778 0.020533381 -0.036508165 4288713628
-0.014333154 0.020390717 -0.036472864 4287924372
-0.01603353 0.020248054 -0.036437564 4286542467
-0.01778182 0.019177612 -0.038168315 4286542727
-0.019478433 0.019035265 -0.038133088 4286411913
-0.02113466 0.019820066 -0.036331657 4285227898
-0.022835035 0.019677402 -0.036296356 4279636264
-0.024535412 0.019534741 -0.036261052 4279636525
-0.026235785 0.019392077 -0.036225751 4281676365
-0.027961496 0.01832353 -0.037956972 4280163898
-0.02963654 0.019106751 -0.036155149 4280820805
-0.031354722 0.018038834 -0.037886523 4279569718
-0.033051338 0.017896486 -0.0378513 4279042604
-0.034747951 0.017754139 -0.037816074 4279173927
-0.036444563 0.017611792 -0.037780851 4280555831
-0.038141176 0.017469445 -0.037745629 4280555313
-0.039837789 0.017327098 -0.037710402 4280423980
-0.041534401 0.017184751 -0.03767518 4280884272
-0.043231014 0.017042404 -0.037639957 4281213237
-0.044927627 0.016900057 -0.037604731 4282002501
-0.046640296 0.017680123 -0.03580213 4282265674
-0.048340671 0.01753746 -0.035766825 4281673798
-0.05004105 0.017394798 -0.035731524 4281476933
-0.051714078 0.016330669 -0.037463836 4281872204
-0.05341069 0.016188322 -0.037428614 4281872972
-0.055054598 0.014654087 -0.040065482 4282201937
-0.056745522 0.014512217 -0.040030375 4282728534
-0.058436446 0.014370347 -0.039995272 4283714909
-0.060079902 0.01328246 -0.041778393 4283056466
-0.061766956 0.013140915 -0.041743368 4281806149
-0.06345401 0.01299937 -0.041708343 4282464082
-0.065084517 0.0119532 -0.04341403 4283582824
-0.066767864 0.011811966 -0.04337908 4286214544
-0.068351999 0.010268388 -0.046044651 4287793572
-0.06996002 0.0091983853 -0.047799986 4289044662
-0.071633816 0.009057953 -0.047765236 4288781739
-0.073307611 0.0089175198 -0.047730487 4291611343
-0.074900769 0.0078529865 -0.049478054 4293914094
-0.076570772 0.0077128722 -0.049443383 4294638582
-0.078240775 0.0075727575 -0.049408711 4294769914
-0.079910778 0.0074326429 -0.04937404 4294573050
-0.081580788 0.0072925282 -0.049339369 4294638332
-0.083250791 0.0071524135 -0.049304698 4294967039
-0.084920794 0.0070122988 -0.049270026 4294769918
-0.086590797 0.0068721846 -0.049235355 4294769916
-0.0882608 0.0067320694 -0.049200684 4294900989
-0.089930803 0.0065919552 -0.049166013 4294572024
-0.091600806 0.0064518405 -0.049131341 4294835196
-0.093270816 0.0063117254 -0.04909667 4294900989
-0.094940819 0.0061716111 -0.049061999 4294966525
-0.096610822 0.0060314965 -0.049027327 4294703096
-0.098147705 0.004975874 -0.050768044 4294308338
-0.099813931 0.0048360759 -0.050733451 4293979373
0.0005488235 -0.0020746144 -0.078663878 4287728787
-0.0010604626 -0.0022096348 -0.07863047 4287005061
-0.0026697561 -0.0023446558 -0.078597061 4286939520
-0.0042790459 -0.0024796764 -0.078563645 4287268226
-0.0058883321 -0.0026146967 -0.078530237 4287793799
-0.0074976217 -0.0027497176 -0.078496829 4287069563
-0.0091069117 -0.0028847381 -0.078463413 4286872185
-0.010716202 -0.0030197587 -0.078430004 4287069566
-0.012325491 -0.0031547796 -0.078396596 4287858571
-0.012494309 0.019115593 -0.035568181 4287595145
-0.014250428 0.018047657 -0.037300855 4285885042
-0.015947046 0.01790531 -0.037265632 4285555822
-0.017716542 0.016365318 -0.039903045 4284963689
-0.019407464 0.016223449 -0.039867941 4284437604
-0.021098396 0.016081577 -0.039832834 4282003778
-0.022789318 0.015939709 -0.039797727 4278977815
-0.024480242 0.015797839 -0.039762624 4279373089
-0.026171168 0.015655968 -0.039727516 4278913053
-0.027862092 0.015514098 -0.039692413 4279439654
-0.029553019 0.015372229 -0.039657306 4279504939
-0.031243941 0.015230359 -0.039622199 4279438128
-0.032913174 0.016481839 -0.036913395 4280753474
-0.034609787 0.016339492 -0.036878169 4280161075
-0.0363064 0.016197145 -0.036842946 4281148220
-0.038003013 0.016054798 -0.036807723 4281476920
-0.039699625 0.015912451 -0.036772497 4280292643
-0.041396238 0.015770104 -0.036737274 4282529346
-0.043101076 0.016547661 -0.034932747 4280752935
-0.044801451 0.016404999 -0.034897443 4281344820
-0.046501826 0.016262336 -0.034862142 4282265923
-0.05327253 0.014773672 -0.036490709 4281543488
-0.054916896 0.013244179 -0.039130721 4282333004
-0.056607824 0.01310231 -0.039095614 4282728016
-0.058298748 0.01296044 -0.039060507 4282793294
-0.059942517 0.011875778 -0.04084577 4282924880
-0.061629571 0.011734232 -0.040810745 4282135368
-0.063316628 0.011592687 -0.04077572 4282069322
-0.064947434 0.010549606 -0.042483453 4284503922
-0.066630781 0.010408372 -0.042448502 4287661986
-0.068215378 0.0088695781 -0.045117244 4287662240
-0.06982372 0.007802757 -0.046874691 4285426045
-0.071497515 0.0076623238 -0.046839941 4288979118
-0.07309477 0.0066006351 -0.048589528 4291611601
-0.074764773 0.0064605209 -0.048554856 4293783023
-0.076434776 0.0063204062 -0.048520185 4294704121
-0.078104779 0.0061802915 -0.048485514 4294901757
-0.079774782 0.0060401768 -0.048450842 4294901759
-0.081444792 0.0059000622 -0.048416171 4294507003
-0.083114795 0.0057599475 -0.0483815 4294441210
-0.084784798 0.0056198328 -0.048346829 4294506744
-0.086454801 0.0054797186 -0.048312157 4294901502
-0.088124804 0.0053396034 -0.048277486 4294506231
-0.089794807 0.0051994892 -0.048242815 4294967039
-0.09146481 0.0050593745 -0.048208144 4294374645
-0.093013324 0.0040059583 -0.049950715 4294966782
-0.094804823 0.0047791451 -0.048138801 4294242545
-0.096345782 0.0037263625 -0.049881529 4293979373
-0.098012015 0.0035865644 -0.049846936 4294308338
-0.099678241 0.0034467666 -0.049812343 4294637303
0.00067987456 -0.0034164521 -0.077774249 4285951611
-0.00074774533 -0.0016826486 -0.074166007 4287070090
-0.0024518762 -0.0027546065 -0.075924166 4286610305
-0.004064959 -0.0028899454 -0.075890675 4286873218
-0.0055984217 -0.0020896241 -0.074065305 4287267202
-0.0072153122 -0.0022252826 -0.074031733 4287135870
-0.0088322069 -0.0023609411 -0.073998168 4287069566
-0.010449097 -0.0024965997 -0.073964596 4287793289
-0.012065989 -0.002632258 -0.073931031 4287726983
-0.013622026 -0.0018294404 -0.072096728 4286740090
-0.015242747 -0.0019654201 -0.072063081 4282529338
-0.015887914 0.015097281 -0.039003391 4280621598
-0.017578842 0.014955411 -0.038968284 4279766291
-0.019269764 0.014813541 -0.038933177 4280227101
-0.020960696 0.01467167 -0.038898073 4280753445
-0.022651618 0.014529801 -0.038862966 4280951595
-0.024342543 0.014387931 -0.038827859 4281083694
-0.026033469 0.014246061 -0.038792755 4281018417
-0.027724395 0.014104191 -0.038757648 4280821038
-0.029415319 0.013962321 -0.038722545 4280491822
-0.031106243 0.013820452 -0.038687438 4280885307
-0.032797169 0.013678581 -0.038652331 4281082688
-0.034471624 0.014924837 -0.03594026 4281280059
-0.036168236 0.014782489 -0.035905037 4281411896
-0.037864849 0.014640142 -0.035869811 4281477168
-0.039561462 0.014497795 -0.035834588 4281411627
-0.041258074 0.014355448 -0.035799365 4281411366
-0.042962607 0.01512987 -0.033992756 4281411366
-0.044662982 0.014987207 -0.033957455 4281674286
-0.058161046 0.011550532 -0.038125746 4282069824
-0.059851974 0.011408662 -0.038090639 4281871677
-0.061492186 0.01032755 -0.039878119 4280819506
-0.06317924 0.010186004 -0.039843094 4283385435
-0.064810351 0.0091460114 -0.041552875 4285556350
-0.066493697 0.0090047773 -0.041517928 4287135895
-0.068078764 0.0074707745 -0.044189844 4287596444
-0.069687411 0.0064071282 -0.045949396 4289966016
-0.071288772 0.0053482903 -0.047701005 4292926952
-0.072958775 0.0052081756 -0.047666334 4293980149
-0.074549109 0.0041544139 -0.049410127 4294572539
-0.076298781 0.0049279463 -0.047596991 4294638843
-0.077881575 0.0038748179 -0.049340941 4294901759
-0.0795478 0.0037350201 -0.049306348 4294901759
-0.081214033 0.003595222 -0.049271755 4294573564
-0.082880259 0.0034554242 -0.049237162 4294901759
-0.084546492 0.0033156262 -0.049202569 4294835709
-0.086212717 0.0031758281 -0.049167976 4294506231
-0.08787895 0.0030360306 -0.049133383 4294111473
-0.089658812 0.0038070292 -0.047319621 4293979887
-0.091328815 0.0036669148 -0.04728495 4294111473
-0.092877634 0.0026166365 -0.049029604 4294308852
-0.094668828 0.0033866852 -0.047215607 4294440438
-0.096018083 0.00098046591 -0.051614553 4294506231
-0.097678684 0.00084113993 -0.051580079 4294966525
-0.099339284 0.00070181454 -0.051545601 4294966525
0.0078144744 0.014724229 -0.04038154 4283055951
0.0061274185 0.014582683 -0.040346514 4283121745
-0.00043535733 -0.001184384 -0.069723979 4285951613
-0.0021450042 -0.0022289518 -0.071436316 4286610052
-0.003684215 -0.0014569657 -0.069656529 4287005063
-0.0053086476 -0.0015932568 -0.0696228 4287267206
-0.0069330763 -0.0017295476 -0.069589078 4287201409
-0.008627885 -0.0027728707 -0.071301721 4287135359
-0.010181934 -0.0020021293 -0.069521628 4287727496
-0.011806362 -0.0021384202 -0.0694879 4287463811
-0.013430792 -0.0022747112 -0.069454178 4286411121
-0.015055221 -0.0024110018 -0.069420449 4282266162
-0.01567072 0.015076001 -0.035389811 4280489751
-0.017367333 0.014933653 -0.035354588 4281147681
-0.019063946 0.014791306 -0.035319366 4281411366
-0.020822996 0.013261757 -0.037963305 4281740331
-0.022513919 0.013119888 -0.037928201 4281806637
-0.024204843 0.012978017 -0.037893094 4281807153
-0.025850397 0.014221918 -0.035178468 4281807666
-0.027547007 0.014079571 -0.035143245 4281478701
-0.029221132 0.014853386 -0.033335187 4281083693
-0.030940235 0.013794877 -0.035072796 4281412154
-0.032621883 0.014568061 -0.033264581 4281412156
-0.034322258 0.014425397 -0.03322928 4281411892
-0.036022633 0.014282734 -0.033193979 4281215020
-0.037723009 0.014140071 -0.033158675 4281214500
-0.039423387 0.013997409 -0.033123374 4281214753
-0.061354805 0.0089208726 -0.0389455 4281937470
-0.063041858 0.0087793274 -0.038910475 4282332743
-0.064673267 0.0077424175 -0.040622298 4285622395
-0.066264547 0.006212729 -0.04329728 4285819774
-0.067877315 0.0051519382 -0.045058854 4288583078
-0.069482766 0.0040959325 -0.046812475 4292728805
-0.071152769 0.0039558178 -0.046777803 4293848054
-0.072747193 0.0029048899 -0.048523605 4294703871
-0.074413426 0.0027650921 -0.048489012 4294967039
-0.076079652 0.002625294 -0.048454419 4294704382
-0.077745885 0.002485496 -0.048419826 4294638843
-0.07941211 0.0023456982 -0.048385233 4294441464
-0.08093746 0.00084977166 -0.051006839 4294178806
-0.08259806 0.0007104461 -0.050972365 4294638843
-0.084258661 0.00057112059 -0.050937887 4294440951
-0.085919261 0.00043179505 -0.05090341 4294374645
-0.087579854 0.00029246951 -0.050868936 4294308852
-0.089240462 0.00015314383 -0.050834458 4294308852
-0.090901054 1.3818461e-05 -0.050799981 4294506231
-0.092561655 -0.00012550723 -0.050765507 4294703610
-0.094408177 0.0010875168 -0.048073895 4294769403
-0.095751002 -0.0013347355 -0.052525692 4294835196
-0.097407721 -0.0014737359 -0.052491296 4294966525
-0.099064447 -0.0016127361 -0.0524569 4294966525
0.011442285 0.014547379 -0.037695553 4282332218
0.0097513618 0.014405509 -0.037660446 4283253069
0.0079518594 0.01331754 -0.039448913 4282332228
0.006264803 0.013175995 -0.039413888 4281740092
0.0013213551 -0.0024025508 -0.068859704 4283056466
-0.0003030737 -0.0025388417 -0.068825975 4286083199
-0.0019275025 -0.0026751326 -0.068792254 4287004812
-0.0034666997 -0.0018686828 -0.066937193 4287268236
-0.0050161555 -0.001092264 -0.065138757 4287003780
-0.0067232843 -0.0021419127 -0.066869579 4287069825
-0.0083515765 -0.0022785277 -0.066835776 4287004030
-0.0099122673 -0.0015030516 -0.065037102 4287661703
-0.011608166 -0.0025517582 -0.066768162 4287661188
-0.013236454 -0.0026883727 -0.066734359 4287069306
-0.014665246 0.00039957772 -0.060453855 4283778884
-0.015532558 0.013661359 -0.034451909 4282463794
-0.017229171 0.013519011 -0.034416687 4282595378
-0.018925784 0.013376664 -0.034381464 4282727477
-0.020685297 0.011851849 -0.037028544 4282727477
-0.022376221 0.01170998 -0.036993437 4282596404
-0.024067143 0.01156811 -0.036958333 4282530611
-0.025681909 0.013720919 -0.032465801 4282202416
-0.027355608 0.014495653 -0.030647758 4281676072
-0.029082663 0.013435593 -0.032395195 4281083683
-0.030783037 0.01329293 -0.032359894 4281346352
-0.032483414 0.013150267 -0.03232459 4281214767
-0.06121742 0.0075141839 -0.03801287 4281542453
-0.062904477 0.0073726382 -0.037977844 4282200640
-0.064536184 0.0063388231 -0.03969172 4286016634
-0.066067211 0.0038967421 -0.044168308 4286083197
-0.067741007 0.0037563094 -0.044133559 4287991194
-0.069346771 0.0027034667 -0.045889273 4291412943
-0.070945278 0.0016553722 -0.047637086 4294505982
-0.072499238 0.00016177537 -0.050261222 4294967039
-0.074159831 2.2449845e-05 -0.050226744 4294967039
-0.075820431 -0.00011687569 -0.050192267 4294638332
-0.077481031 -0.00025620137 -0.050157793 4294178292
-0.079141632 -0.00039552705 -0.050123315 4293717739
-0.080802232 -0.00053485256 -0.050088838 4293455337
-0.082462832 -0.00067417813 -0.050054364 4294046704
-0.084123433 -0.00081350363 -0.050019886 4294243572
-0.085784025 -0.0009528292 -0.049985413 4294440438
-0.087444626 -0.0010921546 -0.049950935 4294637817
-0.089105226 -0.0012314804 -0.049916457 4294769403
-0.090645917 -0.0022991279 -0.051713023 4294835196
-0.092426427 -0.0015101314 -0.049847506 4294900989
-0.094087027 -0.0016494571 -0.049813032 4294966782
-0.095616087 -0.0027161289 -0.051609833 4294967039
-0.097272806 -0.0028551293 -0.051575437 4294900989
-0.098929532 -0.0029941297 -0.051541042 4294900989
0.011751414 0.014524259 -0.034077581 4282660924
0.0098890606 0.012995602 -0.036725685 4283910740
0.0081981299 0.012853731 -0.036690578 4283713622
0.0064021875 0.011769312 -0.038481262 4283515989
0.0047151241 0.011627766 -0.038446236 4283253331
0.0030280757 0.011486221 -0.038411211 4284109409
0.00024230515 0.00027038707 -0.059853118 4285885820
-0.0013992372 0.0001326604 -0.059819035 4286610054
-0.0030407794 -5.0662811e-06 -0.059784956 4286807685
-0.0046823183 -0.00014279265 -0.059750877 4286873218
-0.0064367373 -0.0016422841 -0.062361836 4287004032
-0.0079654027 -0.000418246 -0.059682716 4286872444
-0.0096069453 -0.00055597269 -0.059648633 4287464835
-0.011344547 -0.0020540534 -0.062259946 4287661443
-0.012890026 -0.00083142571 -0.059580475 4287595648
-0.014531569 -0.00096915243 -0.059546392 4285029205
-0.015394395 0.012246704 -0.033514 4284437066
-0.017041562 0.013016446 -0.031702321 4283253561
-0.018787621 0.01196201 -0.033443552 4283319354
-0.02048423 0.011819663 -0.033408329 4283319354
-0.022238521 0.010300072 -0.036058675 4283056695
-0.023808522 0.01336067 -0.029776441 4282793523
-0.025512673 0.01321769 -0.02974106 4282267437
-0.028920986 0.01293173 -0.029670298 4280491798
-0.062767088 0.0059659556 -0.037045222 4280950312
-0.064454146 0.0058244104 -0.037010197 4282331965
-0.065930903 0.0025011133 -0.043243013 4285951093
-0.067540772 0.0014511213 -0.045000751 4288977571
-0.069143362 0.00040584817 -0.046750568 4292070612
-0.070809588 0.00026605028 -0.046715975 4293650157
-0.072364002 -0.0012228426 -0.049343225 4294505980
-0.074024603 -0.0013621682 -0.049308747 4294835199
-0.075685203 -0.0015014937 -0.049274273 4294375160
-0.077345803 -0.0016408194 -0.049239796 4294111986
-0.078913935 -0.0027075119 -0.051037937 4293717737
-0.080570661 -0.0028465125 -0.051003542 4293651944
-0.082227379 -0.0029855128 -0.050969146 4294112495
-0.083884105 -0.0031245132 -0.050934751 4294572535
-0.085540831 -0.0032635136 -0.050900355 4294835196
-0.08719755 -0.0034025142 -0.050865959 4294967039
-0.088854276 -0.0035415145 -0.050831564 4294967039
-0.090511002 -0.0036805151 -0.050797168 4294900989
-0.092167728 -0.0038195155 -0.050762773 4294769403
-0.093824446 -0.0039585158 -0.050728377 4294835196
-0.095481172 -0.0040975162 -0.050693981 4294900989
-0.097137891 -0.0042365165 -0.050659586 4294900989
-0.0986614 -0.0052607134 -0.052382778 4294900989
0.011889576 0.013109609 -0.033139676 4284108366
0.010026759 0.011585694 -0.03579092 4286411125
0.0083358288 0.011443824 -0.035755817 4286214007
0.0065395711 0.010362635 -0.037548643 4285358445
0.0048525077 0.010221089 -0.037513617 4284569188
0.0031654593 0.010079545 -0.037478592 4284504165
0.0014783997 0.0099379988 -0.037443567 4285425265
-0.0011772045 -0.0003137945 -0.05711399 4286610306
-0.0028225509 -0.00045184034 -0.057079833 4287136649
-0.0044678976 -0.00058988621 -0.057045672 4287004802
-0.0061132442 -0.00072793209 -0.057011511 4287004800
-0.0078317244 -0.0017869823 -0.05877525 4286938491
-0.009473267 -0.001924709 -0.058741167 4287333248
-0.011114809 -0.0020624357 -0.058707088 4287200890
-0.012756348 -0.002200162 -0.058673009 4286806130
-0.01439789 -0.0023378888 -0.058638927 4283976517
-0.015256234 0.010832055 -0.032576095 4283252792
-0.016903093 0.011598654 -0.030762333 4282989619
-0.018649459 0.010547361 -0.032505646 4283318584
-0.020346068 0.010405014 -0.032470424 4283515964
-0.022004222 0.011170666 -0.030656427 4283319355
-0.059301175 0.005769026 -0.034351587 4279963157
-0.06094265 0.0047008242 -0.036147628 4279238920
-0.062578671 0.0036728687 -0.037865516 4280226329
-0.064120807 0.0012459236 -0.042352472 4282068787
-0.065734774 0.00019876997 -0.044112224 4288122002
-0.067404777 5.8655285e-05 -0.044077553 4291148993
-0.069007672 -0.00098346139 -0.04582946 4290688958
-0.070673898 -0.0011232592 -0.045794867 4292531162
-0.072152123 -0.003532904 -0.050259661 4293781742
-0.073808849 -0.0036719041 -0.050225265 4294374649
-0.075465575 -0.0038109047 -0.05019087 4294440953
-0.077122293 -0.0039499048 -0.050156474 4294638328
-0.078779019 -0.0040889052 -0.050122079 4294507253
-0.080435745 -0.004227906 -0.050087683 4294507506
-0.082092464 -0.0043669064 -0.050053287 4294901754
-0.08364971 -0.0053908071 -0.051777843 4294835707
-0.085302718 -0.0055294959 -0.051743526 4294966782
-0.086955726 -0.0056681847 -0.051709209 4294967039
-0.088608734 -0.0058068736 -0.051674888 4294966782
-0.090261742 -0.0059455619 -0.05164057 4294703610
-0.091914758 -0.0060842508 -0.051606253 4294637817
-0.093567766 -0.0062229396 -0.051571932 4294703610
-0.095220774 -0.0063616284 -0.051537614 4294835196
-0.096873783 -0.0065003168 -0.051503297 4294900989
-0.098526791 -0.0066390056 -0.051468976 4294900989
0.010164459 0.01017578 -0.034856156 4286147949
0.0084735295 0.01003391 -0.034821048 4285818988
0.0066769561 0.0089559462 -0.036616012 4284371803
0.0050916825 0.0097501706 -0.034750838 4283845717
0.0033028442 0.0086728558 -0.036545962 4283977303
0.0016157846 0.0085313097 -0.036510937 4284636515
-0.00095414219 -0.00076232984 -0.054396395 4286544512
-0.0026033116 -0.00090069644 -0.054362155 4287071622
-0.0042524808 -0.001039063 -0.054327916 4286741628
-0.0059792567 -0.0020998374 -0.056101944 4286873468
-0.0076246029 -0.0022378832 -0.056067787 4287070076
-0.00926995 -0.0023759289 -0.056033626 4287465088
-0.010915296 -0.0025139749 -0.055999469 4287003509
-0.012560642 -0.0026520207 -0.055965308 4286016614
-0.013567715 0.0072574024 -0.03619571 4282529069
-0.015199418 0.0080477316 -0.034329571 4281279002
-0.016764624 0.010180868 -0.029822346 4282331690
-0.018511295 0.0091327066 -0.031567737 4282923827
-0.020272199 0.0076221209 -0.034224253 4283515966
-0.021826811 0.010661776 -0.027927671 4283713345
-0.060805265 0.0032941352 -0.035214998 4285160288
-0.06236288 0.00089901837 -0.039657332 4285752423
-0.063928775 -0.0010535815 -0.043223698 4288120971
-0.065539524 -0.0020931873 -0.044977531 4291740356
-0.067205757 -0.0022329853 -0.044942938 4293582819
-0.068772346 -0.0037134399 -0.047576178 4290030512
-0.070360489 -0.0047752969 -0.049378201 4293386725
-0.072017208 -0.0049142973 -0.049343806 4294504952
-0.073673934 -0.0050532976 -0.04930941 4294966271
-0.075250052 -0.0060756626 -0.051035631 4294966783
-0.07690306 -0.0062143509 -0.051001314 4294967293
-0.078556076 -0.0063530398 -0.050966993 4294967290
-0.080209084 -0.0064917286 -0.050932676 4294704626
-0.081862092 -0.0066304174 -0.050898358 4294901751
-0.0835151 -0.0067691063 -0.050864037 4294835450
-0.085168108 -0.0069077946 -0.05082972 4294835196
-0.086710915 -0.0079573896 -0.052615978 4294835196
-0.088360086 -0.0080957562 -0.052581739 4294769403
-0.09000925 -0.0082341228 -0.0525475 4294703610
-0.091658421 -0.0083724894 -0.05251326 4294703610
-0.093182601 -0.0094162654 -0.054291494 4294835196
-0.09482795 -0.0095543116 -0.054257337 4294966782
-0.096605927 -0.0087875891 -0.052410543 4294900989
-0.09825509 -0.0089259557 -0.052376304 4294900989
-0.099904262 -0.0090643223 -0.052342065 4294835709
0.010302159 0.008765867 -0.033921391 4282923575
0.0086112292 0.0086239958 -0.033886284 4283055678
0.0068143401 0.0075492635 -0.03568339 4282003251
0.0051272768 0.0074077174 -0.035648365 4282069559
0.0034402283 0.0072661727 -0.035613339 4282201145
0.0016628468 0.0062325904 -0.037332404 4282728770
-0.00064317387 -0.0003186666 -0.049906965 4285228904
-0.002383054 -0.0013516509 -0.051631846 4286216565
-0.004036061 -0.0014903394 -0.051597528 4286544502
-0.005689072 -0.0016290284 -0.051563207 4286676086
-0.0074165207 -0.0026908889 -0.053347759 4286807158
-0.0090656858 -0.0028292553 -0.05331352 4287267707
-0.010648096 -0.0020450943 -0.051460251 4286871923
-0.012301107 -0.0021837833 -0.051425934 4285819489
-0.013370795 0.0067796875 -0.033429909 4282068518
-0.014979907 0.0080027459 -0.030700276 4280621072
-0.016626155 0.0087630814 -0.02888236 4282068007
-0.018326532 0.0086204186 -0.028847059 4282791732
-0.020026907 0.0084777558 -0.028811757 4283515714
-0.021688033 0.0092408331 -0.026985593 4283778887
-0.056851 -0.0077511631 -0.054133438 4284633685
-0.058496349 -0.0078892093 -0.054099277 4289962664
-0.060141694 -0.0080272546 -0.054065116 4294502635
-0.06199472 -0.0045407619 -0.046796083 4292924114
-0.063655317 -0.0046800873 -0.046761606 4292529356
-0.065315917 -0.0048194132 -0.046727132 4293450972
-0.066912122 -0.0058786832 -0.048531137 4294966523
-0.06850341 -0.0068991999 -0.050259102 4294833397
-0.070156418 -0.0070378887 -0.050224785 4294768378
-0.071809426 -0.0071765776 -0.050190467 4294966783
-0.073462434 -0.0073152664 -0.050156146 4294966783
-0.075115442 -0.0074539548 -0.050121829 4294966782
-0.07676845 -0.0075926436 -0.050087512 4294967291
-0.07833077 -0.0086406497 -0.051875491 4294901751
-0.080074467 -0.0078700213 -0.050018873 4294573038
-0.081629105 -0.0089173829 -0.051807012 4294638833
-0.083176538 -0.0099598961 -0.053586885 4294835448
-0.084927447 -0.0091941161 -0.051738534 4294769403
-0.086467229 -0.010235988 -0.053518567 4294703610
-0.088112578 -0.010374034 -0.053484406 4294703610
-0.089757927 -0.01051208 -0.053450245 4294835196
-0.091403268 -0.010650125 -0.053416088 4294900989
-0.093048617 -0.010788172 -0.053381927 4294900989
-0.094693959 -0.010926217 -0.05334777 4294835196
-0.096339308 -0.011064263 -0.053313609 4294835709
-0.097849146 -0.012099406 -0.055085901 4294835709
-0.099490687 -0.012237133 -0.055051818 4294835709
0.012130782 0.0074978289 -0.033021733 4282332460
0.010439859 0.0073559592 -0.032986626 4281937450
0.0086387796 0.0062841321 -0.034785792 4282661433
0.0069517237 0.0061425865 -0.034750767 4281872178
0.0052646603 0.0060010408 -0.034715742 4281609778
0.0035776121 0.0058594961 -0.034680717 4281017898
0.0017999294 0.004828996 -0.036401827 4281544242
-1.8261508e-05 0.0033092545 -0.039091215 4284768867
-0.0021649816 -0.0018390603 -0.048956711 4286677118
-0.0038217076 -0.0019780609 -0.048922315 4286742139
-0.0054784296 -0.0021170611 -0.04888792 4286676086
-0.0072074672 -0.0031460095 -0.050615087 4286413168
-0.0088604782 -0.0032846984 -0.05058077 4286807154
-0.010513485 -0.003423387 -0.050546449 4286411883
-0.011666882 0.0036991199 -0.03612224 4285425243
-0.013233096 0.0053697797 -0.032495145 4281740323
-0.014841746 0.0065880977 -0.029762371 4280424209
-0.016487686 0.007345289 -0.027942371 4281805866
-0.018234972 0.0063034031 -0.029691923 4282595127
-0.019931581 0.0061610565 -0.029656699 4283384645
-0.021588815 0.0069173002 -0.027836464 4283582026
-0.056717012 -0.0091230683 -0.053223871 4288845466
-0.058362357 -0.0092611145 -0.05318971 4294502894
-0.060007706 -0.0093991598 -0.053155549 4294966269
-0.061653052 -0.009537206 -0.053121392 4294766832
-0.063463762 -0.0069820755 -0.047684073 4294306794
-0.065062776 -0.0080001149 -0.049413938 4294966523
-0.066715784 -0.0081388038 -0.049379621 4294965751
-0.068301462 -0.0091855368 -0.051169246 4294966524
-0.070021808 -0.0084161814 -0.049310982 4294966012
-0.071599796 -0.00946227 -0.051100768 4294966783
-0.073248968 -0.0096006365 -0.051066529 4294966014
-0.074898139 -0.0097390031 -0.05103229 4294506231
-0.076547302 -0.0098773697 -0.050998054 4294835450
-0.078196473 -0.010015736 -0.050963815 4294967033
-0.079845645 -0.010154103 -0.050929576 4294835958
-0.081494808 -0.01029247 -0.050895337 4294967288
-0.083042555 -0.011331801 -0.052677318 4294901243
-0.084687896 -0.011469848 -0.052643158 4294769403
-0.086333245 -0.011607893 -0.052609 4294703610
-0.087978594 -0.011745939 -0.052574839 4294835196
-0.089623936 -0.011883985 -0.052540679 4294966782
-0.091269277 -0.012022031 -0.052506521 4294966782
-0.092790842 -0.013054962 -0.054280676 4294769403
-0.094432384 -0.013192688 -0.054246593 4294572024
-0.096073925 -0.013330415 -0.054212514 4294835709
-0.097715467 -0.013468142 -0.054178435 4294835709
-0.099357009 -0.013605868 -0.054144353 4294835709
0.012268481 0.0060879216 -0.032086968 4281477159
0.010463213 0.0050189937 -0.033888195 4282003762
0.0087761637 0.004877449 -0.03385317 4282794050
0.0070891078 0.0047359038 -0.033818144 4282596932
0.0054020449 0.0045943577 -0.033783119 4283057998
0.0037149962 0.0044528134 -0.033748094 4283058511
0.0019370121 0.0034254014 -0.035471253 4282532169
0.00011835263 0.0019104568 -0.038163818 4284308837
-0.0017306352 -4.6731635e-05 -0.041736946 4284834922
-0.0034006368 -0.00018684608 -0.041702274 4285361004
-0.0050706426 -0.00032696084 -0.041667603 4285887085
-0.0069244821 -0.0027122663 -0.046097796 4284637014
-0.0085850824 -0.0028515919 -0.046063319 4285228892
-0.010014117 0.00015726384 -0.039763294 4284768594
-0.011624886 0.00092518999 -0.037920013 4283979078
-0.013213151 0.0021542909 -0.035156716 4281544484
-0.014842618 0.0028958148 -0.033362813 4281478439
-0.01652967 0.0027542699 -0.033327788 4283057222
-0.018216725 0.0026127247 -0.033292763 4282661442
-0.0198591 0.0033923923 -0.031419963 4283779923
-0.02149003 0.0046040546 -0.028683566 4283714130
-0.023114638 0.0062559671 -0.025066053 4282924866
-0.056622982 -0.0095920637 -0.050497238 4292860640
-0.05822837 -0.01063302 -0.052280143 4294637303
-0.059873719 -0.010771065 -0.052245982 4294900475
-0.061519064 -0.010909111 -0.052211825 4294966266
-0.06310942 -0.011944613 -0.053986661 4294967037
-0.064750962 -0.01208234 -0.053952582 4294966780
-0.066392504 -0.012220067 -0.053918499 4294967293
-0.068034045 -0.012357793 -0.053884421 4294769403
-0.069675587 -0.01249552 -0.053850342 4294835196
-0.0714655 -0.010837363 -0.050189089 4294835196
-0.073114671 -0.01097573 -0.05015485 4294835196
-0.074681833 -0.012013477 -0.051938549 4294769916
-0.076327182 -0.012151523 -0.051904388 4294769916
-0.077972524 -0.01228957 -0.051870231 4294769914
-0.079617873 -0.012427615 -0.05183607 4294769914
-0.081263222 -0.012565661 -0.051801909 4294769914
-0.082807921 -0.013597333 -0.053577695 4294769916
-0.084449455 -0.013735059 -0.053543616 4294769916
-0.086090997 -0.013872785 -0.053509537 4294769916
-0.087732539 -0.014010512 -0.053475454 4294769916
-0.08937408 -0.014148239 -0.053441375 4294769916
-0.091015622 -0.014285966 -0.053407293 4294769916
-0.092657164 -0.014423693 -0.053373214 4294769916
-0.094298705 -0.014561418 -0.053339131 4294769916
-0.095940247 -0.014699145 -0.053305052 4294769916
-0.097581789 -0.014836872 -0.053270973 4294769916
-0.099223331 -0.014974599 -0.053236891 4294769916
0.01240618 0.0046780137 -0.031152207 4282529849
0.010600597 0.0036123109 -0.032955572 4283319624
0.0089135477 0.0034707664 -0.032920547 4284241498
0.0072264923 0.0033292209 -0.032885518 4284307291
0.0055394289 0.003187675 -0.032850493 4283912792
0.0037574428 0.0021630414 -0.034575623 4283518035
0.0020740947 0.002021807 -0.034540676 4284176479
0.00025496737 0.00051165296 -0.037236419 4283847516
-0.0014226428 0.00037090015 -0.037201591 4284373858
-0.0032646412 -0.0015793121 -0.040779077 4284109912
-0.0049346467 -0.0017194269 -0.040744405 4284241494
-0.0066046482 -0.0018595413 -0.040709734 4283583817
-0.0082746539 -0.0019996562 -0.040675063 4283320897
-0.0098778121 -0.001238365 -0.038837999 4283584067
-0.011488271 -0.00047361388 -0.036992613 4282926137
-0.013165873 -0.00061436609 -0.036957785 4282136369
-0.014705234 0.0014891321 -0.032430191 4282596669
-0.016392287 0.0013475871 -0.032395165 4282464834
-0.018079342 0.0012060418 -0.03236014 4282398789
-0.019766398 0.0010644965 -0.032325115 4282924363
-0.021453453 0.00092295115 -0.03229009 4283911512
-0.023140511 0.00078140583 -0.032255061 4284043349
-0.024680011 0.0046920446 -0.024088595 4283385669
-0.026384169 0.0045490642 -0.024053214 4283385918
-0.054839514 -0.01082879 -0.049619798 4291742424
-0.056488682 -0.010967157 -0.049585558 4292664288
-0.058094382 -0.012004925 -0.051370576 4294572537
-0.059692658 -0.013037897 -0.053147357 4294901502
-0.0613342 -0.013175623 -0.053113274 4294901502
-0.062975742 -0.013313349 -0.053079195 4294769916
-0.064617284 -0.013451076 -0.053045116 4294375158
-0.066258825 -0.013588803 -0.053011034 4294572537
-0.067900367 -0.01372653 -0.052976955 4294375158
-0.069541909 -0.013864256 -0.052942872 4294769916
-0.071183451 -0.014001982 -0.052908793 4294769916
-0.072824992 -0.014139709 -0.052874714 4294769916
-0.074466534 -0.014277436 -0.052840631 4294769916
-0.076108076 -0.014415163 -0.052806552 4294769916
-0.077749617 -0.014552889 -0.05277247 4294769916
-0.079391159 -0.014690616 -0.052738391 4294769916
-0.081032693 -0.014828342 -0.052704312 4294769916
-0.082674243 -0.014966069 -0.052670229 4294769916
-0.084315777 -0.015103796 -0.05263615 4294769916
-0.085957319 -0.015241522 -0.052602068 4294769916
-0.08759886 -0.015379248 -0.052567989 4294769916
-0.089240402 -0.015516975 -0.05253391 4294769916
-0.090881944 -0.015654702 -0.052499827 4294769916
-0.092523485 -0.015792429 -0.052465748 4294769916
-0.094165027 -0.015930155 -0.052431665 4294769916
-0.095806569 -0.016067881 -0.052397586 4294769916
-0.097448111 -0.016205609 -0.052363507 4294769916
-0.099089652 -0.016343335 -0.052329425 4294769916
0.012425036 0.0023471734 -0.032057971 4283318850
0.010737981 0.0022056282 -0.032022946 4283450438
0.0090509327 0.0020640835 -0.03198792 4284437333
0.0073638763 0.0019225382 -0.031952895 4285161056
0.0055778734 0.00090068113 -0.033679996 4284832091
0.0038945253 0.00075944688 -0.033645045 4284437333
0.0022111773 0.00061821268 -0.033610098 4285161056
0.00030126475 -0.0017913911 -0.038121209 4282726715
-0.0013725301 -0.0019318238 -0.038086459 4283647819
-0.0031286448 -0.0029717844 -0.039855871 4282463293
-0.0047986503 -0.0031118991 -0.0398212 4282858051
-0.0064686518 -0.0032520136 -0.039786529 4282134580
-0.0080677131 -0.0024935547 -0.037947457 4282266164
-0.0097415084 -0.0026339875 -0.037912708 4281937197
