# .PCD v0.7 - Point Cloud Data file format
VERSION 0.7
FIELDS x y z rgb
SIZE 4 4 4 4
TYPE F F F U
COUNT 1 1 1 1
WIDTH 300
HEIGHT 1
VIEWPOINT 0 0 0 1 0 0 0
POINTS 300
DATA ascii
-0.010278847 -0.0068484102 -0.053602707 4286017139
-0.01060715 -0.0085712904 -0.0538073 4287398277
-0.010935453 -0.010294168 -0.054011896 4288384913
-0.011263755 -0.012017047 -0.054216493 4287924360
-0.0065103038 -0.0054972633 -0.055370674 4282400321
-0.0098986868 -0.0067166765 -0.055322047 4285294443
-0.010226989 -0.0084395567 -0.05552664 4288057490
-0.010555292 -0.010162435 -0.055731237 4288517269
-0.010883594 -0.011885313 -0.05593583 4288188558
-0.011211897 -0.013608192 -0.056140427 4288187787
-0.0115402 -0.015331071 -0.056345023 4287069304
-0.008533624 -0.0014163079 -0.056427572 4283058251
-0.0088619273 -0.0031391867 -0.056632165 4282532166
-0.0061289179 -0.0053651049 -0.057095557 4282466373
-0.0095185321 -0.0065849451 -0.057041358 4285426801
-0.0098468354 -0.0083078248 -0.057245951 4287992726
-0.010175138 -0.010030703 -0.057450548 4288386968
-0.01050344 -0.011753581 -0.057655144 4288320914
-0.010831743 -0.013476461 -0.057859737 4288649108
-0.011160045 -0.01519934 -0.058064334 4287727747
-0.011488348 -0.016922219 -0.058268927 4286148713
-0.0081534702 -0.0012845765 -0.058146883 4283124046
-0.0084817726 -0.0030074553 -0.058351476 4282729546
-0.008810075 -0.004730335 -0.058556072 4282597959
-0.0091383783 -0.0064532137 -0.058760669 4285295472
-0.011467107 -0.0078403 -0.058791645 4287861140
-0.011794718 -0.0095595503 -0.058995809 4288124310
-0.012122329 -0.0112788 -0.05919997 4288321171
-0.015560988 -0.012458342 -0.059131768 4288847257
-0.015887523 -0.014171941 -0.059335262 4288057225
-0.01827527 -0.015520217 -0.059357304 4286280812
-0.018601092 -0.017230069 -0.059560355 4284504403
-0.018926911 -0.018939922 -0.059763402 4283188808
-0.0077733095 -0.0011528429 -0.059866223 4283188556
-0.0081016123 -0.0028757218 -0.060070816 4283254863
-0.0084299147 -0.0045986013 -0.060275413 4282794826
-0.0087582171 -0.0063214805 -0.060480006 4285229422
-0.011087755 -0.0077088466 -0.060507327 4287861140
-0.011415366 -0.0094280969 -0.060711492 4288255896
-0.011742976 -0.011147346 -0.060915656 4288518550
-0.015182874 -0.012327317 -0.060841851 4288978843
-0.015509408 -0.014040917 -0.061045345 4288123016
-0.017897991 -0.015389482 -0.061063617 4286412396
-0.018223811 -0.017099334 -0.061266664 4284504917
-0.018549632 -0.018809186 -0.061469711 4282992969
-0.0077214576 -0.0027439904 -0.061790127 4282727236
-0.00804976 -0.0044668699 -0.061994724 4282596420
-0.0083780633 -0.0061897491 -0.062199321 4285031273
-0.010708395 -0.0075773909 -0.06222304 4287926163
-0.011036007 -0.0092966408 -0.062427204 4288715933
-0.014478233 -0.010482696 -0.06234841 4288913051
-0.014804767 -0.012196295 -0.062551908 4289307038
-0.017194884 -0.01354889 -0.062566906 4288385675
-0.017520705 -0.015258743 -0.062769957 4287003763
-0.017846525 -0.016968597 -0.062973008 4285359710
-0.018172346 -0.018678449 -0.063176051 4282466623
-0.018498166 -0.020388301 -0.063379101 4282073407
-0.0076695997 -0.0043351366 -0.063714065 4282660930
-0.010001427 -0.0057266857 -0.063734591 4284766818
-0.013447057 -0.0069244755 -0.06365148 4287793550
-0.010656648 -0.0091651855 -0.06414292 4288714650
-0.014100125 -0.010351674 -0.064058468 4288912281
-0.014426659 -0.012065273 -0.064261958 4289306525
-0.016817605 -0.013418155 -0.064273216 4288516748
-0.017143425 -0.015128008 -0.064476267 4287331958
-0.017469246 -0.016837861 -0.064679317 4285950305
-0.015732797 -0.018919669 -0.065075934 4283648328
-0.01605933 -0.020633269 -0.065279424 4282925634
-0.0072894455 -0.0042034052 -0.065433376 4280751906
-0.012742408 -0.005079851 -0.065158069 4285029221
-0.013068942 -0.0067934515 -0.065361559 4287858319
-0.013395476 -0.0085070496 -0.065565057 4288582294
-0.013722011 -0.01022065 -0.065768547 4288845462
-0.016114498 -0.011577564 -0.065776512 4289437082
-0.016440319 -0.013287418 -0.065979555 4288647307
-0.016766138 -0.014997271 -0.066182606 4287396724
-0.01709196 -0.016707124 -0.066385657 4286014045
-0.015354683 -0.018788645 -0.066786014 4283445812
-0.012570566 -0.021068476 -0.06728778 4282195234
-0.012898178 -0.022787726 -0.067491941 4282457636
-0.014433936 -0.0046074167 -0.066670626 4285949295
-0.014759757 -0.0063172705 -0.066873677 4288515479
-0.013017369 -0.0083760275 -0.067275107 4288910491
-0.015411397 -0.0097369757 -0.067279771 4289107868
-0.015737217 -0.011446829 -0.067482822 4289700257
-0.016063038 -0.013156682 -0.067685865 4288844947
-0.01638886 -0.014866536 -0.067888916 4287200122
-0.016714679 -0.016576389 -0.068091966 4285685341
-0.014976575 -0.018657623 -0.068496071 4285419861
-0.012191221 -0.020937026 -0.069003433 4283839287
-0.012518832 -0.022656275 -0.069207601 4284958022
-0.01405665 -0.0044766795 -0.068376966 4290882998
-0.01438247 -0.0061865328 -0.068580016 4289304483
-0.014708291 -0.0078963852 -0.06878306 4288449687
-0.015034111 -0.0096062385 -0.06898611 4288911008
-0.015359932 -0.011316092 -0.069189161 4289174950
-0.015685752 -0.013025944 -0.069392212 4288057239
-0.016011573 -0.014735797 -0.069595255 4286347134
-0.016337393 -0.01644565 -0.069798306 4285360238
-0.014598467 -0.018526601 -0.070206121 4285753967
-0.011811862 -0.020805569 -0.070719145 4288320143
-0.012139473 -0.022524819 -0.070923313 4291149745
-0.013679364 -0.0043459418 -0.070083305 4289566366
-0.014005184 -0.0060557951 -0.070286356 4288843158
-0.014331005 -0.007765648 -0.070489399 4288449429
-0.014656825 -0.0094755003 -0.07069245 4289107617
-0.014982645 -0.011185354 -0.0708955 4289634988
-0.015308466 -0.012895207 -0.071098551 4289043364
-0.015634287 -0.01460506 -0.071301594 4287202443
-0.015960107 -0.016314913 -0.071504645 4285820277
-0.016285928 -0.018024767 -0.071707696 4288319383
-0.014546888 -0.020109177 -0.072119698 4291345598
-0.014873422 -0.021822775 -0.072323196 4290030753
-0.013627904 -0.0059250598 -0.071992666 4287855230
-0.013953725 -0.0076349126 -0.072195716 4288777102
-0.014279545 -0.009344765 -0.072398759 4289303959
-0.014605366 -0.011054618 -0.07260181 4289698974
-0.014931186 -0.012764472 -0.072804861 4289436571
-0.015257007 -0.014474325 -0.073007904 4288252297
-0.015582827 -0.016184177 -0.073210955 4287132277
-0.015908647 -0.017894031 -0.073414005 4286535786
-0.014168774 -0.019978153 -0.073829785 4286468707
-0.011380755 -0.022261906 -0.074354738 4286140504
-0.011708367 -0.023981156 -0.074558899 4288575605
-0.013250618 -0.0057943226 -0.073699005 4285356125
-0.016666863 -0.0069853636 -0.073583782 4288251271
-0.013902259 -0.0092140278 -0.074105099 4289107092
-0.014228079 -0.010923881 -0.07430815 4289238678
-0.0145539 -0.012633733 -0.0745112 4289238674
-0.01487972 -0.014343588 -0.074714243 4288317572
-0.015205541 -0.01605344 -0.074917294 4287263092
-0.015531361 -0.017763292 -0.075120345 4285482072
-0.013790673 -0.019847132 -0.075539805 4282519847
-0.014117207 -0.02156073 -0.075743303 4283046699
-0.014443741 -0.02327433 -0.075946793 4282587167
-0.01629081 -0.0068550529 -0.075284548 4287595918
-0.016615564 -0.0085593173 -0.075486936 4288648346
-0.01694032 -0.010263581 -0.075689323 4288977563
-0.017265076 -0.011967845 -0.075891703 4289108889
-0.014502441 -0.014212852 -0.07642056 4287990408
-0.014828261 -0.015922705 -0.076623604 4286607475
-0.015154081 -0.017632557 -0.076826654 4283907919
-0.015479902 -0.019342411 -0.077029705 4283249221
-0.015805723 -0.021052264 -0.077232748 4281539368
-0.014065627 -0.023143306 -0.07765688 4284106060
-0.015914761 -0.0067247446 -0.076985292 4288911777
-0.013147693 -0.0089525543 -0.077517755 4288648344
-0.013473514 -0.010662409 -0.077720799 4289042841
-0.013799334 -0.012372261 -0.077923849 4289305496
-0.014125154 -0.014082114 -0.0781269 4288318342
-0.014450975 -0.015791968 -0.078329943 4286936691
-0.014776795 -0.01750182 -0.078532994 4285817707
-0.015102616 -0.019211674 -0.078736044 4287857292
-0.015428436 -0.020921526 -0.078939088 4289107868
-0.012444593 -0.0071119666 -0.079021014 4289107606
-0.012770413 -0.008821819 -0.079224065 4288975756
-0.013096234 -0.010531673 -0.079427108 4289501327
-0.013422054 -0.012241526 -0.079630159 4289697675
-0.013747875 -0.013951379 -0.07983321 4288907644
-0.014073695 -0.015661232 -0.080036253 4288052080
-0.014399515 -0.017371085 -0.080239303 4288184699
-0.014725336 -0.019080939 -0.080442354 4289632660
-0.015051156 -0.020790791 -0.080645405 4293514702
-0.012067307 -0.0069812294 -0.080727354 4286806394
-0.012393127 -0.0086910818 -0.080930404 4288647566
-0.012718948 -0.010400935 -0.081133448 4289896858
-0.013044768 -0.012110788 -0.081336498 4289435534
-0.013370588 -0.013820642 -0.081539549 4288579196
-0.013696409 -0.015530494 -0.0817426 4287921525
-0.014022229 -0.017240347 -0.081945643 4286606954
-0.01434805 -0.0189502 -0.082148694 4286871155
-0.01467387 -0.020660054 -0.082351744 4286870898
-0.0096143754 -0.0071968194 -0.082665712 4286415759
-0.0099409102 -0.0089104194 -0.082869209 4287796384
-0.012341668 -0.0102702 -0.082839765 4288453539
-0.012667488 -0.011980053 -0.083042808 4288584095
-0.012993309 -0.013689906 -0.083245859 4287859343
-0.013319129 -0.015399759 -0.083448909 4287004550
-0.016735144 -0.016559402 -0.083301842 4284374632
-0.0170599 -0.018263666 -0.08350423 4282138187
-0.017384656 -0.01996793 -0.083706617 4279374113
-0.00035615711 -0.0049790237 -0.084898666 4280758852
-0.0057767653 -0.0058684777 -0.084527157 4283588206
-0.0092362687 -0.0070657972 -0.084375769 4286284434
-0.01163856 -0.0084296092 -0.084343053 4287534240
-0.011964382 -0.010139463 -0.084546104 4288453800
-0.012290202 -0.011849315 -0.084749147 4288453285
-0.012616022 -0.013559168 -0.084952198 4287925912
-0.012941843 -0.015269022 -0.085155249 4287137166
-0.016359096 -0.016429093 -0.085002586 4284506988
-0.016683852 -0.018133357 -0.085204966 4282467665
-0.017008606 -0.019837622 -0.085407354 4280296242
-0.0050697955 -0.0040177726 -0.086038709 4282992720
-0.0053974069 -0.005737022 -0.086242869 4284505446
-0.008858161 -0.006934775 -0.086085819 4286413441
-0.011261274 -0.0082988711 -0.086049393 4288189078
-0.011587095 -0.010008725 -0.086252443 4289240994
-0.011912916 -0.011718578 -0.086455487 4289306015
-0.012238736 -0.013428431 -0.086658537 4288713108
-0.012564557 -0.015138284 -0.086861588 4288121224
-0.015983041 -0.016298782 -0.086703353 4285885028
-0.016307797 -0.018003047 -0.08690574 4283845958
-0.016632553 -0.019707311 -0.08710812 4282727225
0.0079484945 -0.0041450956 -0.088981837 4283320142
0.00040660883 -0.0047147092 -0.088348404 4283056971
-0.0081535131 -0.0050901524 -0.087592408 4283649107
-0.010558174 -0.0064582834 -0.087552652 4285819760
-0.010883994 -0.0081681358 -0.087755702 4288254099
-0.011209815 -0.00987799 -0.087958753 4289437601
-0.011535635 -0.011587842 -0.088161804 4289174427
-0.011861457 -0.013297696 -0.088364847 4288647569
-0.012187277 -0.015007549 -0.088567898 4288120963
-0.012513097 -0.016717402 -0.088770948 4286541153
-0.012838918 -0.018427255 -0.088973992 4284567361
-0.013164738 -0.020137109 -0.089177042 4284106814
-0.013490559 -0.021846961 -0.089380093 4283975234
0.0083327424 -0.0040119458 -0.090719663 4283517785
0.000787995 -0.0045825508 -0.090073287 4282794062
-0.0046386896 -0.0054741106 -0.089674294 4282859855
-0.0081019392 -0.0066727283 -0.089505956 4285031022
-0.010506708 -0.0080373986 -0.089462042 4287860119
-0.010832529 -0.0097472519 -0.089665093 4288781474
-0.011158349 -0.011457104 -0.089868143 4288452507
-0.01148417 -0.013166958 -0.090071186 4287992210
-0.011809991 -0.014876811 -0.090274237 4287727493
-0.012135811 -0.016586663 -0.090477288 4286343265
-0.012461632 -0.018296517 -0.090680331 4284565823
-0.015880451 -0.019446691 -0.090509631 4284302912
-0.016205207 -0.021150956 -0.090712018 4283777087
-0.016529962 -0.02285522 -0.090914398 4284500816
0.0066563748 -0.0035485504 -0.092210673 4284305505
0.0032961185 -0.004795183 -0.092053421 4283779674
-0.0073972978 -0.004828108 -0.091012515 4283319121
-0.0098036081 -0.0061968104 -0.090965308 4285227372
-0.010129428 -0.0079066632 -0.091168351 4287859860
-0.010455249 -0.0096165165 -0.091371402 4288518043
-0.010781069 -0.011326369 -0.091574453 4288386968
-0.01110689 -0.013036223 -0.091777496 4288321173
-0.01143271 -0.014746075 -0.091980547 4287925385
-0.011758531 -0.01645593 -0.092183597 4286080610
-0.012084352 -0.018165782 -0.092386641 4284369222
-0.015504403 -0.019316383 -0.092210367 4284106311
-0.015829159 -0.021020649 -0.092412755 4283711811
-0.016153913 -0.022724912 -0.092615135 4284172880
-0.016478669 -0.024429176 -0.092817523 4283186500
0.0091012446 -0.0037456437 -0.094195344 4284105296
0.0087694088 -0.0054870625 -0.094402142 4283974222
-0.0091005014 -0.0043562204 -0.092468597 4283184960
-0.0094263218 -0.0060660732 -0.092671648 4285027675
-0.0097521422 -0.0077759256 -0.092874691 4287725954
-0.010077963 -0.0094857793 -0.093077742 4288581773
-0.010403783 -0.011195632 -0.093280792 4288780174
-0.010729603 -0.012905485 -0.093483835 4288845966
-0.011055424 -0.014615338 -0.093686886 4287859331
-0.011381245 -0.016325191 -0.093889937 4285424741
-0.011707066 -0.018035045 -0.094092987 4283780177
-0.015128348 -0.019186072 -0.093911134 4283582544
-0.015453104 -0.020890338 -0.094113521 4283714384
-0.01577786 -0.022594601 -0.094315909 4283780947
-0.016102616 -0.024298865 -0.094518289 4283254601
0.0094854925 -0.0036124936 -0.095933169 4283644226
0.0091536567 -0.0053539127 -0.09613996 4282591540
-0.0087232217 -0.004225485 -0.094174907 4281671206
-0.0090490421 -0.0059353379 -0.094377957 4283777095
-0.012479018 -0.0071259174 -0.094195157 4286935668
-0.012803774 -0.0088301813 -0.094397537 4288185986
-0.010026503 -0.011064896 -0.094987102 4288844169
-0.010352324 -0.01277475 -0.095190153 4288713351
-0.010678144 -0.014484603 -0.095393196 4287331957
-0.011003965 -0.016194455 -0.095596246 4284833115
-0.011329785 -0.01790431 -0.095799297 4283386189
-0.014752307 -0.019055767 -0.095611848 4283123017
-0.015077063 -0.020760031 -0.095814236 4283649361
-0.015401818 -0.022464296 -0.096016616 4283649359
-0.01242772 -0.0086998707 -0.096098304 4287857542
-0.012752475 -0.010404135 -0.096300691 4288251783
-0.013077231 -0.0121084 -0.096503079 4288448899
-0.013401986 -0.013812664 -0.096705459 4287528309
-0.013726742 -0.015516927 -0.096907847 4285489496
-0.010952499 -0.01777357 -0.097505637 4283252279
-0.01127832 -0.019483425 -0.09770868 4283647039
-0.01160414 -0.021193277 -0.09791173 4284304971
-0.011929961 -0.022903131 -0.098114781 4283778886
-0.012376428 -0.010273827 -0.098001428 4287199095
-0.012701183 -0.011978091 -0.098203816 4287593592
-0.013025939 -0.013682355 -0.098406203 4288251262
-0.013350694 -0.01538662 -0.098608583 4287528048
-0.010575219 -0.017642835 -0.099211946 4286541153
-0.010901039 -0.019352689 -0.099414997 4284896330
-0.01122686 -0.021062542 -0.09961804 4283514936
-0.011552681 -0.022772396 -0.099821091 4283383097
-0.012325129 -0.01184778 -0.099904582 4286409064
-0.012649884 -0.013552045 -0.10010697 4288119423
-0.012974639 -0.015256309 -0.10030936 4292988615
-0.013299395 -0.016960572 -0.10051174 4290028184
-0.010849574 -0.020931805 -0.10132438 4282922800
-0.011175395 -0.022641659 -0.10152743 4284238408
-0.011949081 -0.011717471 -0.10160533 4284172102
-0.012273836 -0.013421736 -0.10180771 4286671979
-0.012598592 -0.015126 -0.10201009 4291935928
