# .PCD v0.7 - Point Cloud Data file format
VERSION 0.7
FIELDS x y z rgb
SIZE 4 4 4 4
TYPE F F F U
COUNT 1 1 1 1
WIDTH 1020
HEIGHT 1
VIEWPOINT 0 0 0 1 0 0 0
POINTS 1020
DATA ascii
0.18998781 -0.091476962 -0.066107981 4282726196
0.1911269 -0.092849039 -0.066180788 4281803814
0.17579544 -0.076991379 -0.0705221 4285558906
0.17705375 -0.078576207 -0.068582356 4287664284
0.17836395 -0.080259055 -0.065608568 4287729564
0.17950304 -0.081631131 -0.065681368 4287597976
0.18074669 -0.083197571 -0.063762426 4288189337
0.18188335 -0.08456672 -0.06383507 4287926417
0.18302003 -0.085935883 -0.06390772 4287926155
0.18415669 -0.087305032 -0.063980363 4287794821
0.18529335 -0.088674188 -0.064053014 4287662465
0.18643002 -0.090043344 -0.064125657 4287069813
0.18756668 -0.0914125 -0.064198308 4285292893
0.18870336 -0.092781655 -0.064270951 4282923575
0.18975486 -0.093979821 -0.06633658 4281738021
0.17309105 -0.076438479 -0.073596954 4281677371
0.17441599 -0.078128286 -0.070678741 4285164148
0.17567725 -0.079710677 -0.068738662 4287532698
0.17699191 -0.081389844 -0.065764368 4287729564
0.17813101 -0.082761921 -0.065837167 4287597976
0.17937759 -0.084325947 -0.06391789 4288123544
0.18051425 -0.085695103 -0.063990541 4287926417
0.18165092 -0.087064259 -0.064063184 4287991948
0.18278758 -0.088433415 -0.064135827 4287860614
0.18392424 -0.089802563 -0.064208478 4287662465
0.18506092 -0.091171719 -0.064281121 4287332985
0.18619758 -0.092540875 -0.064353772 4285621858
0.18733424 -0.093910031 -0.064426415 4283120954
0.18838283 -0.09511061 -0.066492379 4281672228
0.18952192 -0.096482687 -0.066565186 4281475619
0.17303655 -0.079265185 -0.070835382 4284703597
0.1744808 -0.08114855 -0.06584736 4287335319
0.17573515 -0.082716018 -0.063928068 4287795357
0.17687181 -0.084085174 -0.064000711 4287597976
0.17800847 -0.08545433 -0.064073361 4288123544
0.17914513 -0.086823486 -0.064146005 4287926417
0.1802818 -0.088192642 -0.064218648 4288057741
0.18141846 -0.08956179 -0.064291298 4287860614
0.18255514 -0.090930946 -0.064363942 4287728258
0.1836918 -0.092300102 -0.064436592 4287464571
0.18482846 -0.093669258 -0.064509235 4285819237
0.18596514 -0.095038414 -0.064581886 4283252540
0.18701079 -0.096241392 -0.066648178 4281672228
0.1881499 -0.097613469 -0.066720977 4281344033
0.17178145 -0.080603078 -0.068978235 4284243046
0.17310876 -0.082279339 -0.066003159 4287137940
0.17436603 -0.083844393 -0.064083531 4287795357
0.17550269 -0.085213549 -0.064156175 4287663769
0.17663936 -0.086582705 -0.064228825 4288123545
0.17777602 -0.087951861 -0.064301468 4287926417
0.1790722 -0.089587614 -0.06144331 4288057742
0.1802053 -0.090952471 -0.06151573 4287860360
0.18118602 -0.092059329 -0.064519413 4287794051
0.1823227 -0.093428485 -0.064592056 4287464571
0.18345936 -0.094797634 -0.064664707 4285819237
0.18459603 -0.09616679 -0.06473735 4283252540
0.18563877 -0.097372182 -0.066803977 4281672228
0.18677786 -0.098744258 -0.066876777 4281344033
0.17186026 -0.083603621 -0.064166352 4287006099
0.17299692 -0.084972776 -0.064238995 4287861151
0.17430809 -0.08661788 -0.061381035 4287729562
0.17544119 -0.087982729 -0.061453454 4288189338
0.17657429 -0.089347593 -0.06152587 4287992210
0.17770739 -0.09071245 -0.06159829 4288057742
0.17884049 -0.092077307 -0.061670709 4287794567
0.17997359 -0.093442172 -0.061743129 4287794051
0.18110669 -0.094807029 -0.061815545 4287464571
0.18209025 -0.095926017 -0.06482017 4285753444
0.18322691 -0.097295173 -0.064892814 4283252540
0.18426673 -0.098502971 -0.066959776 4281672228
0.18540582 -0.099875048 -0.067032576 4281344033
0.17049114 -0.084732004 -0.064321816 4286940306
0.1716278 -0.086101159 -0.064394467 4287926944
0.17294328 -0.087742709 -0.061536014 4287795357
0.17407638 -0.089107558 -0.06160843 4288189338
0.17520948 -0.090472423 -0.06168085 4287991956
0.17634258 -0.091837287 -0.061753269 4288057742
0.17747568 -0.093202144 -0.061825685 4287728774
0.17860879 -0.094567008 -0.061898105 4287794051
0.17974187 -0.095931858 -0.061970524 4287398778
0.18087497 -0.097296722 -0.06204294 4285687651
0.18185781 -0.098423555 -0.065048285 4283186747
0.18299447 -0.099792711 -0.065120928 4281672228
0.18413113 -0.10116186 -0.065193579 4281344033
0.16912204 -0.085860386 -0.064477287 4286084997
0.17044537 -0.087502688 -0.061618574 4287532186
0.17157847 -0.088867553 -0.06169099 4287597978
0.17271157 -0.090232402 -0.06176341 4288189338
0.17384467 -0.091597266 -0.061835829 4288123542
0.17509881 -0.093141846 -0.059849504 4287860363
0.1762294 -0.094503686 -0.059921764 4288189325
0.17736 -0.095865533 -0.05999402 4287728258
0.17849059 -0.097227372 -0.060066279 4287727743
0.17962119 -0.098589219 -0.060138538 4286082409
0.18064326 -0.099786423 -0.06227034 4283186747
0.18177636 -0.10115128 -0.062342759 4281343263
0.18290946 -0.10251614 -0.062415179 4281080861
0.16794744 -0.087262668 -0.061701134 4285887618
0.16908056 -0.088627532 -0.061773553 4287466393
0.17034522 -0.090178676 -0.059787367 4287663771
0.17147581 -0.091540508 -0.059859622 4288320670
0.17260641 -0.092902355 -0.059931882 4288255128
0.173737 -0.094264202 -0.060004141 4287860109
0.1748676 -0.095626041 -0.060076401 4287926153
0.17617089 -0.097236194 -0.057161573 4287794051
0.17712879 -0.098349728 -0.060220916 4287793536
0.17825939 -0.099711575 -0.060293175 4286148202
0.17938998 -0.10107341 -0.060365435 4283318333
0.18052058 -0.10243525 -0.06043769 4281409056
0.18165118 -0.1037971 -0.06050995 4281146654
0.22072469 -0.15168546 -0.0018172376 4285950304
0.22178115 -0.15295802 -0.0018847585 4287331958
0.22390766 -0.15554665 6.4985858e-07 4288713611
0.22496168 -0.15681626 -6.6714507e-05 4290358178
0.2260157 -0.15808585 -0.00013407887 4290687141
0.22707592 -0.15938999 0.001810147 4291937208
0.22812751 -0.16065666 0.0017429384 4292068792
0.22917776 -0.16189468 -0.00033617197 4292463811
0.23023178 -0.16316427 -0.00040353637 4292399563
0.23128225 -0.16445667 0.0015413128 4292729044
0.23233981 -0.16570348 -0.00053826493 4293254872
0.23338541 -0.16699 0.0014068956 4293254870
0.23443699 -0.16825667 0.001339687 4292925390
0.23548858 -0.16952333 0.0012724784 4292136129
0.23654015 -0.17079 0.0012052698 4290951853
0.23759173 -0.17205666 0.0011380613 4289964699
0.1669247 -0.088852674 -0.056811526 4285229690
0.16805167 -0.09021014 -0.056883555 4287071381
0.16917863 -0.091567613 -0.05695558 4287663771
0.17011401 -0.092662863 -0.060014259 4288254877
0.17143255 -0.094282545 -0.057099633 4288189335
0.17255953 -0.095640011 -0.057171658 4287860109
0.17368649 -0.096997477 -0.057243686 4287794569
0.17481345 -0.098354951 -0.057315711 4287859844
0.17594041 -0.099712417 -0.057387739 4287859329
0.17689759 -0.10083392 -0.060447812 4286213995
0.17819434 -0.10242736 -0.057531789 4283384126
0.1793213 -0.10378482 -0.057603817 4281540642
0.18044826 -0.10514229 -0.057675842 4281278240
0.21104389 -0.14262734 0.0005974957 4283451451
0.21205691 -0.14382635 -0.0014890892 4284504644
0.21307464 -0.14503095 -0.0035853677 4285425744
0.21413356 -0.14630646 -0.0036530457 4287267950
0.21519248 -0.14758198 -0.0037207238 4287991419
0.21625142 -0.14885749 -0.0037884018 4289307280
0.21731034 -0.15013301 -0.0038560799 4289833372
0.21836928 -0.15140852 -0.0039237579 4291346613
0.21945217 -0.15273423 -0.0019617351 4292135617
0.22050865 -0.15400678 -0.002029256 4292266949
0.22156511 -0.15527934 -0.0020967769 4292661961
0.22263812 -0.15659298 -0.00014351211 4292727754
0.22369213 -0.15786259 -0.00021087647 4293516499
0.22474615 -0.1591322 -0.00027824086 4293319374
0.22580929 -0.1604339 0.0016663173 4293779925
0.22686087 -0.16170058 0.0015991088 4293648337
0.22791246 -0.16296725 0.0015319003 4293714648
0.22896403 -0.16423391 0.0014646916 4293057493
0.23001562 -0.16550058 0.0013974832 4293058009
0.2310672 -0.16676724 0.0013302746 4293058009
0.23211879 -0.16803391 0.001263066 4292926421
0.23317036 -0.16930059 0.0011958574 4292662733
0.23422195 -0.17056724 0.0011286488 4291807422
0.23527353 -0.17183392 0.0010614402 4290426024
0.2363251 -0.17310059 0.00099423167 4289307028
0.16556729 -0.089971416 -0.056965664 4284374381
0.16669425 -0.091328882 -0.057037693 4286808209
0.16782121 -0.092686355 -0.057109717 4287729565
0.16894817 -0.094043814 -0.057181746 4288057498
0.17007515 -0.095401287 -0.057253771 4287991958
0.17120211 -0.096758753 -0.057325799 4287925902
0.17245004 -0.098276682 -0.055444829 4287860362
0.17357463 -0.099631295 -0.055516705 4287859844
0.1746992 -0.1009859 -0.055588581 4287859329
0.17582379 -0.10234051 -0.055660456 4286213995
0.17683692 -0.1035461 -0.05768593 4283384126
0.17796388 -0.10490356 -0.057757955 4281540642
0.17909086 -0.10626103 -0.057829984 4281278240
0.20872033 -0.14240408 0.00052069745 4286280297
0.20977435 -0.14367367 0.00045333311 4289767579
0.21078439 -0.14487512 -0.0016335867 4289636244
0.21179916 -0.14608215 -0.0037302014 4291215528
0.21285808 -0.14735767 -0.0037978794 4291281069
0.21391702 -0.14863318 -0.0038655575 4293715411
0.21501026 -0.14996533 -0.0019036701 4292399553
0.21603487 -0.15118422 -0.0040009138 4294175712
0.2171232 -0.15251043 -0.0020387119 4293188564
0.21817966 -0.15378299 -0.0021062328 4294109666
0.21923614 -0.15505555 -0.0021737537 4293714910
0.2202926 -0.1563281 -0.0022412746 4293780703
0.22136855 -0.15763932 -0.00028767472 4293649117
0.22242257 -0.15890892 -0.00035503908 4293649115
0.22347659 -0.16017853 -0.00042240345 4293320148
0.22454266 -0.16147782 0.0015224884 4293254610
0.22559425 -0.16274449 0.0014552798 4293123022
0.22664583 -0.16401115 0.0013880712 4293057489
0.22769742 -0.16527782 0.0013208627 4292794837
0.22874899 -0.1665445 0.0012536541 4292729045
0.22980057 -0.16781116 0.0011864457 4292597459
0.23085216 -0.16907783 0.001119237 4292531665
0.23190373 -0.1703445 0.0010520284 4292400077
0.23295532 -0.17161116 0.00098481984 4291742401
0.2340069 -0.17287783 0.00091761118 4290557355
0.23505849 -0.17414449 0.00085040275 4289307288
0.16547252 -0.092620037 -0.055239271 4286742416
0.1665971 -0.093974642 -0.055311147 4287992737
0.16772169 -0.095329247 -0.055383023 4287925912
0.16884628 -0.09668386 -0.055454895 4287728786
0.16997087 -0.098038465 -0.055526771 4287925902
0.17109546 -0.099393077 -0.055598646 4287926155
0.17222005 -0.10074769 -0.055670522 4287859844
0.17334464 -0.10210229 -0.055742394 4287859329
0.17446923 -0.1034569 -0.05581427 4286213995
0.17559382 -0.10481151 -0.055886146 4283384126
0.1768927 -0.10638999 -0.052915912 4281474849
0.17801359 -0.10774014 -0.052987549 4281278240
0.20634247 -0.14210624 -0.0015755218 4290820529
0.20745076 -0.14345041 0.00037653482 4292596938
0.20850478 -0.14472002 0.00030917049 4293057742
0.2095588 -0.14598961 0.00024180613 4293321166
0.21052368 -0.14713337 -0.0038750353 4293123786
0.21158262 -0.14840887 -0.0039427131 4293189326
0.21264154 -0.1496844 -0.0040103914 4292860363
0.21373776 -0.1510141 -0.0020481676 4293123282
0.21479422 -0.15228665 -0.0021156885 4292991698
0.21585068 -0.15355921 -0.0021832094 4293320411
0.21690716 -0.15483177 -0.0022507303 4293320412
0.21799095 -0.15614645 -0.00029710872 4293649123
0.21904497 -0.15741605 -0.00036447303 4293649377
0.22009899 -0.15868565 -0.00043183734 4293649377
0.22115301 -0.15995526 -0.00049920171 4293320411
0.22220702 -0.16122486 -0.00056656607 4293123800
0.22327605 -0.16252173 0.0013786594 4292860882
0.22432762 -0.16378841 0.0013114508 4292992466
0.2253792 -0.16505507 0.0012442423 4292926675
0.22643079 -0.16632174 0.0011770336 4292926681
0.22748236 -0.1675884 0.0011098252 4292795097
0.22853395 -0.16885507 0.0010426167 4292597718
0.22958553 -0.17012174 0.00097540807 4292466130
0.23063712 -0.1713884 0.00090819946 4292400337
0.23168869 -0.17265508 0.00084099086 4291874248
0.23274028 -0.17392175 0.0007737822 4290689459
0.23377806 -0.17518534 0.0036733674 4289439392
0.16411796 -0.093736425 -0.055393089 4286676623
0.16524254 -0.09509103 -0.055464961 4288124323
0.16636713 -0.096445635 -0.055536836 4287860119
0.16749172 -0.097800247 -0.055608712 4287728786
0.16861631 -0.099154852 -0.055680584 4288057488
0.1697409 -0.10050946 -0.05575246 4287860362
0.17086549 -0.10186408 -0.055824336 4287925637
0.17199008 -0.10321868 -0.055896208 4287925122
0.17311467 -0.10457329 -0.055968083 4286279788
0.1744217 -0.10615255 -0.052997582 4283384126
0.17554259 -0.10750271 -0.053069219 4281474849
0.17666349 -0.10885286 -0.05314086 4281212447
0.17806746 -0.11055212 -0.048184935 4281673257
0.17918225 -0.11189492 -0.048256185 4281608747
0.2040135 -0.14188243 -0.0016524978 4292991700
0.20506997 -0.14315499 -0.0017200187 4294175970
0.20612644 -0.14442754 -0.0017875396 4294768362
0.20723522 -0.14576635 0.00016500786 4293649879
0.20823938 -0.14697266 -0.0019225812 4293847256
0.20929584 -0.1482452 -0.001990102 4293189328
0.2103523 -0.14951776 -0.0020576229 4293518295
0.21140878 -0.1507903 -0.0021251438 4292531145
0.21246524 -0.15206286 -0.0021926647 4293649630
0.2135217 -0.15333542 -0.0022601855 4292794838
0.21461335 -0.15465358 -0.00030654258 4293386723
0.21566737 -0.15592317 -0.00037390695 4292926174
0.21672139 -0.15719278 -0.00044127132 4292860381
0.21780309 -0.15849899 0.0015036642 4292663259
0.21885467 -0.15976565 0.0014364556 4292992224
0.21988344 -0.16100159 -0.00064336433 4292531927
0.22095783 -0.16229899 0.0013020383 4292860890
0.22200942 -0.16356565 0.0012348298 4292335314
0.223061 -0.16483232 0.0011676212 4292730071
0.22411257 -0.16609898 0.0011004127 4292664278
0.22516416 -0.16736566 0.001033204 4292466134
0.22621574 -0.16863233 0.0009659956 4292400341
0.22726732 -0.16989899 0.00089878705 4292268755
0.22832379 -0.1711763 0.003797946 4292268753
0.22937179 -0.17243865 0.0037309669 4292334546
0.23041977 -0.17370099 0.0036639879 4291873993
0.23146777 -0.17496334 0.0035970085 4290755512
0.23251575 -0.17622568 0.0035300294 4289506215
0.16262197 -0.09468513 -0.057500113 4285952900
0.16374895 -0.096042603 -0.057572138 4287795358
0.16501257 -0.09756203 -0.05569065 4287860119
0.16613716 -0.098916642 -0.055762526 4287926165
0.16726175 -0.10027125 -0.055834401 4288254867
0.16838634 -0.10162586 -0.055906273 4287728776
0.16970891 -0.10321481 -0.052935977 4288123016
0.17063552 -0.10433508 -0.056050025 4288056708
0.17176011 -0.10568968 -0.056121901 4286411374
0.17307158 -0.10726528 -0.053150892 4283515712
0.17419247 -0.10861544 -0.05322253 4281540642
0.17543238 -0.1101062 -0.051276401 4281278240
0.17712605 -0.11213279 -0.041388948 4281673257
0.1782324 -0.11346543 -0.041459657 4281608747
0.202741 -0.14293121 -0.0017969954 4293979109
0.20379746 -0.14420375 -0.0018645162 4293913568
0.20485392 -0.14547631 -0.0019320371 4293913567
0.20596565 -0.14681268 2.0845251e-05 4293387477
0.20696686 -0.14802141 -0.0020670788 4292794572
0.20802332 -0.14929397 -0.0021345997 4292991696
0.2090798 -0.15056652 -0.0022021206 4292663503
0.21013626 -0.15183908 -0.0022696413 4293321181
0.21123575 -0.15316071 -0.0003159765 4293057756
0.21228977 -0.1544303 -0.00038334084 4293386725
0.21330567 -0.15565674 -0.0024722039 4292794335
0.21436213 -0.15692928 -0.0025397248 4292663008
0.21545182 -0.15823911 -0.00058543397 4292860387
0.21650584 -0.15950872 -0.00065279828 4292597985
0.21758804 -0.16080956 0.0012926266 4293058536
0.21861388 -0.16204792 -0.00078752695 4292466397
0.2196912 -0.16334289 0.0011582094 4292927201
0.22074279 -0.16460957 0.0010910009 4292335575
0.22179437 -0.16587624 0.0010237922 4292861919
0.22286953 -0.16716728 0.0039225244 4292730333
0.22391751 -0.16842963 0.0038555455 4292335064
0.22496551 -0.16969196 0.0037885664 4292400857
0.2260135 -0.17095432 0.0037215871 4292466650
0.2270615 -0.17221665 0.003654608 4292532441
0.22810948 -0.17347899 0.0035876289 4292532441
0.22915748 -0.17474134 0.0035206499 4292137937
0.23020546 -0.17600368 0.0034536708 4291085249
0.23125346 -0.17726603 0.0033866914 4290032818
0.16140884 -0.095969208 -0.055700716 4285032311
0.16253342 -0.097323805 -0.055772591 4287334807
0.16365801 -0.098678418 -0.055844467 4287729305
0.1647826 -0.10003303 -0.055916339 4288255130
0.166117 -0.10162722 -0.052946009 4288452761
0.16723789 -0.10297737 -0.053017646 4287662984
0.16835879 -0.10432753 -0.053089287 4288254602
0.16947968 -0.10567769 -0.053160924 4288188296
0.17060058 -0.10702784 -0.053232562 4286542960
0.17184834 -0.10852208 -0.051286411 4283581505
0.17296678 -0.10986928 -0.051357895 4281541412
0.17426716 -0.11142264 -0.048418637 4281344033
0.17579345 -0.11323107 -0.041540269 4281608234
0.1770186 -0.11469794 -0.03956278 4281674540
0.17812246 -0.11602758 -0.03963333 4281478190
0.19844453 -0.14032012 0.0022913434 4294176752
0.19949612 -0.1415868 0.0022241347 4294966523
0.2005477 -0.14285345 0.0021569263 4294110955
0.20159929 -0.14412013 0.0020897177 4294505455
0.20258805 -0.1453198 1.1411342e-05 4294505453
0.20364207 -0.14658941 -5.5953016e-05 4293453019
0.20469609 -0.14785902 -0.00012331737 4292926675
0.20569435 -0.14907019 -0.0022115763 4293321179
0.20680413 -0.15039822 -0.00025804606 4293255386
0.20785815 -0.15166783 -0.00032541042 4293123802
0.20891216 -0.15293743 -0.00039277479 4292926683
0.20996618 -0.15420704 -0.00046013913 4292795099
0.2110202 -0.15547664 -0.00052750343 4292860640
0.21207422 -0.15674624 -0.0005948678 4292992227
0.21312824 -0.15801585 -0.00066223217 4292992743
0.21421826 -0.15932015 0.0012832148 4292926950
0.21526983 -0.1605868 0.0012160062 4292663778
0.21632142 -0.16185348 0.0011487977 4293190122
0.217373 -0.16312015 0.001081589 4292466397
0.21842459 -0.16438681 0.0010143805 4292992996
0.21951124 -0.16568296 0.0039131441 4292269271
0.22055922 -0.16694529 0.003846165 4292795615
0.22160722 -0.16820763 0.0037791859 4292532443
0.22265521 -0.16946998 0.0037122068 4292466652
0.22370321 -0.17073232 0.0036452278 4292729054
0.22475119 -0.17199467 0.0035782487 4292729052
0.22579919 -0.17325701 0.0035112696 4292597718
0.22684717 -0.17451935 0.0034442905 4292466132
0.22789517 -0.1757817 0.0033773114 4291873993
0.22894315 -0.17704403 0.0033103321 4290624698
0.22999115 -0.17830639 0.003243353 4289637803
0.16005427 -0.097085603 -0.055854533 4284506737
0.16117884 -0.098440208 -0.055926405 4287466652
0.16230343 -0.099794813 -0.055998281 4287926943
0.163646 -0.10138978 -0.053027678 4287926680
0.16476689 -0.10273994 -0.053099316 4287729554
0.1660274 -0.10424355 -0.051153459 4288123794
0.16714583 -0.10559075 -0.05122494 4287990919
0.16826428 -0.10693796 -0.051296424 4287924611
0.16938272 -0.10828517 -0.051367905 4286740339
0.17050117 -0.10963237 -0.051439386 4283779654
0.17180961 -0.11118649 -0.04849986 4281081374
0.1729244 -0.11252929 -0.04857111 4280555544
0.17446086 -0.11432935 -0.04169159 4281345062
0.17556721 -0.11566199 -0.0417623 4281411114
0.17667356 -0.11699463 -0.041833006 4281740592
0.19717792 -0.14136404 0.0021475144 4294046445
0.19822949 -0.14263071 0.0020803057 4294177777
0.19928107 -0.14389737 0.0020130973 4294111727
0.20026447 -0.14509654 -6.5386921e-05 4293847787
0.20138423 -0.14643072 0.0018786801 4293518309
0.20243582 -0.14769737 0.0018114715 4293320930
0.2034874 -0.14896405 0.001744263 4293255137
0.20453899 -0.15023071 0.0016770544 4293255137
0.20559056 -0.15149738 0.0016098458 4293255648
0.20664215 -0.15276405 0.0015426372 4293255650
0.20769373 -0.15403071 0.0014754287 4293058785
0.2087453 -0.15529738 0.0014082202 4292927201
0.20979689 -0.15656406 0.0013410115 4292796128
0.21084847 -0.15783072 0.0012738029 4292861921
0.21190006 -0.15909739 0.0012065944 4292927714
0.21295163 -0.16036406 0.0011393857 4292335577
0.21400322 -0.16163072 0.0010721772 4292664029
0.21510497 -0.16293627 0.0039707436 4292927201
0.21615295 -0.16419861 0.0039037645 4293058017
0.21720095 -0.16546096 0.0038367854 4292991967
0.21824893 -0.1667233 0.0037698064 4292794586
0.21929693 -0.16798565 0.003702827 4292859609
0.22034492 -0.16924798 0.0036358479 4292859611
0.22139291 -0.17051034 0.0035688689 4292662748
0.2224409 -0.17177267 0.0035018898 4292662748
0.2234889 -0.17303501 0.0034349107 4292926170
0.22453688 -0.17429736 0.0033679316 4292794837
0.22558488 -0.1755597 0.0033009525 4291545022
0.22663286 -0.17682205 0.0032339734 4289834404
0.22768086 -0.17808439 0.0031669943 4289109913
0.22872886 -0.17934674 0.003100015 4289175453
0.1600541 -0.099802189 -0.05303771 4287138457
0.16117498 -0.10115235 -0.053109352 4287861150
0.16244335 -0.10265943 -0.051163469 4287861402
0.16356179 -0.10400663 -0.051234953 4287663763
0.16489293 -0.10557915 -0.048296094 4287992208
0.16600771 -0.10692195 -0.048367344 4288056458
0.1671225 -0.10826475 -0.04843859 4287858818
0.16823728 -0.10960755 -0.04850984 4286608753
0.16935207 -0.11095035 -0.048581086 4283845447
0.17046686 -0.11229315 -0.048652336 4281213474
0.17158164 -0.11363596 -0.048723582 4280950302
0.17312826 -0.11542764 -0.041842908 4281805872
0.17423461 -0.11676028 -0.041913617 4282003251
0.17534097 -0.11809292 -0.041984327 4281213735
0.19161677 -0.13725565 0.00026200086 4292204490
0.19275655 -0.13860795 0.0022053111 4293915367
0.19393083 -0.1399921 0.005100009 4294704885
0.19469759 -0.14098729 -0.0019604047 4293981678
0.19591129 -0.14240795 0.0020036853 4293915886
0.19696286 -0.14367461 0.0019364769 4293914605
0.19801445 -0.14494129 0.0018692682 4293585129
0.19906603 -0.14620796 0.0018020597 4293321191
0.20011762 -0.14747462 0.0017348512 4293189092
0.20116919 -0.14874129 0.0016676426 4293385702
0.20222078 -0.15000796 0.001600434 4293451495
0.20327236 -0.15127462 0.0015332254 4293254885
0.20432393 -0.15254129 0.0014660169 4293255396
0.20537552 -0.15380797 0.0013988083 4293255398
0.2064271 -0.15507463 0.0013315997 4293058787
0.20747869 -0.1563413 0.0012643911 4292861410
0.20860271 -0.15766491 0.0041623013 4292664542
0.2096507 -0.15892725 0.004095322 4292598749
0.21063343 -0.1601413 0.0010627654 4292533467
0.21168502 -0.16140796 0.00099555682 4292927714
0.21279468 -0.16271427 0.0038943847 4292861919
0.21388058 -0.1640012 0.0058917822 4292729822
0.21492608 -0.16526054 0.0058249626 4292531927
0.21593864 -0.1665013 0.0036934474 4292334037
0.21698664 -0.16776365 0.0036264684 4292399058
0.21803463 -0.16902599 0.0035594893 4292661719
0.21908262 -0.17028834 0.0034925102 4292859098
0.22013061 -0.17155068 0.0034255311 4292333784
0.22119904 -0.17281653 0.0054240464 4292267990
0.22222659 -0.17407537 0.0032915727 4292399056
0.22327459 -0.17533772 0.0032245936 4292202184
0.22433551 -0.17659454 0.0052235881 4291610043
0.22537057 -0.17786239 0.0030906354 4290754989
0.22641855 -0.17912474 0.0030236563 4290293672
0.22747199 -0.18037254 0.0050231298 4290293421
0.22851749 -0.18163188 0.0049563101 4289964208
0.15870398 -0.10091491 -0.053191021 4286875283
0.15997775 -0.10242251 -0.051244963 4287795357
0.16109619 -0.10376972 -0.051316444 4287927195
0.16243538 -0.105343 -0.04837732 4287663763
0.16355017 -0.1066858 -0.04844857 4287794829
0.16466495 -0.10802861 -0.048519816 4288253837
0.16577974 -0.10937141 -0.048591066 4288055683
0.16689453 -0.11071421 -0.048662312 4286542960
0.16800931 -0.11205701 -0.048733562 4283779654
0.1691241 -0.11339981 -0.048804808 4281213474
0.1702389 -0.11474261 -0.048876058 4280884509
0.18938676 -0.13711853 0.0021958987 4293519071
0.19057254 -0.13850777 0.0050906288 4294441200
0.19162053 -0.13977011 0.0050236494 4294244336
0.19266853 -0.14103246 0.0049566701 4293652714
0.19359307 -0.1421852 0.0019270644 4293389544
0.19464466 -0.14345187 0.0018598558 4293323497
0.19569623 -0.14471854 0.0017926473 4293388265
0.19674782 -0.1459852 0.0017254386 4293190375
0.1977994 -0.14725187 0.0016582301 4293123812
0.19885099 -0.14851855 0.0015910215 4293123300
0.19990256 -0.14978521 0.001523813 4293319911
0.20105246 -0.1511312 0.0044208374 4293451495
0.20200573 -0.15231854 0.0013893958 4293189093
0.2030573 -0.15358521 0.0013221873 4293189605
0.20410889 -0.15485188 0.0012549787 4293255399
0.20524442 -0.15618058 0.004152921 4293058789
0.20629241 -0.15744291 0.0040859417 4292861155
0.2073404 -0.15870526 0.0040189628 4292598495
0.2083884 -0.1599676 0.0039519835 4292466909
0.2093668 -0.16118522 0.00091893581 4292467163
0.21048439 -0.16249229 0.0038180253 4292466909
0.21153237 -0.16375463 0.0037510463 4292335577
0.2126213 -0.16503906 0.0057487865 4292203480
0.2136668 -0.1662984 0.0056819669 4292136915
0.21471229 -0.16755773 0.0056151473 4292004818
0.21575777 -0.16881707 0.0055483282 4292267474
0.21680327 -0.1700764 0.0054815086 4292464599
0.21787606 -0.17134251 0.0073971259 4292661978
0.21891916 -0.17259894 0.0073304595 4292728542
0.21996225 -0.17385539 0.0072637936 4292729054
0.22100535 -0.17511183 0.0071971272 4292794584
0.22203073 -0.17637306 0.0051474115 4292663251
0.22307622 -0.17763241 0.0050805919 4292860112
0.22412172 -0.17889173 0.0050137728 4292794319
0.22516721 -0.18015108 0.0049469532 4292333003
0.22621271 -0.1814104 0.004880134 4291675076
0.22725819 -0.18266974 0.0048133144 4290358711
0.15639371 -0.10083839 -0.051254973 4283454049
0.15751214 -0.10218559 -0.051326454 4286611341
0.15886304 -0.10376406 -0.0483873 4287663771
0.15974903 -0.10488001 -0.051469419 4287992988
0.16109262 -0.10644966 -0.048529796 4287729556
0.16235426 -0.10793705 -0.046604387 4287794829
0.16346663 -0.10927693 -0.046675481 4288254091
0.16443698 -0.11047807 -0.048743539 4287924097
0.16555177 -0.11182088 -0.048814788 4286477167
0.16666655 -0.11316367 -0.048886035 4283845447
0.16778134 -0.11450648 -0.048957285 4281345315
0.16889612 -0.11584928 -0.049028531 4280818716
0.18616627 -0.13576108 0.0051482278 4288517522
0.18721426 -0.13702343 0.0050812489 4291413184
0.18826225 -0.13828577 0.0050142696 4293585381
0.18931024 -0.13954811 0.0049472908 4294243570
0.19035824 -0.14081046 0.0048803114 4293586155
0.19140622 -0.1420728 0.0048133326 4292797153
0.19232646 -0.14322911 0.0017832355 4293060327
0.19337803 -0.14449579 0.0017160268 4293191143
0.19442962 -0.14576246 0.0016488183 4293322218
0.1954812 -0.14702912 0.0015816097 4293321706
0.19653277 -0.14829579 0.0015144012 4293255399
0.19758436 -0.14956245 0.0014471925 4293057507
0.19874217 -0.1509092 0.0043444787 4293056226
0.19979015 -0.15217155 0.0042774994 4292924640
0.20083815 -0.15343389 0.0042105205 4292793565
0.20188613 -0.15469624 0.0041435412 4292728542
0.20293413 -0.15595858 0.0040765619 4292794335
0.20398211 -0.15722091 0.004009583 4292663262
0.20508905 -0.15852094 0.0060067065 4292597469
0.20613454 -0.15978028 0.0059398869 4292466397
0.2071261 -0.16100796 0.0038086455 4292466652
0.20817408 -0.16227029 0.0037416664 4292532702
0.20922208 -0.16353264 0.0036746874 4291545807
0.21031651 -0.1648176 0.0056726094 4291808979
0.211362 -0.16607694 0.0056057898 4292137687
0.2124075 -0.16733627 0.0055389702 4292466652
0.21349038 -0.16860865 0.0074544563 4292794847
0.21453348 -0.1698651 0.0073877899 4292991713
0.21557656 -0.17112154 0.007321124 4292991713
0.21661966 -0.17237799 0.0072544576 4292991714
0.21766275 -0.17363444 0.0071877916 4293452778
0.21870585 -0.17489088 0.0071211252 4293847535
0.21974894 -0.17614733 0.0070544593 4294045166
0.22079204 -0.17740378 0.0069877929 4294110698
0.22183514 -0.17866021 0.006921127 4294505453
0.22287823 -0.17991666 0.0068544606 4294768111
0.22393514 -0.18115677 0.0088354694 4293714657
0.22497576 -0.18241023 0.0087689618 4292332752
0.22601639 -0.1836637 0.0087024532 4290358711
0.15529072 -0.10218512 -0.048397277 4283190107
0.15640551 -0.10352792 -0.048468523 4286216583
0.15752029 -0.10487072 -0.048539773 4287532183
0.15863508 -0.10621352 -0.048611023 4288058779
0.15974987 -0.10755632 -0.048682269 4287795860
0.16101444 -0.1090413 -0.046756528 4287794829
0.16212679 -0.11038118 -0.046827622 4287990919
0.16323917 -0.11172106 -0.046898715 4287660923
0.16435152 -0.11306094 -0.046969809 4286542444
0.16532379 -0.11427033 -0.049038511 4284107849
0.16643859 -0.11561313 -0.049109757 4281476901
0.16755338 -0.11695594 -0.049181007 4280950302
0.18385597 -0.1355391 0.0050718687 4288977822
0.18490396 -0.13680144 0.0050048893 4288583834
0.18595196 -0.13806379 0.00493791 4290426551
0.18699995 -0.13932613 0.0048709312 4292729822
0.18804793 -0.14058848 0.0048039518 4293783023
0.18909593 -0.14185081 0.004736973 4293651696
0.19014393 -0.14311315 0.0046699937 4293191915
0.19105983 -0.14427303 0.0016394058 4293256938
0.1921114 -0.1455397 0.0015721972 4293191146
0.19328789 -0.14690019 0.0044690566 4293124840
0.19433589 -0.14816253 0.0044020773 4292992743
0.19526614 -0.14933971 0.0013705716 4292860387
0.19643188 -0.15068722 0.0042681191 4292662495
0.19747986 -0.15194955 0.0042011398 4292529882
0.19852786 -0.15321191 0.0041341609 4292332503
0.19957584 -0.15447424 0.0040671816 4292267221
0.20062384 -0.1557366 0.0040002028 4292202198
0.20167182 -0.15699893 0.0039332234 4292202198
0.20278427 -0.15829948 0.0059305294 4292136918
0.20382975 -0.1595588 0.0058637098 4292202711
0.20487525 -0.16081814 0.0057968907 4292269018
0.20592074 -0.16207747 0.0057300711 4292597983
0.20696624 -0.16333681 0.0056632515 4292795362
0.20801173 -0.16459614 0.0055964324 4292072152
0.20905723 -0.16585548 0.0055296128 4292335324
0.21014778 -0.16713126 0.0074451193 4292861155
0.21119086 -0.16838771 0.0073784529 4293387499
0.21223396 -0.16964415 0.007311787 4293847536
0.21327706 -0.1709006 0.0072451206 4293979122
0.21432015 -0.17215703 0.0071784547 4293913329
0.2153974 -0.17341554 0.009158696 4293781743
0.21643801 -0.17466901 0.0090921884 4293651184
0.21747863 -0.17592247 0.0090256799 4294045941
0.21851926 -0.17717594 0.0089591723 4294243059
0.21953563 -0.17843927 0.0068451236 4294439920
0.22060049 -0.17968287 0.0088261561 4294966006
0.22162181 -0.18095216 0.0067117913 4294966264
0.22268173 -0.18218979 0.00869314 4294043624
0.22372235 -0.18344325 0.0086266324 4292332754
0.22476296 -0.18469672 0.0085601248 4290358200
0.15283318 -0.10194898 -0.048478503 4280032296
0.15394796 -0.10329178 -0.048549749 4282729554
0.15506275 -0.10463458 -0.048620999 4285690239
0.1563375 -0.10612591 -0.046695393 4287203218
0.15744987 -0.10746579 -0.046766486 4288058779
0.15856223 -0.10880567 -0.046837579 4287861653
0.1596746 -0.11014555 -0.046908673 4287860620
0.16078696 -0.11148543 -0.046979766 4287990917
0.16189933 -0.11282532 -0.04705086 4287660923
0.16301169 -0.11416519 -0.047121953 4286476651
0.16412406 -0.11550508 -0.047193047 4283779652
0.16509584 -0.11671979 -0.049262233 4281016350
0.18259367 -0.13657944 0.0049285307 4289241766
0.18364166 -0.13784179 0.0048615513 4287728786
0.18468966 -0.13910413 0.0047945725 4289111209
0.18584259 -0.14044735 0.0067898245 4291677393
0.18688807 -0.14170668 0.0067230049 4292927974
0.18793356 -0.14296602 0.0066561853 4292927974
0.18897906 -0.14422534 0.0065893661 4292533730
0.18992962 -0.14541584 0.0044596768 4292467423
0.1909776 -0.14667819 0.0043926975 4292204251
0.1920256 -0.14794053 0.0043257186 4292005846
0.19307359 -0.14920288 0.0042587393 4291874260
0.19412158 -0.15046522 0.0041917604 4292136405
0.19516957 -0.15172757 0.0041247811 4292267991
0.19621757 -0.15298991 0.0040578023 4292595673
0.19726555 -0.15425225 0.0039908229 4292661466
0.19838849 -0.15555935 0.0059879911 4292661979
0.19943398 -0.15681869 0.0059211715 4292661978
0.20047948 -0.15807801 0.0058543524 4292596956
0.20152497 -0.15933734 0.0057875328 4292662748
0.20263281 -0.16062808 0.0077024479 4292729055
0.2036759 -0.16188453 0.007635782 4292992226
0.20466144 -0.16311535 0.0055870744 4293190120
0.20570694 -0.16437468 0.0055202553 4293453292
0.20675243 -0.16563402 0.0054534357 4293321706
0.20784828 -0.16691031 0.0073691173 4293256426
0.20889138 -0.16816674 0.0073024509 4293321706
0.20993447 -0.16942319 0.007235785 4293519085
0.21097757 -0.17067964 0.0071691186 4293847536
0.21206273 -0.17194165 0.009149381 4293979122
0.21310335 -0.17319512 0.0090828734 4294044915
0.21414396 -0.17444858 0.0090163657 4293913843
0.21518458 -0.17570205 0.0089498572 4293651696
0.21622521 -0.17695551 0.0088833496 4293783280
0.21726583 -0.17820898 0.008816842 4293783021
0.21830645 -0.17946243 0.0087503335 4293782760
0.21937081 -0.18070123 0.010649608 4294308334
0.22040907 -0.18195182 0.010583251 4294637042
0.2214473 -0.18320242 0.010516895 4293977831
0.22248554 -0.18445303 0.010450539 4292727512
0.2235238 -0.18570362 0.010384182 4290490040
0.15149042 -0.10305564 -0.048630975 4280031783
0.15260521 -0.10439844 -0.048702225 4282334539
0.1538853 -0.10589027 -0.04677644 4285229430
0.15499768 -0.10723016 -0.046847533 4286874507
0.15611003 -0.10857004 -0.046918627 4287927192
0.15722239 -0.10990992 -0.04698972 4287861651
0.15833476 -0.1112498 -0.047060814 4287926413
0.15959965 -0.11272354 -0.045142822 4288056710
0.16055949 -0.11392957 -0.047203001 4287660923
0.16167185 -0.11526944 -0.047274094 4286213993
0.16278422 -0.11660933 -0.047345188 4283516480
0.16389658 -0.11794921 -0.047416281 4280621592
0.1757828 -0.1310609 0.00014746703 4285163629
0.17683682 -0.13233051 8.0102589e-05 4285756024
0.17801076 -0.13369419 0.0020238336 4288979881
0.17906234 -0.13496085 0.0019566251 4292466910
0.18028338 -0.13635746 0.004852172 4292071125
0.18133137 -0.13761979 0.0047851927 4289307818
0.1824923 -0.13896655 0.0067804665 4287728787
0.1835378 -0.14022589 0.0067136474 4289110954
0.18458329 -0.14148521 0.0066468278 4291611601
0.18562879 -0.14274456 0.0065800082 4292664548
0.18667428 -0.14400388 0.0065131891 4292467169
0.18771976 -0.14526321 0.0064463695 4292203997
0.18866731 -0.1464562 0.0043163388 4291809493
0.1897153 -0.14771855 0.0042493599 4291612114
0.19076329 -0.14898089 0.0041823806 4291611088
0.19181129 -0.15024322 0.0041154013 4291742929
0.19285928 -0.15150557 0.0040484224 4292267990
0.19390728 -0.15276791 0.0039814431 4292662748
0.19503821 -0.15407856 0.0059786336 4293188063
0.19608371 -0.15533789 0.005911814 4293319649
0.19720402 -0.15663779 0.0078264447 4293385955
0.19824712 -0.15789424 0.0077597783 4293517541
0.19929022 -0.15915067 0.0076931124 4293583850
0.20033331 -0.16040713 0.007626446 4293715690
0.20144375 -0.16169351 0.0096056238 4293715949
0.20248435 -0.16294698 0.0095391162 4293781740
0.20352498 -0.16420044 0.0094726076 4293979121
0.2045057 -0.1654329 0.0073597813 4293979891
0.20554879 -0.16668935 0.0072931154 4293650926
0.20659187 -0.16794579 0.0072264494 4293453547
0.20768745 -0.16921429 0.0092065763 4293256168
0.20867807 -0.17045869 0.0070931171 4293256168
0.2097687 -0.17172122 0.0090735601 4293387754
0.21080932 -0.17297469 0.0090070525 4293585133
0.21184993 -0.17422815 0.008940544 4293650926
0.21289055 -0.17548162 0.0088740364 4293585390
0.21396728 -0.17672949 0.010773027 4293520878
0.2149718 -0.17798854 0.0087410202 4293520876
0.21604377 -0.17923069 0.010640315 4293520360
0.21708201 -0.18048128 0.010573959 4293520101
0.21812026 -0.18173189 0.010507602 4293979369
0.2191585 -0.18298249 0.010441246 4294242284
0.22019674 -0.1842331 0.010374891 4293977831
0.22123499 -0.18548369 0.010308535 4293319649
0.22227323 -0.1867343 0.010242178 4290884797
0.15014766 -0.10416231 -0.048783451 4279965988
0.15126245 -0.1055051 -0.048854697 4282071366
0.15254547 -0.10699454 -0.046928585 4284834672
0.15365782 -0.10833442 -0.046999678 4286611335
0.15493287 -0.10981447 -0.045081817 4287795606
0.15588255 -0.11101418 -0.047141865 4287795858
0.15715277 -0.11248843 -0.045223694 4287729804
0.15826271 -0.1138254 -0.045294635 4287793540
0.15937266 -0.11516237 -0.045365572 4287332474
0.16048262 -0.11649934 -0.045436513 4286148200
0.16159257 -0.11783632 -0.04550745 4283516995
0.16270252 -0.1191733 -0.04557839 4280885021
0.17227197 -0.12946413 -0.0018820975 4285689973
0.17345922 -0.13083762 7.0668786e-05 4285492339
0.17464097 -0.13220477 0.0020144212 4284440164
0.17569254 -0.13347143 0.0019472125 4284966510
0.17674413 -0.1347381 0.001880004 4288716968
0.17797309 -0.13613546 0.0047758128 4292993256
0.17902108 -0.1373978 0.004708834 4291611088
0.18006907 -0.13866015 0.0046418547 4288978854
0.18123302 -0.14000443 0.0066374699 4287334543
0.1822785 -0.14126375 0.0065706507 4288979368
0.18332399 -0.14252308 0.0065038311 4291414224
0.18436949 -0.14378242 0.006437012 4292401376
0.18541498 -0.14504175 0.0063701924 4292335583
0.18646048 -0.14630109 0.0063033728 4292203997
0.18740502 -0.14749655 0.0041730008 4292533216
0.188453 -0.14875889 0.004106022 4292532703
0.189501 -0.15002124 0.0040390426 4292598238
0.19054899 -0.15128358 0.0039720638 4292795615
0.19168794 -0.15259776 0.0059692757 4293189603
0.19273344 -0.15385708 0.0059024566 4293452516
0.19377892 -0.15511642 0.005835637 4293517537
0.19490454 -0.15641683 0.0077504423 4293451744
0.19594762 -0.15767328 0.0076837759 4293714918
0.19699071 -0.15892972 0.0076171099 4293781481
0.19810908 -0.16021962 0.0095963096 4294044653
0.1991497 -0.1614731 0.0095298011 4294176239
0.20019031 -0.16272655 0.0094632935 4294110959
0.20123093 -0.16398002 0.0093967849 4294045166
0.20227155 -0.16523348 0.0093302773 4293979373
0.20331217 -0.16648695 0.0092637697 4293913326
0.2043528 -0.1677404 0.0091972612 4293387752
0.2053934 -0.16899388 0.0091307536 4293256166
0.20643403 -0.17024733 0.009064245 4293190373
0.20747465 -0.1715008 0.0089977374 4293321959
0.20851527 -0.17275426 0.0089312298 4293585133
0.20955588 -0.17400773 0.0088647213 4293716719
0.2105965 -0.17526118 0.0087982137 4293716719
0.21167849 -0.17650956 0.010697379 4293585644
0.21271673 -0.17776015 0.010631023 4293323751
0.21375497 -0.17901076 0.010564666 4293258469
0.21479322 -0.18026136 0.01049831 4293520358
0.21583146 -0.18151197 0.010431955 4293717480
0.2168697 -0.18276256 0.010365598 4294045162
0.21790795 -0.18401317 0.010299242 4294175467
0.21894619 -0.18526377 0.010232886 4293845991
0.21998443 -0.18651436 0.01016653 4293451233
0.22104329 -0.18773313 0.012130562 4291082174
0.14991969 -0.10661177 -0.049007174 4280952372
0.15103447 -0.10795456 -0.04907842 4284044897
0.152318 -0.10943867 -0.047151819 4286677126
0.15359594 -0.11091633 -0.04523363 4287730067
0.15470588 -0.11225331 -0.045304567 4287730576
0.15581584 -0.11359028 -0.045375507 4287532425
0.15716201 -0.1151198 -0.042477895 4287465088
0.15803574 -0.11626423 -0.045517385 4287201403
0.15914568 -0.1176012 -0.045588326 4285556578
0.16025564 -0.11893818 -0.045659263 4283845706
0.16136558 -0.12027515 -0.045730203 4283319362
0.16768587 -0.12658443 -0.0038534128 4285557354
0.1687448 -0.12785994 -0.0039210911 4285491822
0.16994299 -0.12924035 -0.0019590741 4285623408
0.17099945 -0.13051291 -0.0020265949 4285361008
0.17218965 -0.13188396 -7.3493829e-05 4285098094
0.17337434 -0.13324869 0.0018705921 4284703338
0.17442593 -0.13451535 0.0018033835 4284966256
0.1756628 -0.13591346 0.0046994542 4287730075
0.17671078 -0.13717581 0.0046324749 4291611349
0.17775878 -0.13843815 0.004565496 4292926948
0.17892823 -0.13978295 0.0065612937 4289242795
0.17997372 -0.14104229 0.0064944741 4286281855
0.18113099 -0.14237499 0.0084077669 4289110954
0.18217409 -0.14363143 0.008341101 4292137947
0.18321718 -0.14488788 0.0082744351 4293651186
0.1841557 -0.14607961 0.0062271967 4292598755
0.18520118 -0.14733896 0.0061603771 4293125099
0.18614271 -0.14853691 0.0040296628 4292993254
0.1871907 -0.14979924 0.003962684 4292993253
0.1882387 -0.15106158 0.0038957049 4292992994
0.18938316 -0.15237629 0.0058930996 4292927199
0.19042864 -0.15363562 0.00582628 4293189855
0.19147414 -0.15489496 0.0057594609 4293321439
0.19260503 -0.15619588 0.0076744398 4293650146
0.19364813 -0.15745233 0.0076077734 4293781732
0.19469121 -0.15870877 0.0075411075 4293518561
0.19581504 -0.15999919 0.0095204879 4293584611
0.19685566 -0.16125266 0.0094539803 4293650406
0.19789627 -0.16250612 0.0093874717 4293650406
0.19893689 -0.16375959 0.0093209641 4293650406
0.19997752 -0.16501305 0.0092544565 4293584613
0.20101814 -0.16626652 0.009187948 4293650406
0.20205875 -0.16751997 0.0091214404 4293650408
0.20309937 -0.16877344 0.0090549327 4293584615
0.20413999 -0.1700269 0.0089884242 4292926685
0.20518062 -0.17128037 0.0089219166 4293453029
0.20622124 -0.17253383 0.0088554081 4293387236
0.20731319 -0.17378843 0.010754442 4293256166
0.20835143 -0.17503904 0.010688085 4293387752
0.20938967 -0.17628963 0.010621729 4293124580
0.21042792 -0.17754023 0.010555374 4293980400
0.21150935 -0.1787802 0.012518488 4293323749
0.2125044 -0.18004143 0.010422661 4292995297
0.21358094 -0.18127549 0.012386089 4292994014
0.21458089 -0.18254264 0.010289948 4293256929
0.21565251 -0.18377079 0.012253691 4294834680
0.21668831 -0.18501844 0.012187491 4294175469
0.21769562 -0.18629445 0.010090881 4294635507
0.21875989 -0.18751372 0.012055092 4293319390
0.21979567 -0.18876137 0.011988893 4292003530
0.14857693 -0.10771842 -0.049159646 4281150005
0.14986579 -0.10920304 -0.04723287 4283781725
0.15140402 -0.11088753 -0.042346381 4286413954
0.15225899 -0.11201819 -0.045385443 4287598481
0.15336895 -0.11335517 -0.04545638 4287664783
0.15472308 -0.11488545 -0.042558506 4287796110
0.15582943 -0.11621808 -0.042629216 4287728776
0.15669879 -0.11736609 -0.045669198 4287201662
0.15780875 -0.11870307 -0.045740139 4285754216
0.15891869 -0.12004004 -0.045811076 4284504150
0.16308412 -0.12369564 -0.0057582329 4284372564
0.16414544 -0.12497403 -0.005826063 4284636506
0.16535147 -0.12636012 -0.0039305692 4285228389
0.16641039 -0.12763564 -0.0039982474 4285821039
0.16746932 -0.12891115 -0.0040659253 4285820787
0.16867048 -0.13028912 -0.0021035715 4285426799
0.16986607 -0.1316607 -0.00015029222 4285294960
0.17092009 -0.13293029 -0.00021765644 4285229680
0.17210771 -0.13429259 0.0017267631 4284768877
0.17335249 -0.13569148 0.0046230941 4284768877
0.17440049 -0.13695383 0.0045561148 4287795870
0.17557795 -0.13830216 0.0065519353 4292203486
0.17662345 -0.13956149 0.0064851162 4291742674
0.17766893 -0.14082083 0.0064182966 4289703346
0.17883149 -0.14215404 0.0083317654 4287400336
0.17987458 -0.14341047 0.0082650995 4290361023
0.18091768 -0.14466693 0.0081984336 4291940568
0.18196078 -0.14592336 0.0081317667 4293782772
0.18300387 -0.14717981 0.0080651008 4292861416
0.18404697 -0.14843625 0.0079984348 4293783029
0.18509007 -0.1496927 0.0079317689 4292993256
0.18603288 -0.15089549 0.0058837412 4293124840
0.18707837 -0.15215483 0.0058169216 4293256679
0.18812387 -0.15341416 0.0057501025 4293453543
0.18926243 -0.15471847 0.0076651038 4293388004
0.19030553 -0.15597492 0.0075984378 4293322209
0.19134863 -0.15723138 0.0075317714 4293190622
0.19248037 -0.1585253 0.0095111737 4293190622
0.19352099 -0.15977877 0.0094446652 4293388001
0.19456162 -0.16103223 0.0093781576 4293453795
0.19560222 -0.1622857 0.0093116499 4293519588
0.19664285 -0.16353916 0.0092451414 4293584611
0.19768347 -0.16479263 0.0091786338 4293518818
0.19872409 -0.16604608 0.0091121253 4293453027
0.19976471 -0.16729955 0.0090456177 4293518820
0.20080532 -0.16855301 0.00897911 4293584613
0.20184594 -0.16980648 0.0089126015 4293650406
0.2029479 -0.1710673 0.010811505 4293716201
0.20398614 -0.17231789 0.010745149 4293255650
0.20502439 -0.1735685 0.010678793 4293913326
0.20606263 -0.1748191 0.010612437 4292926431
0.20710087 -0.17606971 0.010546081 4293453545
0.20813912 -0.1773203 0.010479725 4292795615
0.20922595 -0.17856078 0.012443018 4293388265
0.21026175 -0.17980842 0.012376819 4293060579
0.21129754 -0.18105608 0.012310619 4292994784
0.21237437 -0.18228483 0.014265003 4293651946
0.21336912 -0.18355137 0.012178221 4293848814
0.21440491 -0.18479902 0.012112021 4294110705
0.21544071 -0.18604666 0.012045822 4294767608
0.2164765 -0.18729432 0.011979623 4294240751
0.21754113 -0.18850836 0.013934786 4294569457
0.21854807 -0.18978961 0.011847224 4291806151
0.21958387 -0.19103725 0.011781025 4289898152
0.14852595 -0.1103073 -0.047385011 4282992207
0.15007143 -0.11198583 -0.042497702 4285953403
0.15117778 -0.11331847 -0.042568412 4287335309
0.15228413 -0.1146511 -0.042639118 4287204232
0.15339048 -0.11598374 -0.042709827 4287598731
0.15449682 -0.11731637 -0.042780537 4287400069
0.15560317 -0.11864901 -0.042851247 4286412917
0.15968317 -0.12219245 -0.0057677319 4285228643
0.16074447 -0.12347084 -0.0058355625 4284767838
0.16180578 -0.12474922 -0.0059033926 4284965217
0.1628671 -0.1260276 -0.0059712227 4285228902
0.16407599 -0.12741132 -0.0040754029 4285426281
0.16513492 -0.12868685 -0.0041430811 4285427051
0.1663415 -0.13006532 -0.0021805484 4285229420
0.16739796 -0.13133788 -0.0022480693 4284834662
0.16859651 -0.13270703 -0.00029445483 4284768616
0.16978951 -0.13406985 0.0016501421 4285031788
0.1710422 -0.13546948 0.0045467354 4284571498
0.1720902 -0.13673183 0.0044797561 4284308326
0.17327318 -0.1380807 0.0064757592 4287334806
0.17431866 -0.13934003 0.0064089396 4291808728
0.17536415 -0.14059937 0.00634212 4292795364
0.176532 -0.14193307 0.0082557639 4290097335
0.1775751 -0.14318952 0.008189097 4287137166
0.17861819 -0.14444596 0.0081224311 4288518819
0.17978014 -0.14577024 0.010100432 4291347920
0.18070437 -0.14695886 0.0079890992 4293256174
0.18174747 -0.14821529 0.0079224324 4292993004
0.18290201 -0.14953062 0.009900908 4293058795
0.18383366 -0.15072818 0.0077891005 4292466658
0.18487675 -0.15198463 0.0077224341 4292664291
0.18591985 -0.15324108 0.0076557682 4292861667
0.18696295 -0.15449752 0.0075891018 4292993507
0.18810509 -0.15579794 0.0095683681 4292993503
0.18914571 -0.1570514 0.0095018605 4292993757
0.19018634 -0.15830487 0.0094353519 4293059549
0.19122696 -0.15955833 0.0093688443 4293059549
0.19226758 -0.1608118 0.0093023367 4293322722
0.1933914 -0.16209316 0.011200349 4293388261
0.19442964 -0.16334377 0.011133993 4293388261
0.19546787 -0.16459437 0.011067636 4293388004
0.19650613 -0.16584496 0.011001281 4293387234
0.19754437 -0.16709557 0.010934925 4293387236
0.19851129 -0.16833258 0.0089032883 4293518309
0.19962084 -0.16959678 0.010802212 4293584102
0.2006591 -0.17084737 0.010735856 4293255137
0.20169733 -0.17209798 0.0106695 4293781483
0.20273557 -0.17334858 0.010603144 4292991967
0.20377383 -0.17459919 0.010536788 4293518570
0.20487097 -0.17584608 0.012499946 4293058019
0.20590676 -0.17709373 0.012433747 4293650156
0.20694256 -0.17834137 0.012367547 4293715949
0.20797834 -0.17958903 0.012301348 4293519340
0.20906301 -0.18082123 0.014255754 4293520362
0.21009636 -0.18206593 0.01418971 4293191911
0.21112971 -0.18331064 0.014123667 4293914866
0.2121215 -0.18457961 0.012036551 4294243063
0.21319641 -0.18580006 0.01399158 4293649390
0.21422976 -0.18704477 0.013925537 4294965503
0.21526311 -0.18828948 0.013859494 4293779947
0.21629646 -0.18953419 0.01379345 4294766584
0.21732982 -0.1907789 0.013727407 4292595667
0.21836317 -0.19202361 0.013661363 4290621875
0.14892092 -0.11322166 -0.040598489 4285427059
0.14984518 -0.11441674 -0.042719729 4287401102
0.15095153 -0.11574938 -0.042790439 4287006853
0.1522325 -0.11721058 -0.040810142 4287203973
0.15333636 -0.11854023 -0.040880691 4286084981
0.15427059 -0.11974729 -0.043002564 4284900453
0.15823793 -0.12312663 -0.0079611465 4284308316
0.15930173 -0.124408 -0.0080291349 4284571488
0.16052745 -0.12580279 -0.0060485513 4284900707
0.16158876 -0.12708117 -0.0061163818 4285098086
0.16280052 -0.12846254 -0.0042202366 4285163879
0.16385944 -0.12973805 -0.0042879148 4284900453
0.16506898 -0.1311141 -0.0023250459 4285229418
0.16627292 -0.13248377 -0.00037125309 4285229420
0.16732694 -0.13375336 -0.00043861746 4285229422
0.16852288 -0.13511376 0.0015063132 4285426546
0.16977991 -0.13650984 0.0044033974 4285163376
0.17096838 -0.13785924 0.0063995812 4285032049
0.17201386 -0.13911857 0.0063327621 4287202707
0.1731894 -0.14045568 0.0082464265 4290492611
0.1742325 -0.14171213 0.0081797605 4290623425
0.17527559 -0.14296857 0.0081130946 4288452256
0.17644548 -0.14429635 0.010091118 4287662742
0.17748609 -0.1455498 0.010024609 4288123809
0.17852671 -0.14680327 0.0099581014 4292729320
0.17956734 -0.14805673 0.0098915929 4293847801
0.18060796 -0.1493102 0.0098250853 4294176767
0.1817584 -0.15061782 0.011721905 4292927212
0.18268919 -0.15181713 0.0096920691 4293256177
0.18372981 -0.15307058 0.0096255615 4293190896
0.18477044 -0.15432405 0.0095590539 4292993515
0.18581106 -0.15557751 0.0094925454 4292796388
0.18685167 -0.15683098 0.0094260378 4292730592
0.18789229 -0.15808444 0.0093595292 4292731360
0.18893291 -0.15933791 0.0092930216 4293060579
0.18997353 -0.16059136 0.009226514 4293389544
0.19110259 -0.16187324 0.0111247 4293126118
0.19214083 -0.16312383 0.011058345 4293322983
0.19317907 -0.16437444 0.010991988 4293322983
0.19421732 -0.16562504 0.010925632 4293322472
0.19525556 -0.16687565 0.010859276 4293321959
0.1962938 -0.16812624 0.010792919 4293518570
0.19733205 -0.16937685 0.010726564 4293649643
0.19837029 -0.17062744 0.010660208 4293781229
0.19940853 -0.17187804 0.010593851 4293583851
