# .PCD v0.7 - Point Cloud Data file format
VERSION 0.7
FIELDS x y z rgb
SIZE 4 4 4 4
TYPE F F F U
COUNT 1 1 1 1
WIDTH 973
HEIGHT 1
VIEWPOINT 0 0 0 1 0 0 0
POINTS 973
DATA ascii
-0.0026652601 0.049963728 -0.0014281905 4290685352
-0.004344651 0.04992355 -0.0015440349 4291146160
-0.0061536082 0.053268693 -0.0038943433 4288646026
-0.0077645467 0.051539771 -0.0028952218 4286738031
-0.0095539568 0.054870088 -0.0052341674 4287922052
-0.01130103 0.057338167 -0.0070031737 4288053642
-0.012963394 0.057298396 -0.0071178437 4287856009
-0.014672426 0.058985189 -0.0083705019 4287723911
-0.016330911 0.058945507 -0.0084849037 4287855496
-0.017989397 0.058905829 -0.0085993065 4288184715
-0.019647883 0.058866151 -0.0087137083 4288447883
-0.021336228 0.060481854 -0.0099178907 4288579722
-0.022990994 0.060442261 -0.010032036 4288579976
-0.024668938 0.062114064 -0.01127222 4287396474
-0.02631986 0.062074564 -0.0113861 4286870644
-0.027970783 0.062035065 -0.011499981 4286739059
-0.029621707 0.06199557 -0.011613862 4286936438
-0.031272627 0.06195607 -0.011727743 4287068026
-0.032923553 0.061916571 -0.011841623 4286805111
-0.034574471 0.061877072 -0.011955503 4286673014
-0.036225397 0.061837576 -0.012069385 4286673527
-0.0378839 0.060085949 -0.011059349 4287068285
-0.039538667 0.06004636 -0.011173495 4287003262
-0.041193433 0.060006771 -0.011287641 4287331457
-0.042829089 0.061679583 -0.012524907 4287398018
-0.044480011 0.061640084 -0.012638788 4287595397
-0.046104256 0.063305259 -0.013870062 4287661188
-0.047751352 0.063265853 -0.013983679 4287726981
-0.04936428 0.064923435 -0.015208996 4287726983
-0.051007569 0.064884119 -0.01532235 4288120975
-0.052650854 0.064844809 -0.015435703 4288318100
-0.054294143 0.064805493 -0.015549057 4288449429
-0.055864654 0.067266338 -0.017298378 4288252561
-0.057502333 0.067227155 -0.017411346 4288252559
-0.059140008 0.06718798 -0.017524313 4288384143
-0.060715325 0.068889067 -0.018775029 4288318350
-0.062349096 0.068849981 -0.018887727 4288121225
-0.063982867 0.068810888 -0.019000424 4288515729
-0.065616637 0.068771802 -0.019113122 4288515729
-0.067250416 0.068732716 -0.019225819 4288450708
-0.068884186 0.068693623 -0.019338517 4288582294
-0.070435621 0.070325352 -0.020541646 4288713628
-0.072151728 0.068615451 -0.019563911 4288845214
-0.073785506 0.068576366 -0.019676609 4288779422
-0.075419277 0.068537273 -0.019789306 4288713628
-0.076955721 0.070169359 -0.020991402 4288648598
-0.078585744 0.070130356 -0.021103842 4288648595
-0.080320597 0.068420008 -0.020127399 4288714388
-0.081954367 0.068380922 -0.020240098 4288780181
-0.083588138 0.068341836 -0.020352796 4288780182
-0.085221909 0.068302751 -0.020465493 4288780182
-0.08685568 0.068263657 -0.020578191 4288779669
-0.088489458 0.068224572 -0.020690888 4288779669
-0.089995921 0.069857374 -0.021890916 4288450704
-0.091756999 0.068146393 -0.020916283 4288450704
-0.093390778 0.068107307 -0.021028981 4288384911
-0.095024541 0.068068221 -0.021141678 4288319118
-0.096658319 0.068029135 -0.021254376 4288384396
-0.09829209 0.067990042 -0.021367073 4288318603
0.013308906 0.037362006 0.0061743571 4282990150
0.011500414 0.039006215 0.0049457583 4282530373
0.0097982297 0.03896549 0.0048283418 4280885810
0.0080015119 0.040602494 0.0036054337 4281544258
0.0061658979 0.043097995 0.0018176701 4287268764
0.0043837023 0.044783082 0.00056455715 4292399333
0.0026129158 0.046394557 -0.00063944358 4292134097
0.00092777354 0.046354238 -0.00075568468 4292067272
-0.00087296596 0.048876673 -0.0025581324 4291672766
-0.0025523568 0.048836496 -0.0026739766 4292330694
-0.0043007461 0.050495278 -0.0039070123 4292331717
-0.0060412162 0.052146569 -0.0051344852 4289699997
-0.007712998 0.05210657 -0.0052498044 4287199863
-0.00944182 0.053750504 -0.0064714979 4287133816
-0.011109823 0.053710595 -0.0065865568 4287725956
-0.012777827 0.053670689 -0.0067016156 4287396737
-0.014514001 0.056142811 -0.0084656766 4287265151
-0.016176369 0.05610304 -0.0085803466 4287660163
-0.017877901 0.05779263 -0.0098295808 4288186504
-0.019536387 0.057752952 -0.0099439835 4288449928
-0.021194873 0.05771327 -0.010058386 4288055423
-0.022879746 0.059331547 -0.011259566 4287594872
-0.024534514 0.059291955 -0.011373713 4286936689
-0.026189281 0.059252366 -0.011487858 4286739571
-0.027844047 0.059212778 -0.011602004 4286739572
-0.029498814 0.059173185 -0.01171615 4286805365
-0.031153582 0.059133597 -0.011830295 4286805111
-0.032812562 0.06080845 -0.013066286 4286476916
-0.034463484 0.060768951 -0.013180167 4286541941
-0.036117885 0.059014823 -0.012172733 4286476664
-0.03777973 0.057316482 -0.011202409 4286410871
-0.041082185 0.058896054 -0.01251517 4287134594
-0.042736951 0.058856465 -0.012629316 4287398277
-0.044391718 0.058816873 -0.012743463 4287529863
-0.046019945 0.060492463 -0.013977332 4287595910
-0.047670867 0.060452964 -0.014091212 4287595910
-0.049287718 0.062120885 -0.015319126 4287595910
-0.050934814 0.062081479 -0.015432742 4287595399
-0.05258191 0.062042072 -0.015546359 4287924364
-0.054183666 0.063702494 -0.016768055 4288252559
-0.055826955 0.063663185 -0.016881408 4288055948
-0.057392232 0.066127926 -0.018626185 4288121741
-0.059029911 0.066088744 -0.018739153 4288253325
-0.060605489 0.067792453 -0.01998697 4288187787
-0.062239259 0.067753367 -0.020099668 4287924615
-0.06387303 0.067714281 -0.020212365 4288187787
-0.065506808 0.067675188 -0.020325063 4288187787
-0.067140579 0.067636102 -0.02043776 4288253325
-0.06877435 0.067597017 -0.020550458 4288384911
-0.070408121 0.067557931 -0.020663155 4288582294
-0.072041892 0.067518838 -0.020775853 4288713880
-0.07367567 0.067479752 -0.02088855 4288713626
-0.07530944 0.067440666 -0.021001248 4288713880
-0.076943211 0.067401573 -0.021113945 4288582803
-0.078576982 0.067362487 -0.021226643 4288582802
-0.08021076 0.067323402 -0.02133934 4288582802
-0.081844531 0.067284316 -0.021452039 4288582802
-0.08359506 0.065501027 -0.020433657 4288517009
-0.085232742 0.065461844 -0.020546624 4288451216
-0.086870417 0.065422662 -0.020659592 4288450704
-0.088379622 0.067127958 -0.021902829 4288450704
-0.090013392 0.067088872 -0.022015527 4288187532
-0.091647163 0.067049786 -0.022128224 4288121739
-0.093280941 0.067010701 -0.022240922 4288187017
-0.094914705 0.066971608 -0.022353619 4288121224
-0.096548483 0.066932522 -0.022466317 4288055431
-0.098334156 0.065148391 -0.021450359 4287923845
-0.099971831 0.065109208 -0.021563327 4287923845
0.01321095 0.039584395 0.0026970068 4282924614
0.011512529 0.039543759 0.0025798499 4282596166
0.0098141115 0.039503127 0.002462693 4281017396
0.0079724193 0.042002313 0.00067875889 4281741891
0.0061860923 0.043689899 -0.00057175476 4287728802
0.0044113481 0.045303777 -0.0017732552 4292991470
0.0025987152 0.047829799 -0.00357223 4292858083
0.00091932446 0.047789618 -0.0036880744 4293647082
-0.00076006266 0.047749441 -0.0038039186 4293844713
-0.0025125237 0.049410686 -0.005034395 4293713380
-0.0042570466 0.051064439 -0.0062593073 4292661458
-0.0059288247 0.051024441 -0.0063746264 4290227115
-0.0076006064 0.050984442 -0.006489946 4288121739
-0.0093296831 0.05263092 -0.007708828 4287792774
-0.010997687 0.052591015 -0.0078238873 4287924362
-0.012665689 0.052551106 -0.0079389457 4287529604
-0.014333689 0.0525112 -0.0080540041 4287398018
-0.01606461 0.054987237 -0.0098134987 4287792774
-0.017726973 0.054947466 -0.0099281687 4288319371
-0.019389341 0.054907691 -0.010042839 4288188549
-0.021051705 0.05486792 -0.010157509 4287267445
-0.02274186 0.056560382 -0.011403074 4286412136
-0.024423266 0.058181252 -0.012601231 4286543212
-0.026078032 0.05814166 -0.012715377 4286542960
-0.027732799 0.058102071 -0.012829523 4286542962
-0.029387567 0.058062479 -0.012943668 4286476914
-0.031042334 0.05802289 -0.013057814 4286345330
-0.0326971 0.057983302 -0.01317196 4286214257
-0.034351867 0.057943709 -0.013286106 4286345591
-0.036006637 0.057904121 -0.013400252 4286542970
-0.047559876 0.059344836 -0.015315887 4287464583
-0.049210802 0.059305336 -0.015429768 4287332997
-0.050824083 0.060975932 -0.01665456 4287266691
-0.05247118 0.060936525 -0.016768178 4287530117
-0.054118276 0.060897119 -0.016881794 4287793289
-0.055716477 0.062560178 -0.018100416 4287793287
-0.057359762 0.062520862 -0.018213769 4287924873
-0.058919813 0.064989507 -0.019953994 4288188044
-0.060557488 0.064950332 -0.02006696 4288188298
-0.062195167 0.064911149 -0.020179927 4288056199
-0.063832842 0.064871967 -0.020292895 4288056199
-0.065470517 0.064832784 -0.020405861 4288056199
-0.067108199 0.064793602 -0.020518828 4288121992
-0.068745874 0.064754419 -0.020631796 4288253580
-0.070298284 0.066461317 -0.021875096 4288450704
-0.071932063 0.066422231 -0.021987794 4288516497
-0.073565833 0.066383146 -0.022100491 4288516499
-0.075199604 0.066344053 -0.022213189 4288450704
-0.076833375 0.066304967 -0.022325886 4288319631
-0.078467146 0.066265881 -0.022438584 4288319630
-0.080100924 0.066226788 -0.022551281 4288253837
0.014743882 0.042758349 -0.001242068 4283516492
0.013164388 0.040987626 -0.00022662415 4282990408
0.011471666 0.040947128 -0.00034338809 4282793547
0.0096773319 0.042637132 -0.0015915587 4281675581
0.0079884781 0.042596728 -0.0017080558 4282597200
0.0062097805 0.044213001 -0.0029070666 4288057765
0.0045246379 0.044172682 -0.0030233078 4292662507
0.0028394959 0.044132367 -0.0031395489 4292989933
0.0010322268 0.046662394 -0.0049338494 4292923627
-0.00072430196 0.048326101 -0.0061617666 4292003289
-0.0023998772 0.048286013 -0.0062773479 4290753219
-0.0041446537 0.0499423 -0.0074994601 4289700781
-0.0058164317 0.049902305 -0.0076147793 4288845727
-0.0074882135 0.049862307 -0.0077300989 4288450967
-0.0091599952 0.049822308 -0.0078454185 4288582553
-0.010885548 0.05147142 -0.0090612285 4288122515
-0.012553551 0.051431514 -0.0091762878 4287661964
-0.014221551 0.051391605 -0.0092913462 4287267976
-0.015889553 0.0513517 -0.0094064046 4287531144
-0.017557554 0.051311791 -0.009521463 4287926155
-0.01927758 0.053791881 -0.011276002 4287597953
-0.020939946 0.053752109 -0.011390672 4286479471
-0.024288846 0.055407505 -0.012747751 4285754466
-0.025947332 0.055367827 -0.012862153 4286082922
-0.02760582 0.055328146 -0.012976556 4286345840
-0.032585852 0.056872595 -0.014399479 4286280307
-0.055606 0.061457172 -0.019319424 4287662214
-0.057249289 0.061417859 -0.019432778 4287793800
-0.058892574 0.061378542 -0.019546133 4288056971
-0.060447391 0.063851096 -0.021281801 4288057225
-0.062085066 0.063811913 -0.021394767 4287990917
-0.063722745 0.063772731 -0.021507734 4287925124
-0.065360419 0.063733548 -0.021620702 4287859331
-0.066998094 0.063694373 -0.02173367 4287924611
-0.068635777 0.06365519 -0.021846635 4288056197
-0.070273452 0.063616008 -0.021959603 4288121992
-0.071911126 0.063576825 -0.02207257 4288187785
-0.073548809 0.063537642 -0.022185536 4288252808
-0.075186484 0.06349846 -0.022298504 4287990408
0.016433921 0.043323807 -0.0034596729 4284042836
0.014857422 0.04162477 -0.0024948658 4283779666
0.013168571 0.041584365 -0.0026113626 4283187787
0.011479713 0.041543957 -0.0027278601 4283187535
0.0097908704 0.041503552 -0.0028443565 4282398791
0.0081020165 0.041463148 -0.0029608535 4283188565
0.0063230703 0.043081906 -0.0041571194 4287136147
0.0046379282 0.043041587 -0.0042733606 4289899201
0.0028245209 0.045575339 -0.0060637915 4289897671
0.0011451301 0.045535158 -0.0061796359 4288910263
-0.00061165541 0.047201432 -0.0074047195 4287331996
-0.0022872305 0.047161341 -0.0075203008 4286345352
-0.0039628055 0.047121253 -0.0076358817 4286279809
-0.0057040397 0.048780177 -0.008854921 4286806150
-0.0073758215 0.048740178 -0.0089702401 4287069576
-0.0090476032 0.04870018 -0.0090855602 4286937988
-0.01077341 0.050351825 -0.01029857 4286477437
-0.012391163 0.048620187 -0.0093161985 4285951863
-0.014109413 0.050272014 -0.010528687 4285557618
-0.015777417 0.050232105 -0.010643747 4285623410
-0.020828187 0.052636307 -0.012623824 4285230180
-0.02417735 0.054294307 -0.013978026 4284636757
-0.025835836 0.054254629 -0.014092429 4285293917
-0.065250322 0.062634319 -0.022835542 4287596159
-0.066887997 0.062595136 -0.022948509 4287661439
-0.070163354 0.062516771 -0.023174442 4287727232
0.018232353 0.042233028 -0.0045934846 4283779664
0.016547211 0.042192712 -0.0047097257 4283911250
0.014862068 0.042152394 -0.0048259669 4283713873
0.013282111 0.040450774 -0.0038641714 4283187787
0.011593253 0.04041037 -0.0039806687 4283253328
0.0099044098 0.040369965 -0.0040971651 4282596170
0.0081215026 0.041991126 -0.0052909311 4282728014
0.0064363605 0.041950811 -0.0054071718 4284570218
0.004751218 0.041910492 -0.005523413 4285096312
0.0029374245 0.044448104 -0.0073095774 4285094529
0.0012580334 0.044407926 -0.0074254218 4284305015
-0.00049900787 0.046076749 -0.0086476831 4283844202
-0.002174583 0.046036661 -0.0087632649 4283844452
-0.0038501581 0.045996573 -0.0088788457 4284173668
-0.0055916482 0.047658049 -0.010095063 4284766057
-0.0072634299 0.04761805 -0.010210382 4284766056
-0.0089352112 0.047578055 -0.010325702 4283977053
-0.010606989 0.047538057 -0.010441021 4283253330
-0.024065852 0.053181108 -0.0152083 4283979088
0.018462194 0.039438404 -0.0047674901 4283779666
0.0166605 0.041061617 -0.0059597781 4283582287
0.0150845 0.039357591 -0.0050004832 4283516239
0.01339565 0.039317187 -0.0051169801 4282990410
0.011706793 0.039276782 -0.0052334778 4283056203
0.01001795 0.039236374 -0.0053499741 4282398789
0.0082347924 0.040860031 -0.0065409834 4282004031
0.0065496503 0.040819716 -0.0066572246 4282267205
0.0048645083 0.040779397 -0.0067734658 4281214266
0.0030503278 0.043320872 -0.0085553639 4280949823
0.0013709369 0.043280691 -0.0086712083 4280817725
-0.00030845031 0.043240514 -0.0087870527 4281146941
-0.0019878412 0.043200333 -0.0089028971 4281541437
-0.0037375116 0.044871904 -0.010121799 4281475894
-0.0054130903 0.044831816 -0.01023738 4281673526
-0.0070260065 0.043079793 -0.0092504295 4281805110
-0.0087642409 0.04475164 -0.010468543 4281278766
0.018575734 0.038304824 -0.006020288 4283779924
0.01677379 0.039930522 -0.0072098309 4283714131
0.015088649 0.039890204 -0.0073260721 4283450961
0.01350919 0.038183607 -0.006369778 4282727238
0.011820331 0.038143203 -0.0064862752 4281740343
0.010131489 0.038102798 -0.0066027716 4281082413
0.0083480831 0.039728936 -0.0077910363 4280556069
0.0066629406 0.039688621 -0.007907277 4279898139
0.0049777981 0.039648302 -0.0080235181 4279174164
0.0032926558 0.039607987 -0.0081397593 4279436572
0.0016075135 0.039567668 -0.0082560005 4279370522
-0.00019554696 0.042113278 -0.010032838 4279962655
-0.0018749378 0.042073097 -0.010148683 4279830806
-0.0035543286 0.04203292 -0.010264527 4279765264
-0.0052337158 0.041992739 -0.010380371 4279962639
0.018689273 0.037171237 -0.0072730966 4283779924
0.01688708 0.038799427 -0.0084598837 4283648340
0.015201938 0.038759109 -0.0085761249 4283319375
0.013516796 0.038718794 -0.0086923661 4282529859
0.01183165 0.038678475 -0.0088086072 4281542962
0.010245029 0.036969207 -0.0078555802 4281016618
0.0084613729 0.038597841 -0.0090410886 4280885031
0.0067762304 0.038557526 -0.0091573298 4280753445
0.0050910879 0.038517207 -0.009273571 4280555809
0.0034059458 0.038476892 -0.0093898121 4281213484
0.0017208036 0.038436573 -0.0095060533 4280226331
3.5661218e-05 0.038396258 -0.0096222945 4280291604
0.01700037 0.037668332 -0.0097099366 4283846487
0.015425118 0.035956845 -0.0087588876 4283714901
0.013736268 0.03591644 -0.0088753849 4283450959
0.01204741 0.035876036 -0.0089918822 4282858821
0.010358567 0.035835631 -0.0091083786 4282661183
0.0086697135 0.035795223 -0.0092248758 4282924355
0.0069808667 0.035754818 -0.0093413722 4283450697
0.0052920165 0.035714414 -0.0094578695 4283714123
0.0036031662 0.035674006 -0.0095743658 4283714120
0.015653709 0.033074826 -0.0088996086 4283714901
0.013960986 0.033034328 -0.0090163723 4283977302
0.012268265 0.032993831 -0.0091331359 4283780177
0.010472106 0.034702051 -0.010361176 4283582283
0.008783252 0.034661643 -0.010477673 4283582537
0.0070944056 0.034621239 -0.01059417 4283910987
0.0054055555 0.034580834 -0.010710667 4284174414
0.0037167051 0.03454043 -0.010827163 4282859576
0.015767507 0.031938646 -0.010155283 4284043865
0.014074787 0.031898145 -0.010272047 4284701279
0.012382064 0.031857647 -0.010388811 4284635484
0.010689342 0.031817149 -0.010505575 4283911500
0.008996617 0.031776652 -0.010622339 4283055933
0.0073038954 0.031736154 -0.010739103 4282660403
-0.061094176 0.05391879 -0.032328356 4281344813
-0.062731855 0.053879611 -0.032441322 4281213227
-0.064369529 0.053840429 -0.032554287 4282068536
-0.0041134418 0.029226547 -0.01997144 4291939536
-0.0058969739 0.03180746 -0.02170828 4292004041
-0.0075763683 0.031767283 -0.021824125 4292068545
-0.0092557557 0.031727102 -0.021939969 4292001210
-0.00055507029 0.026484121 -0.019946283 4290361542
-0.0023150134 0.028135769 -0.02110525 4291413711
-0.004000152 0.028095452 -0.021221492 4291939536
-0.0057840706 0.030680226 -0.022954067 4292069834
-0.007463465 0.030640047 -0.023069911 4292200131
-0.0091428524 0.030599868 -0.023185756 4292330175
-0.010822239 0.030559689 -0.0233016 4291539889
0.0030223161 0.023661382 -0.019879121 4282531413
0.0012473188 0.025390947 -0.021082584 4286348173
-0.00044153151 0.025350541 -0.021199081 4290164418
-0.0022017234 0.027004674 -0.022355303 4291282638
-0.003886862 0.026964357 -0.022471543 4291939536
-0.0056711673 0.029552992 -0.024199853 4292267211
-0.0074124779 0.031255551 -0.025384022 4292397767
-0.0090880534 0.031215461 -0.025499603 4292593606
-0.010709336 0.029432453 -0.024547385 4291868854
-0.012439207 0.031135285 -0.025730764 4289302927
-0.014114782 0.031095197 -0.025846347 4286277221
0.0031361156 0.022525199 -0.021134797 4281742152
0.0013608586 0.024257358 -0.022335391 4285624448
-0.00040329108 0.025913896 -0.023489116 4289835453
-0.0021994906 0.028506126 -0.02521394 4291282638
-0.0038788777 0.028465947 -0.025329784 4291940306
-0.0056242561 0.030170966 -0.026511393 4292267724
-0.0073617287 0.031868294 -0.027687663 4292595146
-0.0090335067 0.031828299 -0.027802981 4292462020
-0.010705288 0.031788301 -0.027918302 4292132026
-0.012377067 0.031748302 -0.028033622 4290355617
-0.014048852 0.031708308 -0.028148942 4287329139
-0.01572063 0.031668309 -0.02826426 4284764241
0.0029515815 0.027499428 -0.026112193 4281346881
0.0012721944 0.027459249 -0.026228037 4285294970
-0.00040719644 0.02741907 -0.026343882 4289703867
-0.0021604558 0.029126473 -0.027523184 4291348429
-0.0038360346 0.029086383 -0.027638765 4292006099
-0.0055775549 0.030786166 -0.028812485 4292267724
-0.0072493367 0.030746169 -0.028927805 4292398537
-0.0089211147 0.030706171 -0.029043123 4292725705
-0.010592896 0.030666174 -0.029158443 4292330175
-0.012264675 0.030626178 -0.029273763 4291013547
-0.013983214 0.032318674 -0.030441143 4287986815
-0.015651213 0.032278765 -0.030556202 4284632656
-0.0002942931 0.026291836 -0.027589668 4289769147
-0.0020478081 0.028001791 -0.028766148 4291480015
-0.0037933826 0.029704046 -0.029937297 4292071890
-0.0054651643 0.029664049 -0.030052615 4292136908
-0.0071369461 0.02962405 -0.030167935 4292332744
-0.0088670701 0.031318799 -0.031333309 4293120463
-0.010535073 0.031278893 -0.031448368 4292593347
-0.012203073 0.031238986 -0.031563427 4291342512
-0.013989453 0.035568248 -0.034320761 4288249987
-0.015778245 0.040758461 -0.037596997 4284632143
-0.017425343 0.040719055 -0.037710615 4283777093
-0.00033743013 0.028661903 -0.03094681 4289769147
-0.0020829279 0.030358844 -0.032110404 4291480015
-0.0037509273 0.030318936 -0.032225464 4292071890
-0.0054189307 0.030279029 -0.032340523 4292136908
-0.0070869299 0.030239122 -0.032455578 4292267464
-0.0087549333 0.030199217 -0.032570638 4292726475
-0.010504701 0.032750648 -0.03424729 4292659140
-0.012167068 0.032710873 -0.034361962 4292000442
-0.013877955 0.034455046 -0.035551038 4289302418
-0.015623477 0.037893288 -0.03775939 4285486682
-0.0172744 0.037853789 -0.037873272 4283973959
-0.00022503834 0.027539777 -0.032186951 4289571768
-0.0019707889 0.029239239 -0.033347756 4291151050
-0.0036387884 0.029199334 -0.033462815 4292072405
-0.0053067915 0.029159427 -0.033577874 4292268751
-0.0069747912 0.02911952 -0.033692934 4292136391
-0.0086427946 0.029079612 -0.033807993 4292923854
-0.010392942 0.031634834 -0.035480455 4292659653
-0.012055309 0.031595062 -0.035595123 4292263614
-0.013766458 0.033341847 -0.036781311 4290289313
-0.015512487 0.036785156 -0.038984064 4285354583
-0.01720388 0.038507938 -0.040154275 4282591792
-0.018850975 0.038468532 -0.040267892 4283842375
-0.00019064879 0.028159562 -0.034470029 4289637561
-0.0019693568 0.030717891 -0.036140256 4291348688
-0.0036317201 0.03067812 -0.036254928 4292335834
-0.0052940869 0.030638346 -0.036369596 4292466900
-0.0069564502 0.030598575 -0.036484264 4292400077
-0.0086188205 0.030558802 -0.036598936 4292792525
-0.010337992 0.032308009 -0.037782781 4292659653
-0.011996476 0.032268327 -0.037897184 4292460993
-0.01365496 0.032228649 -0.038011588 4290749862
-0.015356744 0.033904076 -0.039150082 4285683803
-0.017052421 0.035637535 -0.040322609 4282459691
-0.018703347 0.03559804 -0.040436488 4283512894
0.0014671363 0.029681623 -0.03714408 4285688449
-0.0001952306 0.02964185 -0.037258748 4289834941
-0.0018575975 0.029602079 -0.03737342 4291414481
-0.0035199607 0.029562306 -0.037488088 4292204248
-0.0052510365 0.031313837 -0.038669862 4292269521
-0.0069095208 0.031274159 -0.038784262 4292202698
-0.0085680056 0.031234479 -0.038898665 4292792525
-0.010226494 0.031194799 -0.039013069 4292594117
-0.011935961 0.032872539 -0.04014932 4292724163
-0.01359073 0.03283295 -0.040263463 4291341999
-0.015245495 0.032793362 -0.040377609 4286472549
-0.016941432 0.034529407 -0.041547284 4282459177
-0.018592358 0.034489907 -0.041661162 4283117107
-0.020243278 0.034450408 -0.041775044 4283842627
-0.0001640788 0.030319674 -0.039556928 4289834687
-0.0018225631 0.030279996 -0.039671332 4291282897
-0.0034810512 0.030240316 -0.039785732 4292006871
-0.0052056452 0.031920195 -0.040920254 4292072401
-0.0068604141 0.031880606 -0.0410344 4292071627
-0.0085151792 0.031841014 -0.041148547 4292595914
-0.010169948 0.031801425 -0.04126269 4292659910
-0.011824713 0.031761836 -0.041376837 4292724163
-0.013479482 0.031722244 -0.041490983 4291933620
-0.015134248 0.031682655 -0.04160513 4287327599
-0.016789017 0.031643063 -0.041719276 4282787628
-0.018481368 0.033381786 -0.042885825 4282985007
-0.02013229 0.033342287 -0.042999707 4284039235
-0.021783212 0.033302788 -0.043113589 4283845194
-0.00013009834 0.030928262 -0.041805334 4289768383
-0.0017848635 0.030888671 -0.041919481 4291217104
-0.0034396325 0.030849081 -0.042033628 4292006871
-0.0050943973 0.03080949 -0.042147771 4292269780
-0.0068139154 0.032550141 -0.043313336 4292532178
-0.0084648393 0.032510642 -0.043427218 4292595914
-0.010115762 0.032471146 -0.043541096 4292660164
-0.011766686 0.032431647 -0.043654978 4292658368
-0.013417609 0.032392148 -0.04376886 4292196790
-0.015068529 0.032352649 -0.043882739 4288117113
-0.016677769 0.03053236 -0.042946793 4283576885
-0.018332534 0.03049277 -0.04306094 4283247920
-0.0199873 0.030453179 -0.043175086 4284236357
-0.021642068 0.030413589 -0.043289229 4283910473
-1.8850556e-05 0.029817555 -0.043032855 4289768385
-0.0016736158 0.029777966 -0.043146998 4291085520
-0.0034010834 0.031521015 -0.044310238 4291546835
-0.0050520068 0.031481519 -0.04442412 4291941330
-0.0067029265 0.03144202 -0.044537999 4292335313
-0.0083538499 0.031402521 -0.044651881 4292464841
-0.010004774 0.031363022 -0.044765759 4292594885
-0.011655697 0.031323526 -0.044879641 4292396221
-0.013356023 0.033058964 -0.046036191 4292328375
-0.01495754 0.031244529 -0.045107402 4289104006
-0.016566521 0.029421654 -0.044174314 4284629571
-0.018221285 0.029382063 -0.044288456 4283642676
-0.019876054 0.029342474 -0.044402603 4284170564
-0.02153082 0.029302884 -0.04451675 4283844426
-0.023185587 0.029263293 -0.044630896 4283582796
1.1753559e-05 0.030491881 -0.045307152 4289965765
-0.0016391699 0.030452382 -0.04542103 4291151058
-0.0032900933 0.030412884 -0.045534912 4291415249
-0.0049410169 0.030373385 -0.045648795 4291612365
-0.0066569089 0.03211103 -0.046803556 4292006348
-0.0083040055 0.032071624 -0.04691717 4292399048
-0.010008149 0.033801343 -0.048066333 4292660678
-0.011651437 0.033762027 -0.04817969 4292462014
-0.013294726 0.033722714 -0.048293043 4292525754
-0.014938014 0.033683397 -0.048406396 4290090643
-0.016539486 0.031874593 -0.047485255 4285813329
-0.01818658 0.031835184 -0.047598872 4284168504
-0.019833677 0.031795777 -0.04771249 4283972413
-0.021419572 0.028192168 -0.045744278 4283778635
-0.023074338 0.028152578 -0.045858424 4283517005
0.00012274257 0.02938376 -0.046531815 4290031558
-0.0016048867 0.031123694 -0.047684535 4291413973
-0.0032519833 0.031084286 -0.047798153 4291874773
-0.0048990799 0.03104488 -0.047911767 4292006610
-0.0066110995 0.03277697 -0.049058635 4292466130
-0.0082543874 0.032737654 -0.049171988 4292333257
-0.0098976726 0.032698341 -0.049285341 4292792266
-0.011540961 0.032659024 -0.049398698 4292527552
-0.013184248 0.032619707 -0.049512051 4292592317
-0.014827537 0.032580394 -0.049625404 4290617500
-0.016470825 0.032541078 -0.049738757 4286406235
-0.01799879 0.027160643 -0.046743505 4284169273
-0.019653557 0.027121052 -0.046857651 4283446837
-0.021308323 0.027081463 -0.046971798 4283778635
-0.02296309 0.027041873 -0.047085945 4283450958
0.00015294204 0.030057542 -0.04879275 4290228166
-0.0014941546 0.030018136 -0.048906364 4291412945
-0.0032140473 0.031752609 -0.050050922 4292005332
-0.0048573357 0.031713292 -0.050164279 4292268244
-0.0065006237 0.031673975 -0.050277632 4292201679
-0.0081439121 0.031634662 -0.050390985 4292464079
-0.0098719867 0.03420876 -0.052021351 4292594636
-0.011509664 0.034169581 -0.052134316 4292659401
-0.013147343 0.034130398 -0.052247282 4292197821
-0.014785017 0.034091216 -0.052360252 4291079079
-0.016422695 0.034052037 -0.052473217 4287262568
-0.017926421 0.027841156 -0.049009167 4283380266
-0.019542309 0.026010348 -0.048085172 4283512883
-0.021197075 0.025970757 -0.048199315 4283647049
-0.022851843 0.025931166 -0.048313461 4283450959
0.00018300206 0.030728234 -0.051043224 4290227653
-0.0014602862 0.030688919 -0.051156577 4291544018
-0.0031035708 0.030649602 -0.05126993 4292267991
-0.004746859 0.030610288 -0.051383287 4292727771
-0.0064865355 0.033187889 -0.053010255 4292595926
-0.0081242099 0.03314871 -0.053123221 4292398288
-0.0097618876 0.033109527 -0.05323619 4292594638
-0.011399566 0.033070344 -0.053349156 4292791247
-0.013037244 0.033031166 -0.053462125 4292329923
-0.014674918 0.032991983 -0.053575091 4291342508
-0.016312595 0.0329528 -0.053688057 4287592047
-0.017815432 0.026733026 -0.050233841 4283709485
-0.019466352 0.026693527 -0.050347719 4283316015
-0.021117276 0.026654029 -0.050461601 4283712842
0.00029347753 0.029625239 -0.052262221 4290359493
-0.0013498107 0.029585924 -0.052375574 4291544018
-0.0031010795 0.03216701 -0.053999174 4292136405
-0.0047387574 0.032127827 -0.05411214 4292464599
-0.0063764355 0.032088645 -0.054225106 4292398547
-0.0080141099 0.032049466 -0.054338075 4292398288
-0.0096517876 0.032010283 -0.054451041 4292660431
-0.011289466 0.031971101 -0.054564007 4292922833
-0.012927144 0.031931922 -0.054676976 4292593095
-0.014564819 0.031892739 -0.054789942 4291737266
-0.016202496 0.031853557 -0.054902907 4288315770
-0.017704442 0.025624903 -0.051458504 4284235829
-0.019355364 0.025585406 -0.051572382 4283118636
-0.021006286 0.025545908 -0.051686265 4283647049
0.0019220497 0.03118532 -0.054875113 4286082443
0.00028437164 0.031146137 -0.054988079 4290622665
-0.0013533065 0.031106956 -0.055101048 4291544018
-0.0029909809 0.031067776 -0.055214014 4292004819
-0.0046286588 0.031028595 -0.05532698 4292333013
-0.0062663369 0.030989412 -0.055439949 4292201168
-0.0079040108 0.030950231 -0.055552915 4292464081
-0.0095416894 0.030911051 -0.05566588 4292594638
-0.01123526 0.032698631 -0.056825656 4292922833
-0.012817046 0.030832687 -0.055891816 4292593095
-0.014502803 0.032620456 -0.057051051 4291868852
-0.016136575 0.03258137 -0.057163749 4289105286
-0.01763292 0.026307395 -0.053708021 4284959552
-0.019367753 0.030675963 -0.056343682 4282987052
-0.021005427 0.030636782 -0.056456652 4283449668
0.0038010071 0.027497862 -0.054473527 4281608781
0.0020321484 0.030086085 -0.056089953 4286082956
0.00039447041 0.030046904 -0.056202922 4290622922
-0.0012432076 0.030007724 -0.056315888 4291675604
-0.002880882 0.029968541 -0.056428853 4292136405
-0.0045185601 0.02992936 -0.056541823 4292530646
-0.0061562383 0.02989018 -0.056654789 4292530131
-0.0078578778 0.031680197 -0.057812203 4292464081
-0.0094916513 0.031641111 -0.0579249 4292397516
-0.011125425 0.031602021 -0.058037598 4292791247
-0.012759194 0.031562936 -0.058150295 4292395716
-0.014392967 0.031523846 -0.058262993 4291868854
-0.016026741 0.03148476 -0.05837569 4289763218
-0.017619977 0.029615911 -0.057445556 4285617228
-0.019257654 0.029576728 -0.057558525 4282854953
-0.02089533 0.029537547 -0.057671491 4283383618
0.0039114826 0.026394868 -0.055692524 4281740366
0.0021422473 0.028986853 -0.057304796 4286214540
0.00050456921 0.02894767 -0.057417762 4290688715
-0.0011331089 0.028908489 -0.057530727 4291609811
-0.0027707831 0.028869309 -0.057643697 4292004819
-0.0044804947 0.030661754 -0.05879876 4292399060
-0.0061142682 0.030622667 -0.058911458 4292333265
-0.0077480413 0.030583577 -0.059024155 4292464081
-0.0093818139 0.03054449 -0.059136853 4292265932
-0.011069733 0.032263722 -0.060248692 4292725454
-0.012699757 0.032224722 -0.060361132 4292264643
-0.014329781 0.032185726 -0.060473569 4292000440
-0.015916903 0.030388139 -0.059587643 4290421148
-0.017550677 0.030349052 -0.05970034 4286144085
-0.019184448 0.030309962 -0.059813038 4282591781
-0.02081822 0.030270875 -0.059925735 4283317053
0.0040219589 0.025291864 -0.056911532 4281674573
0.0022523471 0.027887609 -0.058519647 4286148747
0.000614669 0.027848426 -0.058632612 4290557129
-0.0010230091 0.027809246 -0.058745578 4291347152
-0.0027368858 0.029604232 -0.059898004 4291741647
-0.0043706587 0.029565144 -0.060010701 4292135888
-0.0060700751 0.03128662 -0.061120536 4292135886
-0.0077000996 0.031247621 -0.061232977 4292332495
-0.0093301237 0.031208623 -0.061345417 4292200139
-0.010960148 0.031169625 -0.061457854 4292660431
-0.012590173 0.031130627 -0.061570294 4292396230
-0.014220197 0.031091629 -0.061682735 4292263614
-0.015850224 0.03105263 -0.061795171 4291079079
-0.017480247 0.031013632 -0.061907612 4286604636
-0.019110274 0.030974634 -0.062020052 4282328607
-0.020708384 0.029174265 -0.061137676 4282922550
0.0040001203 0.026827555 -0.05962152 4281082690
0.0022742671 0.028624875 -0.060771864 4285754243
0.0007247678 0.026749194 -0.059847452 4290294211
-0.00099327927 0.028546698 -0.060997259 4291281357
-0.0026270486 0.028507611 -0.061109956 4291807953
-0.0042608217 0.028468523 -0.061222654 4292334037
-0.005960491 0.030192524 -0.062329702 4292530644
-0.0075905151 0.030153526 -0.062442139 4292135373
-0.0092205396 0.030114528 -0.062554576 4292134346
-0.010850564 0.03007553 -0.06266702 4292792017
-0.012480589 0.030036531 -0.062779456 4292593609
-0.014159288 0.031817801 -0.063916929 4292395970
-0.015828449 0.033526156 -0.065012693 4291408301
-0.017450895 0.033487339 -0.065124609 4286867808
-0.019000689 0.029880539 -0.063229211 4282131228
0.004110219 0.025728323 -0.06083636 4281148997
0.0023841031 0.027528265 -0.061983805 4285491841
0.00075032993 0.027489178 -0.062096503 4289900223
-0.00088344322 0.027450088 -0.0622092 4291347150
-0.0025908544 0.029176423 -0.063313983 4291742159
-0.0042208824 0.029137425 -0.063426428 4291873486
-0.0059191803 0.030920826 -0.064562365 4292267472
-0.0075453371 0.030881921 -0.064674534 4292266959
-0.0091714934 0.030843016 -0.06478671 4292200909
-0.010797651 0.030804109 -0.064898878 4292528845
-0.012423807 0.030765204 -0.065011054 4292725195
-0.014096932 0.032475967 -0.066104315 4292461763
-0.015719375 0.032437149 -0.066216238 4291276715
-0.017341821 0.032398332 -0.066328153 4287788912
0.0041277134 0.026470732 -0.06308306 4281148997
0.0024088039 0.028199311 -0.064185843 4285491841
0.0007787795 0.028160313 -0.06429828 4289966016
-0.00085124851 0.028121315 -0.064410724 4291412943
-0.0024812692 0.028082317 -0.06452316 4291742159
-0.004111297 0.028043319 -0.064635597 4291939279
-0.005809857 0.029829334 -0.065768644 4292136656
-0.0074980818 0.031542223 -0.066860192 4292266959
-0.0091205267 0.031503405 -0.066972107 4292200909
-0.010742968 0.031464592 -0.067084029 4292528845
-0.012365413 0.031425774 -0.067195944 4292659659
-0.013987858 0.031386957 -0.06730786 4292527556
-0.015655207 0.033156805 -0.068429373 4291474094
-0.017273819 0.03311808 -0.068541028 4288052598
-0.018892432 0.033079356 -0.068652675 4284039227
-0.020511044 0.033040632 -0.068764329 4282724397
0.0042375494 0.025374122 -0.064295001 4281214790
0.0025183891 0.027105207 -0.065395012 4285491841
0.00080409483 0.028893445 -0.066526264 4289966016
-0.00074166327 0.02702721 -0.065619893 4291347920
-0.0024482184 0.028815633 -0.066750608 4291873745
-0.0040743751 0.028776728 -0.066862784 4291939279
-0.0057665622 0.030492032 -0.067951821 4292136656
-0.0073890071 0.030453214 -0.068063736 4292266959
-0.0090114521 0.030414399 -0.068175651 4292200909
-0.010633893 0.030375581 -0.068287566 4292397516
-0.012256338 0.030336764 -0.068399481 4292593866
-0.013878783 0.030297948 -0.068511397 4292593095
-0.015546389 0.032070372 -0.069630072 4291737268
-0.017165001 0.032031644 -0.069741718 4288578944
-0.018783614 0.03199292 -0.069853373 4284828743
-0.020402227 0.031954195 -0.069965027 4283118385
0.0042579975 0.026050108 -0.066491738 4281215044
0.0024547342 0.029597098 -0.068595789 4285426047
0.00083228934 0.02955828 -0.068707705 4289900221
-0.00079015555 0.029519463 -0.06881962 4291282125
-0.0024125967 0.029480647 -0.068931535 4291742929
-0.0040350417 0.02944183 -0.06904345 4291939536
-0.005725903 0.031216286 -0.070160858 4292202449
-0.0073445137 0.031177562 -0.070272505 4292267472
-0.0089631276 0.031138835 -0.07038416 4292200909
-0.010524818 0.029286562 -0.069491118 4292331723
-0.012200349 0.031061387 -0.070607461 4292528073
-0.013818963 0.03102266 -0.070719115 4292462022
-0.015437572 0.030983936 -0.07083077 4291738038
-0.017056184 0.03094521 -0.070942417 4288973702
-0.018712375 0.032711957 -0.07205274 4285420880
-0.020327173 0.032673322 -0.072164133 4283447091
-0.021941971 0.03263469 -0.072275519 4283578936
0.004275057 0.02678825 -0.068714514 4281215044
0.002563809 0.028508088 -0.069799326 4285294461
0.00085736113 0.030284742 -0.070914954 4289768635
-0.00076124951 0.030246018 -0.071026608 4291216332
-0.00237986 0.030207291 -0.071138255 4291742929
-0.0039984742 0.030168567 -0.07124991 4292005329
-0.0056170849 0.030129841 -0.071361564 4292202449
-0.0072356956 0.030091116 -0.071473211 4292399058
-0.00885431 0.03005239 -0.071584865 4292332495
-0.010472921 0.030013666 -0.07169652 4292397518
-0.012091531 0.029974941 -0.071808167 4292462282
-0.013710146 0.029936215 -0.071919821 4292396229
-0.015374222 0.031705353 -0.073027827 4291738038
-0.016989019 0.031666718 -0.07313922 4289236875
-0.018641474 0.033427592 -0.074241735 4285881431
-0.020252474 0.033389051 -0.07435286 4283578676
-0.02183341 0.031550817 -0.073473386 4283776056
0.0042953249 0.027457897 -0.070890956 4281215044
0.0025847887 0.029237032 -0.072003998 4285162875
0.00096617802 0.029198306 -0.072115652 4289505463
-0.00073248218 0.030969176 -0.073223203 4291018953
-0.0023472807 0.030930541 -0.07333459 4291677134
-0.0038896576 0.029082131 -0.072450608 4292005329
-0.0055768741 0.030853275 -0.073557369 4292268242
-0.0071916729 0.03081464 -0.073668756 4292464851
-0.008806468 0.030776007 -0.073780149 4292398288
-0.010421267 0.030737372 -0.073891535 4292397518
-0.012036065 0.030698739 -0.074002922 4292462282
-0.01365086 0.030660106 -0.074114315 4292396229
-0.01526566 0.030621471 -0.074225701 4291869624
-0.016880456 0.030582838 -0.074337088 4289565840
-0.018533166 0.032346256 -0.075436801 4286276189
-0.020144166 0.032307714 -0.075547926 4283709492
-0.02175517 0.032269169 -0.075659052 4283776055
0.0042204699 0.030001206 -0.074086897 4281149764
0.0026056715 0.029962573 -0.074198291 4284900216
0.00099087658 0.029923938 -0.074309677 4289177011
-0.00062392204 0.029885305 -0.074421063 4290821574
-0.0022387207 0.02984667 -0.074532457 4291545548
-0.0038535155 0.029808037 -0.074643843 4292005329
-0.0055368501 0.031573273 -0.075742833 4292334035
-0.0071478556 0.031534731 -0.075853959 4292464851
-0.0087588569 0.031496186 -0.075965092 4292332752
-0.010369855 0.031457644 -0.076076217 4292529104
-0.011927505 0.029614868 -0.075200789 4292593868
-0.0135423 0.029576233 -0.075312175 4292527815
-0.0151571 0.0295376 -0.075423568 4292132796
-0.016771898 0.029498966 -0.075534955 4289960598
-0.018424861 0.031264927 -0.076631851 4286802533
-0.020035861 0.031226385 -0.076742977 4283643699
-0.021646865 0.031187842 -0.076854102 4283710262
0.0026264589 0.030684661 -0.07638225 4284834421
0.0010154573 0.030646117 -0.076493382 4289045425
-0.0007151165 0.03330094 -0.078074194 4290689988
-0.0022065456 0.030569032 -0.076715633 4291479757
-0.0038175471 0.030530488 -0.076826759 4292005329
-0.0055311378 0.03318572 -0.078406401 4292334037
-0.0071364734 0.033147313 -0.078517139 4292464851
-0.0087418128 0.033108905 -0.078627869 4292332752
-0.010347152 0.033070497 -0.078738607 4292594895
-0.011952494 0.033032089 -0.078849345 4292659659
-0.013557834 0.032993682 -0.078960083 4292659401
-0.015163173 0.032955274 -0.079070821 4292330175
-0.016768513 0.032916866 -0.079181552 4290223770
-0.018373854 0.032878458 -0.07929229 4287131499
-0.019927556 0.030145057 -0.077938028 4283512114
-0.021538559 0.030106515 -0.078049153 4283775286
-0.023149561 0.030067971 -0.078160278 4283973181
0.0026034913 0.032300219 -0.079043582 4285228666
0.00099815207 0.032261811 -0.07915432 4288715947
-0.00060719083 0.032223403 -0.079265051 4290689736
-0.00221253 0.032184996 -0.079375789 4291545297
-0.0038178691 0.032146588 -0.079486527 4291413195
-0.005423212 0.03210818 -0.079597265 4292596955
-0.0070285476 0.032069772 -0.079707995 4292464853
-0.0086338865 0.032031365 -0.079818733 4292398286
-0.010298246 0.033844836 -0.080933765 4292068805
-0.011844569 0.031954549 -0.080040209 4292396742
-0.013449908 0.031916142 -0.080150947 4292264641
-0.015055248 0.031877737 -0.080261678 4292067005
-0.016660588 0.03183933 -0.080372415 4290684067
-0.018265929 0.031800922 -0.080483153 4286933352
-0.019871268 0.031762514 -0.080593891 4282919468
-0.02147661 0.031724107 -0.080704629 4282919468
-0.022986546 0.025358113 -0.077392526 4284104771
0.0010195961 0.033038113 -0.081348464 4288386982
-0.00049926614 0.031145876 -0.080455907 4290623944
-0.0021046053 0.031107469 -0.080566637 4291545299
-0.0037099444 0.031069063 -0.080677375 4291610320
-0.0053862194 0.032884855 -0.081790335 4292596955
-0.0069876756 0.03284654 -0.081900805 4292530646
-0.0085891327 0.032808226 -0.082011275 4292529872
-0.010190582 0.032769911 -0.082121745 4292200391
-0.011736644 0.030877024 -0.081231058 4292463049
-0.013341984 0.030838616 -0.081341796 4292462020
-0.014947322 0.030800208 -0.081452534 4292330177
-0.016552664 0.030761801 -0.081563272 4290947752
-0.018197853 0.032578338 -0.082674086 4287327856
-0.019763343 0.030684985 -0.08178474 4283050543
-0.021368684 0.030646577 -0.081895478 4282919214
-0.022877729 0.024271669 -0.078593239 4284104516
0.00112726 0.031963192 -0.082536437 4288057247
-0.0004741929 0.031924877 -0.082646906 4290623174
-0.0020756458 0.031886563 -0.082757376 4291741908
-0.0036771023 0.031848248 -0.082867846 4291872979
-0.0052785552 0.031809933 -0.082978308 4292531162
-0.0068800119 0.031771619 -0.083088778 4292530646
-0.0084814681 0.031733304 -0.083199248 4292529872
-0.010082917 0.03169499 -0.083309717 4292331977
-0.011684374 0.031656675 -0.083420187 4292528842
-0.013285827 0.031618357 -0.08353065 4292593606
-0.014887282 0.031580042 -0.083641119 4292527556
-0.016488736 0.031541727 -0.083751589 4291080108
-0.01809019 0.031503413 -0.083862059 4287526005
-0.01949596 0.021430589 -0.078587413 4283182129
-0.021118402 0.021391772 -0.078699328 4282919215
0.001234924 0.030888267 -0.083724409 4287728282
-0.00036652898 0.030849952 -0.083834879 4290623174
-0.0019679819 0.030811638 -0.083945349 4291741908
-0.0035694384 0.030773323 -0.084055819 4292070358
-0.0051708915 0.030735008 -0.084166288 4292267990
-0.0068372809 0.032483548 -0.085234009 4292399060
-0.0084349997 0.032445323 -0.085344218 4292398545
-0.010032723 0.032407098 -0.085454434 4292135114
-0.011630442 0.032368872 -0.085564643 4292397769
-0.013178163 0.030543435 -0.08471863 4292396740
-0.014825883 0.032292418 -0.085785061 4292330688
-0.016423604 0.032254193 -0.08589527 4290949035
-0.018021323 0.032215968 -0.086005487 4287460725
-0.019547494 0.028529922 -0.084166452 4283248179
-0.021152835 0.028491514 -0.08427719 4282919215
0.001258733 0.031602263 -0.08586815 4287530390
-0.00025886606 0.029775038 -0.085022844 4290688454
-0.0019367086 0.031525813 -0.086088575 4291807188
-0.0035344274 0.031487588 -0.086198784 4292201944
-0.0051321499 0.031449363 -0.086308993 4292136405
-0.0067298692 0.031411137 -0.086419202 4292530392
-0.0083909323 0.033217493 -0.087513044 4292530131
-0.0099848025 0.033179361 -0.087622985 4292200907
-0.011578676 0.033141229 -0.087732933 4292463562
-0.01312075 0.031258237 -0.086860046 4292200131
-0.014766419 0.033064961 -0.087952822 4292133566
-0.01636029 0.033026829 -0.088062771 4290949035
-0.017954161 0.032988694 -0.088172711 4287526516
-0.019548034 0.032950561 -0.08828266 4283445559
-0.021141903 0.032912429 -0.088392608 4282919217
0.0012794476 0.032376457 -0.088035725 4287398290
-0.00031442216 0.032338325 -0.088145666 4290687939
-0.0019082919 0.032300189 -0.088255614 4291609809
-0.0034270154 0.030415177 -0.087383978 4292399325
-0.0050247381 0.030376952 -0.087494187 4292136405
-0.0066899084 0.032185789 -0.088585451 4292661978
-0.0082837781 0.032147657 -0.088695392 4292596437
-0.0098776482 0.032109525 -0.08880534 4292333006
-0.011471522 0.032071393 -0.088915288 4292464332
-0.013065393 0.032033257 -0.089025229 4292266181
-0.014659265 0.031995125 -0.089135177 4292134336
-0.016253136 0.031956993 -0.089245118 4291015339
-0.017885935 0.033694442 -0.090296023 4287658872
-0.019476106 0.033656396 -0.09040571 4283642938
-0.02106628 0.033618353 -0.090515405 4282919217
0.0013866019 0.031306621 -0.089218073 4287069325
-0.00020726779 0.031268489 -0.089328021 4290424767
-0.0018011376 0.031230355 -0.089437962 4291543246
-0.0033196013 0.029342748 -0.088569194 4292662497
-0.0049173241 0.029304523 -0.088679411 4292399577
-0.0065827542 0.031115955 -0.089767799 4292661978
-0.0082379933 0.032855358 -0.090817489 4292662230
-0.0098281661 0.032817315 -0.090927176 4292398799
-0.011418339 0.032779269 -0.091036871 4292530125
-0.01300851 0.032741223 -0.091146559 4292331974
-0.014598683 0.03270318 -0.091256246 4292265922
-0.016188856 0.032665133 -0.091365941 4291147439
-0.017779028 0.032627091 -0.091475628 4287922044
-0.019369202 0.032589044 -0.091585316 4283774524
-0.020959375 0.032551002 -0.091695011 4282918963
0.0014099493 0.032016285 -0.09133894 4286871433
-0.00018022369 0.031978238 -0.091448635 4290161595
-0.0017703966 0.031940196 -0.091558322 4291345869
-0.0032878576 0.030122396 -0.09073025 4292794083
-0.0048817275 0.030084262 -0.090840198 4292662749
-0.0065409155 0.03182606 -0.091887392 4292464599
-0.0081310887 0.031788018 -0.09199708 4292530644
-0.0097212614 0.031749971 -0.092106774 4292333006
-0.011311434 0.031711925 -0.092216462 4292464589
-0.012901605 0.031673882 -0.092326157 4292331974
-0.014491778 0.031635836 -0.092435844 4292266433
-0.016081952 0.031597793 -0.092545532 4291279280
-0.017672123 0.031559747 -0.092655227 4288054143
-0.019262297 0.031521704 -0.092764914 4283840317
-0.020852471 0.031483658 -0.092874601 4282918963
0.0015168549 0.030948933 -0.092518546 4285160815
-7.3318122e-05 0.030910887 -0.092628241 4289569459
-0.001663491 0.030872842 -0.092737928 4291938006
-0.0032536639 0.030834798 -0.092847615 4292465118
-0.0048438371 0.030796753 -0.09295731 4293057253
-0.0064340099 0.030758709 -0.093066998 4292333014
-0.0080879573 0.032558106 -0.094139755 4289964719
-0.0096143559 0.03068262 -0.09328638 4290293423
-0.011204529 0.030644573 -0.093396068 4290753971
-0.0127947 0.030606529 -0.093505763 4293253076
-0.014433393 0.032406293 -0.094577461 4292003261
-0.016019754 0.03236834 -0.094686896 4291147694
-0.017565219 0.030492395 -0.093834832 4287725176
-0.019155391 0.030454351 -0.09394452 4283182387
-0.020745564 0.030416306 -0.094054207 4282589998
0.0016237604 0.02988158 -0.093698151 4284437605
3.3587457e-05 0.029843535 -0.093807846 4288977322
-0.0015565854 0.029805491 -0.093917534 4292003800
-0.0031467583 0.029767446 -0.094027229 4292465120
-0.0047369315 0.029729402 -0.094136916 4292201944
-0.0063271043 0.029691355 -0.094246604 4288977571
-0.0079813097 0.031493329 -0.095316522 4286214518
-0.0095074503 0.029615266 -0.094465986 4287069566
-0.011097623 0.029577222 -0.094575673 4288648338
-0.012687794 0.029539177 -0.094685368 4291608251
-0.014326746 0.031341515 -0.095754229 4293121229
-0.015913107 0.031303562 -0.095863655 4291213487
-0.017499465 0.031265605 -0.095973082 4288843144
-0.019048486 0.029386997 -0.095124125 4284103489
-0.02063866 0.029348953 -0.09523382 4283116342
0.00014049304 0.028776182 -0.094987452 4287924634
-0.0014496798 0.028738137 -0.095097139 4291938521
-0.0031155767 0.03054239 -0.096165024 4292267741
-0.0047019375 0.030504437 -0.09627445 4290820293
-0.0062201987 0.028624004 -0.095426209 4285293165
-0.0078746593 0.030428529 -0.096493304 4284240474
-0.0094610164 0.030390576 -0.09660273 4283253318
-0.011047377 0.030352622 -0.096712157 4287069051
-0.012633736 0.030314669 -0.096821584 4290095266
-0.014220095 0.030276716 -0.09693101 4291607990
-0.015806457 0.030238762 -0.097040437 4291410096
-0.017392816 0.030200807 -0.097149864 4287922042
-0.018979177 0.030162854 -0.097259291 4284235074
-0.020565536 0.030124901 -0.097368717 4283116596
0.00024739761 0.02770884 -0.09616705 4286938253
-0.0013427753 0.027670795 -0.096276738 4291872728
-0.0030089279 0.029477602 -0.097341791 4292070362
-0.0045231213 0.027594706 -0.09649612 4289570226
-0.0061816499 0.029401693 -0.097560652 4283648340
-0.0077680107 0.02936374 -0.097670078 4281345325
-0.0093543679 0.029325787 -0.097779505 4283187268
-0.010940729 0.029287834 -0.097888932 4285357919
-0.012527088 0.02924988 -0.097998358 4288976272
-0.014113447 0.029211927 -0.098107785 4292265405
-0.01574507 0.03101074 -0.099165902 4290225563
-0.017327635 0.030972878 -0.099275067 4288184699
-0.018910199 0.030935014 -0.099384233 4283182386
-0.020458886 0.029060112 -0.098545492 4282590252
0.00027043914 0.02848872 -0.098299712 4286280836
-0.0013159218 0.028450767 -0.098409139 4291478483
-0.0029022789 0.028412813 -0.098518565 4291806935
-0.00448864 0.028374858 -0.098627992 4289241263
-0.0060750009 0.028336905 -0.098737419 4281674296
-0.0077258465 0.030137809 -0.099794038 4280423968
-0.0092477193 0.028260998 -0.098956279 4280292376
-0.01083408 0.028223045 -0.099065706 4283581508
-0.012420439 0.028185092 -0.099175133 4289238674
-0.014006798 0.028147137 -0.099284559 4290751653
-0.015638676 0.029948495 -0.10033987 4291804595
-0.017179519 0.02807123 -0.099503413 4287263597
-0.01876588 0.028033277 -0.09961284 4282590249
-0.020352239 0.027995324 -0.099722266 4282458664
-0.0012891928 0.029227005 -0.10053135 4290425795
-0.0028717529 0.029189141 -0.10064051 4291477970
-0.004381991 0.02731007 -0.099804766 4290162365
-0.0060368879 0.029113416 -0.10085884 4285227118
-0.0076194517 0.029075554 -0.10096801 4281739571
-0.0092020193 0.029037692 -0.10107718 4283186498
-0.010784583 0.028999828 -0.10118634 4283909960
-0.012367151 0.028961966 -0.10129551 4289764761
-0.013949715 0.028924102 -0.10140467 4292462014
-0.015579402 0.030782405 -0.1024847 4290817187
-0.017158061 0.030744636 -0.1025936 4286999912
-0.018736718 0.030706868 -0.1027025 4283116334
-0.020315377 0.030669097 -0.10281139 4282919215
-0.0028439986 0.030024938 -0.1027846 4290820553
-0.0043479274 0.028089045 -0.10192363 4291544018
