# .PCD v0.7 - Point Cloud Data file format
VERSION 0.7
FIELDS x y z rgb
SIZE 4 4 4 4
TYPE F F F U
COUNT 1 1 1 1
WIDTH 990
HEIGHT 1
VIEWPOINT 0 0 0 1 0 0 0
POINTS 990
DATA ascii
0.015947655 -0.01890154 0.066780917 4289570236
0.01405638 -0.0226431 0.068583816 4291872989
0.012429438 -0.022604438 0.068734542 4292991977
0.010680461 -0.02447694 0.069719367 4292136405
0.0090573831 -0.024438368 0.069869734 4291873486
0.0075486246 -0.022488449 0.069186717 4291872712
0.0059216861 -0.022449786 0.069337443 4291872966
0.0041881478 -0.024322655 0.070320837 4292003528
0.0025650694 -0.024284083 0.070471205 4292003530
0.00094199111 -0.024245512 0.070621572 4292463313
-0.00077228481 -0.02604196 0.071570143 4292923864
-0.0023916548 -0.026003478 0.071720168 4292595413
-0.0040110322 -0.025964994 0.071870193 4292595667
-0.0056304019 -0.025926512 0.072020218 4292595667
-0.0072497758 -0.025888028 0.072170243 4292595667
-0.0088691497 -0.025849545 0.072320268 4292595667
-0.010488519 -0.025811061 0.072470292 4292595667
-0.012175255 -0.02766734 0.073441736 4292595667
-0.013790801 -0.027628947 0.073591411 4292595667
-0.015406348 -0.027590556 0.073741078 4292595667
-0.016966013 -0.02565713 0.073070392 4292464081
-0.018585384 -0.025618646 0.073220417 4292332495
-0.020204758 -0.025580164 0.073370442 4292332495
-0.021824131 -0.02554168 0.073520467 4292398288
-0.023443503 -0.025503198 0.073670492 4292464081
-0.025062876 -0.025464714 0.073820516 4292529874
-0.02668225 -0.025426231 0.073970541 4292529870
-0.028301623 -0.025387747 0.074120566 4293121744
-0.029920993 -0.025349265 0.074270591 4293317321
-0.031540368 -0.025310783 0.074420616 4290024334
-0.03315974 -0.025272299 0.074570641 4285548868
0.017589025 -0.019921508 0.068801098 4284108905
0.015828561 -0.021736244 0.069758259 4289964481
0.014201618 -0.021697581 0.069908991 4292925931
0.012574675 -0.021658918 0.070059717 4292334047
0.010947741 -0.021620255 0.070210442 4292202198
0.0092022764 -0.023495091 0.071191765 4291939279
0.0075791948 -0.023456519 0.071342133 4291872712
0.0059561203 -0.023417948 0.071492501 4291872966
0.0043330416 -0.023379378 0.071642868 4291937735
0.0027099636 -0.023340806 0.071793236 4292003530
0.00099165051 -0.02513933 0.072739117 4292463313
-0.00062772312 -0.025100846 0.072889142 4292858071
-0.002247093 -0.025062364 0.073039167 4292595413
-0.0038664704 -0.025023881 0.073189192 4292595667
-0.0054858401 -0.024985397 0.073339216 4292595667
-0.0071052141 -0.024946915 0.073489241 4292595667
-0.008724588 -0.024908431 0.073639266 4292595667
-0.010415484 -0.026766842 0.074607946 4292661460
-0.012031035 -0.026728449 0.074757621 4292661460
-0.013646581 -0.026690058 0.074907288 4292661460
-0.015262128 -0.026651666 0.075056963 4292529874
-0.016877677 -0.026613275 0.07520663 4292398288
-0.018493224 -0.026574882 0.075356297 4292266702
-0.020060197 -0.02463905 0.07468944 4292200909
-0.021679569 -0.024600567 0.074839465 4292266702
-0.023298942 -0.024562083 0.07498949 4292398288
-0.024918314 -0.024523601 0.075139515 4292464081
-0.026537688 -0.024485117 0.07528954 4292464077
-0.028157061 -0.024446635 0.075439565 4293121744
-0.029776432 -0.02440815 0.07558959 4293515213
-0.031417608 -0.026267745 0.076553665 4291142815
-0.033033155 -0.026229352 0.076703332 4287193693
-0.034662783 -0.028080298 0.077662528 4283377186
-0.036274526 -0.028041996 0.077811845 4283378728
0.017734598 -0.018973816 0.070129313 4284832628
0.015973799 -0.020790726 0.071083434 4289964481
0.014216404 -0.022667535 0.072062679 4291544278
0.012593326 -0.022628965 0.072213046 4292794598
0.010970248 -0.022590393 0.072363414 4292333784
0.0092330771 -0.024390632 0.073307991 4292070865
0.0076137031 -0.024352148 0.073458016 4292070091
0.0059943297 -0.024313666 0.073608041 4292004552
0.0043749558 -0.024275182 0.073758066 4292069321
0.0027555858 -0.0242367 0.073908091 4292069323
0.0011362123 -0.024198215 0.074058115 4292529106
-0.00048316136 -0.024159733 0.07420814 4292923864
-0.0021025313 -0.024121251 0.074358165 4292595413
-0.0037219087 -0.024082767 0.07450819 4292595667
-0.0054246229 -0.025943121 0.075474828 4292595667
-0.0070401696 -0.025904728 0.075624496 4292595667
-0.0086557157 -0.025866337 0.07577417 4292595667
-0.010271262 -0.025827944 0.075923838 4292661460
-0.011886813 -0.025789551 0.076073512 4292661460
-0.013502359 -0.02575116 0.07622318 4292661460
-0.015117906 -0.025712768 0.076372854 4292529874
-0.016733456 -0.025674375 0.076522522 4292398288
-0.018349003 -0.025635984 0.076672196 4292200909
-0.01996455 -0.025597591 0.076821864 4292135116
-0.0215801 -0.025559198 0.076971531 4292200909
-0.02315438 -0.023620971 0.076308489 4292332495
-0.024773752 -0.023582486 0.076458514 4292332495
-0.026393127 -0.023544004 0.076608539 4292398284
-0.028012499 -0.02350552 0.076758564 4292858572
-0.029657837 -0.025367238 0.07771989 4293581006
-0.031273387 -0.025328847 0.077869557 4292327089
-0.03288893 -0.025290454 0.078019224 4288838518
-0.034518905 -0.027143614 0.078975312 4284232495
-0.036130644 -0.027105313 0.079124629 4283247655
0.017880168 -0.018026134 0.07145752 4283187802
0.015984375 -0.021762839 0.073234327 4289109426
0.014361298 -0.021724267 0.073384695 4292662246
0.012738219 -0.021685695 0.073535062 4292201948
0.010997009 -0.023487993 0.07447698 4292399577
0.0093776397 -0.023449508 0.074627005 4292136656
0.0077582663 -0.023411026 0.074777029 4292070091
0.0061388924 -0.023372544 0.074927054 4292004552
0.0045195189 -0.02333406 0.075077079 4292069321
0.002900149 -0.023295578 0.075227104 4292003530
0.0012807753 -0.023257094 0.075377129 4292463313
-0.00043375924 -0.025119407 0.076341696 4292858071
-0.0020493059 -0.025081016 0.076491371 4292595413
-0.0036648526 -0.025042623 0.076641038 4292595667
-0.005280403 -0.02500423 0.076790713 4292595667
-0.0068959496 -0.024965839 0.07694038 4292595667
-0.0085114958 -0.024927447 0.077090047 4292595667
-0.010127042 -0.024889056 0.077239722 4292595667
-0.011742593 -0.024850663 0.077389389 4292595667
-0.013422393 -0.026704853 0.078346968 4292595667
-0.015034135 -0.026666552 0.078496292 4292595667
-0.016645873 -0.02662825 0.078645609 4292398288
-0.018204784 -0.024697093 0.077988073 4292200909
-0.019820331 -0.024658702 0.07813774 4292069323
-0.021435881 -0.024620309 0.078287415 4292135116
-0.023051426 -0.024581917 0.078437082 4292266702
-0.024666974 -0.024543526 0.078586757 4292332495
-0.026282521 -0.024505133 0.078736424 4292332491
-0.027898069 -0.02446674 0.078886099 4292398535
-0.029513616 -0.024428349 0.079035766 4293318091
-0.031129165 -0.024389956 0.079185434 4292459189
-0.032744713 -0.024351565 0.079335108 4289167996
-0.03436026 -0.024313172 0.079484776 4283904043
-0.035986762 -0.02616863 0.080437422 4282721311
0.016129266 -0.020819578 0.074556336 4288977840
0.014506189 -0.020781007 0.074706703 4291477972
0.01288311 -0.020742435 0.074857071 4293188841
0.011141571 -0.022546878 0.075795971 4292333783
0.0095222015 -0.022508396 0.075945996 4292070863
0.007902828 -0.022469912 0.076096021 4292004298
0.0062834541 -0.022431429 0.076246046 4292004039
0.0046640807 -0.022392947 0.07639607 4291937737
0.0029415579 -0.024257302 0.077358238 4291871690
0.0013260111 -0.024218911 0.077507906 4292265680
-0.00028953917 -0.024180518 0.07765758 4292660438
-0.0019050858 -0.024142126 0.077807248 4292661206
-0.0035206324 -0.024103735 0.077956922 4292661460
-0.0051361825 -0.024065342 0.07810659 4292661460
-0.0067517292 -0.024026949 0.078256257 4292595667
-0.0083672758 -0.023988558 0.078405932 4292595667
-0.0099828225 -0.023950165 0.078555599 4292595667
-0.011598373 -0.023911772 0.078705274 4292529874
-0.013278512 -0.025768172 0.07965976 4292529874
-0.014890254 -0.02572987 0.079809077 4292661460
-0.016501993 -0.025691569 0.079958394 4292464081
-0.018113734 -0.025653267 0.080107711 4292200909
-0.019725475 -0.025614964 0.080257028 4292069323
-0.021337215 -0.025576662 0.080406345 4292135116
-0.022948958 -0.025538361 0.080555663 4292200909
-0.024560697 -0.025500059 0.08070498 4292332495
-0.026172439 -0.025461758 0.080854304 4292398284
-0.02778418 -0.025423456 0.081003621 4292595914
-0.029395919 -0.025385154 0.081152938 4293383886
-0.031007661 -0.025346853 0.081302255 4292590775
-0.032600492 -0.023412675 0.080650985 4289036410
-0.034216039 -0.023374282 0.08080066 4283443492
0.017897239 -0.019914871 0.075727999 4283055700
0.016144251 -0.021721214 0.076664895 4288977068
0.014524881 -0.021682732 0.07681492 4292464865
0.012905511 -0.021644248 0.076964945 4292859876
0.011286133 -0.021605765 0.077114969 4292399576
0.0096667632 -0.021567281 0.077264994 4292136656
0.0080473898 -0.021528799 0.077415019 4292004298
0.0064280159 -0.021490317 0.077565044 4292004039
0.0047013294 -0.023356797 0.078524455 4291937737
0.0030857793 -0.023318404 0.07867413 4291871690
0.0014702326 -0.023280013 0.078823797 4292265680
-0.00014531774 -0.023241621 0.078973472 4292660438
-0.0017608644 -0.023203228 0.079123139 4292726999
-0.003376411 -0.023164837 0.079272814 4292727253
-0.0049919612 -0.023126444 0.079422481 4292661460
-0.0066876691 -0.024984704 0.080375262 4292661460
-0.0082994113 -0.024946403 0.080524579 4292595667
-0.0098386016 -0.023011267 0.079871491 4292529874
-0.011522891 -0.0248698 0.080823213 4292464081
-0.013134633 -0.024831498 0.080972537 4292464081
-0.014746374 -0.024793196 0.081121854 4292793046
-0.016358113 -0.024754895 0.081271172 4292529874
-0.017969854 -0.024716591 0.081420489 4292266702
-0.019631071 -0.026566708 0.082366325 4292069323
-0.021193335 -0.024639988 0.081719123 4292135116
-0.022846971 -0.026490284 0.082664251 4292266702
-0.024416817 -0.024563385 0.082017757 4292332495
-0.026028559 -0.024525084 0.082167074 4292398284
-0.0276403 -0.024486782 0.082316391 4292596427
-0.029252039 -0.02444848 0.082465708 4293450449
-0.030863781 -0.024410179 0.082615033 4292920253
-0.032523252 -0.029078126 0.084741645 4289430914
-0.034125552 -0.029040048 0.08489009 4283706410
0.018042132 -0.018971603 0.077050015 4283581531
0.016419053 -0.018933032 0.077200383 4289174447
0.014669443 -0.020741617 0.078133918 4292201179
0.013050073 -0.020703135 0.078283943 4293123048
0.011430695 -0.020664651 0.078433968 4292531162
0.009811325 -0.020626169 0.078583993 4292399058
0.0080766426 -0.022494692 0.079540998 4292201420
0.0064610927 -0.0224563 0.079690672 4292135625
0.0048455498 -0.022417907 0.07984034 4292003530
0.0032299992 -0.022379516 0.079990007 4291937483
0.0016144527 -0.022341123 0.080139682 4292331473
-9.6828102e-05 -0.024201229 0.081090778 4292726231
-0.0017085662 -0.024162928 0.081240095 4292792792
-0.0033203082 -0.024124624 0.081389412 4292793046
-0.0049320501 -0.024086323 0.081538729 4292727253
-0.0065437881 -0.024048021 0.081688046 4292661460
-0.0081555303 -0.024009719 0.081837371 4292595667
-0.0097672716 -0.023971418 0.081986688 4292529874
-0.01137901 -0.023933116 0.082136005 4292464081
-0.013055718 -0.025785079 0.08308015 4292398288
-0.014663673 -0.025746867 0.083229117 4292793046
-0.016271625 -0.025708655 0.083378084 4292595667
-0.017879574 -0.025670443 0.083527051 4292266702
-0.019487528 -0.025632232 0.083676018 4292069323
-0.021095477 -0.02559402 0.083824985 4292135116
-0.022703428 -0.025555808 0.083973952 4292266702
-0.02431138 -0.025517598 0.084122919 4292398288
-0.025884677 -0.0235884 0.083479866 4292464077
-0.02749642 -0.023550099 0.083629183 4292201671
-0.029175611 -0.028223088 0.08574985 4293318863
-0.030777913 -0.028185012 0.085898295 4293183427
-0.032380212 -0.028146934 0.08604674 4289694856
-0.033982512 -0.028108856 0.086195178 4284035888
0.016563946 -0.017989762 0.078522399 4288911275
0.014814004 -0.019800505 0.079452917 4292135386
0.013194635 -0.019762021 0.079602942 4292990692
0.01145196 -0.021632588 0.08055754 4292464599
0.0098364092 -0.021594195 0.080707207 4292135886
0.0082208626 -0.021555802 0.080856882 4291938248
0.0066053127 -0.021517411 0.081006549 4291938246
0.0049897698 -0.021479018 0.081156217 4292003530
0.0032705353 -0.023341158 0.082104921 4292003276
0.0016587935 -0.023302857 0.082254238 4292397266
4.7051668e-05 -0.023264555 0.082403556 4292726231
-0.0016565142 -0.025118075 0.08334709 4292595413
-0.0032644661 -0.025079865 0.083496056 4292595667
-0.0047881701 -0.023149649 0.082851507 4292595667
-0.0064803697 -0.025003441 0.08379399 4292595667
-0.0080883214 -0.024965229 0.083942957 4292595667
-0.0096962741 -0.024927018 0.084091924 4292595667
-0.011304226 -0.024888806 0.084240891 4292595667
-0.012912174 -0.024850594 0.084389858 4292595667
-0.014520129 -0.024812382 0.084538825 4292858839
-0.016214162 -0.027596517 0.085867397 4292661460
-0.017736029 -0.024735959 0.084836759 4292398288
-0.019343985 -0.024697747 0.084985726 4292200909
-0.020951932 -0.024659537 0.085134692 4292200909
-0.022623368 -0.027444206 0.086461172 4292332495
-0.024167838 -0.024583112 0.085432619 4292398288
-0.025775788 -0.0245449 0.085581586 4292398284
-0.027430272 -0.027329976 0.0869065 4291741120
-0.029032573 -0.027291898 0.087054946 4293582292
-0.030634874 -0.02725382 0.087203383 4293512649
-0.032237176 -0.027215743 0.087351829 4289892235
-0.033839475 -0.027177665 0.087500274 4283246372
0.014958566 -0.01885939 0.080771916 4292003286
0.013339195 -0.018820908 0.080921941 4293517290
0.011596181 -0.020693688 0.081873432 4292464599
0.0099806311 -0.020655297 0.082023099 4292135886
0.0083650844 -0.020616904 0.082172774 4291938248
0.0066378964 -0.022481078 0.083119072 4291938246
0.0050261547 -0.022442777 0.083268389 4292003530
0.0034144165 -0.022404475 0.083417706 4292003276
0.0017029266 -0.024260031 0.084358834 4292397266
9.4974697e-05 -0.024221821 0.084507801 4292726231
-0.0015129735 -0.024183609 0.084656768 4292595413
-0.0031209253 -0.024145396 0.084805734 4292595667
-0.0047288775 -0.024107186 0.084954701 4292595667
-0.0063368292 -0.024068974 0.085103668 4292595667
-0.0080596209 -0.026855703 0.086430281 4292595667
-0.009552733 -0.02399255 0.085401602 4292595667
-0.011160685 -0.023954339 0.085550569 4292595667
-0.012866526 -0.026741471 0.08687561 4292595667
-0.014468823 -0.026703395 0.087024055 4292727253
-0.016071122 -0.026665317 0.087172501 4292529874
-0.017673424 -0.026627239 0.087320946 4292332495
-0.019275727 -0.026589163 0.087469384 4292200909
-0.020808393 -0.023725068 0.08644437 4292200909
-0.022480328 -0.026513007 0.087766275 4292266702
-0.024082631 -0.02647493 0.087914713 4292266702
-0.025684932 -0.026436852 0.088063158 4292201420
-0.027287232 -0.026398774 0.088211603 4292136391
-0.028889535 -0.026360698 0.088360049 4292792777
-0.030491835 -0.02632262 0.088508487 4293315270
-0.032094136 -0.026284542 0.088656932 4291471780
-0.033696435 -0.026246466 0.088805377 4284694588
0.013355944 -0.019793192 0.083039641 4292858847
0.011740401 -0.019754799 0.083189309 4292530392
0.010124851 -0.019716406 0.083338983 4292135886
0.0083935196 -0.021582698 0.08428254 4291938248
0.0067817774 -0.021544397 0.084431857 4291938246
0.0051700356 -0.021506095 0.084581174 4292003530
0.0034544256 -0.02336376 0.085519575 4292003276
0.0018464701 -0.023325548 0.085668541 4292200657
9.4925388e-05 -0.0261149 0.086993158 4292529622
-0.0015073786 -0.026076822 0.087141603 4292595413
-0.0031096791 -0.026038744 0.087290049 4292595667
-0.0045853336 -0.023172701 0.086264409 4292595667
-0.0063142795 -0.025962589 0.087586932 4292595667
-0.0079165837 -0.025924513 0.087735377 4292595667
-0.0095188841 -0.025886435 0.087883815 4292595667
-0.011121185 -0.025848357 0.088032261 4292595667
-0.012723489 -0.025810281 0.088180706 4292595667
-0.014325785 -0.025772203 0.088329144 4292595667
-0.015928086 -0.025734125 0.088477589 4292464081
-0.017530385 -0.025696049 0.088626035 4292266702
-0.019132691 -0.02565797 0.08877448 4292200909
-0.02073499 -0.025619892 0.088922918 4292200909
-0.02233729 -0.025581816 0.089071363 4292200909
-0.023939593 -0.025543738 0.089219809 4292200909
-0.025541894 -0.02550566 0.089368254 4292069834
-0.027144196 -0.025467584 0.089516692 4292333770
-0.028746497 -0.025429506 0.089665137 4293254098
-0.030348798 -0.02539143 0.089813583 4293250247
-0.0319511 -0.025353352 0.089962021 4290484631
-0.033553399 -0.025315274 0.090110466 4283707695
-0.035155699 -0.025277197 0.090258911 4281932569
0.013372619 -0.02076092 0.085147373 4293253605
0.01176088 -0.020722618 0.08529669 4292530646
0.010149139 -0.020684317 0.085446008 4292201677
0.0084218197 -0.022543918 0.086382374 4292004041
0.0068138679 -0.022505706 0.086531341 4291938246
0.0052059158 -0.022467496 0.086680308 4292003530
0.0035979678 -0.022429284 0.086829267 4291937483
0.0018402633 -0.025221786 0.088149808 4292200657
0.00023796297 -0.025183707 0.088298246 4292529622
-0.001364341 -0.025145631 0.088446692 4292595413
-0.0029666414 -0.025107553 0.088595137 4292595667
-0.0045689419 -0.025069475 0.088743582 4292595667
-0.0061712419 -0.025031399 0.08889202 4292595667
-0.0078530591 -0.026936855 0.089842476 4292595667
-0.0094514806 -0.02689887 0.089990564 4292595667
-0.011049906 -0.026860883 0.090138644 4292595667
-0.012648327 -0.026822899 0.090286732 4292595667
-0.014246752 -0.026784914 0.090434812 4292595667
-0.015845178 -0.026746929 0.0905829 4292464081
-0.017387347 -0.024764856 0.089931123 4292332495
-0.018989652 -0.02472678 0.090079568 4292266702
-0.020591952 -0.024688702 0.090228014 4292266702
-0.022194253 -0.024650624 0.090376452 4292266702
-0.023796555 -0.024612548 0.090524897 4292135116
-0.025398858 -0.02457447 0.090673342 4292004041
-0.027001157 -0.024536392 0.090821788 4292202184
-0.028603459 -0.024498316 0.090970226 4291806652
-0.030230979 -0.026405063 0.091915652 4292723904
-0.031829402 -0.026367076 0.09206374 4292656570
-0.033427827 -0.026329091 0.09221182 4285879121
-0.035026249 -0.026291106 0.092359908 4281537811
0.014801715 -0.024595214 0.088267349 4292200665
0.01319941 -0.024557136 0.088415794 4292727261
0.011597106 -0.024519058 0.088564239 4292596439
0.0099948067 -0.024480982 0.088712677 4292201677
0.0083925063 -0.024442904 0.088861123 4292004041
0.0069574099 -0.021571232 0.087841034 4291938246
0.0053494582 -0.02153302 0.087990001 4292003530
0.0035856012 -0.024328671 0.089306451 4291937483
0.0019833008 -0.024290593 0.089454897 4292134864
0.00038100057 -0.024252517 0.089603342 4292463829
-0.0012213035 -0.024214439 0.089751787 4292595413
-0.0029151009 -0.026121877 0.09070015 4292595667
-0.0045135259 -0.026083892 0.090848237 4292595667
-0.0061119474 -0.026045907 0.090996318 4292595667
-0.0077103688 -0.026007922 0.091144405 4292595667
-0.0093087899 -0.025969937 0.091292486 4292595667
-0.010907215 -0.025931951 0.091440573 4292595667
-0.012505637 -0.025893966 0.091588654 4292595667
-0.014104062 -0.025855981 0.091736741 4292661460
-0.015702486 -0.025817996 0.091884822 4292529874
-0.017300904 -0.025780011 0.092032909 4292332495
-0.018899329 -0.025742026 0.09218099 4292266702
-0.020448916 -0.02375751 0.091533102 4292266702
-0.022096174 -0.025666054 0.092477158 4292266702
-0.023694597 -0.025628069 0.092625245 4292200909
-0.025293019 -0.025590084 0.092773326 4292069834
-0.026891444 -0.0255521 0.092921413 4292202698
-0.028489867 -0.025514115 0.093069494 4293583320
-0.030088289 -0.02547613 0.093217582 4293645263
-0.031686712 -0.025438143 0.093365662 4290551194
-0.033285134 -0.025400158 0.09351375 4283905331
-0.034883555 -0.025362173 0.09366183 4282722598
0.014944754 -0.023664013 0.089572452 4290818753
0.013342449 -0.023625936 0.089720897 4293450984
0.011740145 -0.023587858 0.089869343 4292596439
0.010137845 -0.02354978 0.090017781 4292267470
0.0085355444 -0.023511704 0.090166226 4292004041
0.0069332444 -0.023473626 0.090314671 4291938246
0.005330944 -0.02343555 0.090463117 4292003530
0.00372864 -0.023397472 0.090611555 4291937483
0.0021263398 -0.023359394 0.09076 4292134864
0.00042443746 -0.025268907 0.091705918 4292463829
-0.0011739876 -0.025230922 0.091854006 4292595413
-0.002772409 -0.025192937 0.092002086 4292595667
-0.0043708342 -0.025154952 0.092150174 4292595667
-0.0060500577 -0.026988799 0.093063198 4292595667
-0.0076447558 -0.026950901 0.093210936 4292595667
-0.0092394501 -0.026913006 0.093358673 4292595667
-0.010764523 -0.02500301 0.09274251 4292595667
-0.012428842 -0.026837211 0.093654156 4292595667
-0.01396137 -0.024927041 0.093038678 4292661460
-0.015618232 -0.026761418 0.093949631 4292529874
-0.017158212 -0.024851069 0.093334846 4292332495
-0.018756637 -0.024813084 0.093482926 4292266702
-0.020355059 -0.024775099 0.093631014 4292266702
-0.021953482 -0.024737114 0.093779095 4292266702
-0.023551906 -0.024699129 0.093927182 4292266702
-0.025150327 -0.024661144 0.094075263 4292135627
-0.026748752 -0.024623157 0.09422335 4291939526
-0.028347176 -0.024585173 0.094371431 4292267460
-0.029945597 -0.024547188 0.094519518 4293184712
-0.031544019 -0.024509203 0.094667599 4292262325
-0.033142444 -0.024471218 0.094815686 4285615949
-0.034740865 -0.024433233 0.094963767 4282196254
-0.036339287 -0.024395246 0.095111854 4283054904
0.015087791 -0.022732822 0.090877548 4291279304
0.013485488 -0.022694744 0.091025986 4292793052
0.011883183 -0.022656668 0.091174431 4292662232
0.010280883 -0.02261859 0.091322877 4292267470
0.0086785825 -0.022580512 0.091471322 4292004041
0.0070762821 -0.022542436 0.09161976 4291938246
0.0054739816 -0.022504358 0.091768205 4291937737
0.0037639721 -0.024415936 0.092711695 4291937483
0.0021655508 -0.024377951 0.092859775 4292134864
0.00056712946 -0.024339966 0.093007855 4292463829
-0.0010312956 -0.02430198 0.093155943 4292595413
-0.0027183089 -0.026137814 0.094066627 4292595667
-0.0043130033 -0.026099917 0.094214365 4292595667
-0.005991335 -0.027993763 0.095147483 4292595667
-0.0075821877 -0.027955957 0.095294863 4292595667
-0.0091730403 -0.027918151 0.095442243 4292595667
-0.010763897 -0.027880346 0.09558963 4292595667
-0.012286483 -0.025910433 0.09495306 4292595667
-0.013881178 -0.025872538 0.095100798 4292661460
-0.015475872 -0.02583464 0.095248535 4292464081
-0.017070571 -0.025796745 0.095396273 4292266702
-0.018613946 -0.023884144 0.094784863 4292135116
-0.020212367 -0.023846157 0.094932951 4292135116
-0.021810791 -0.023808172 0.095081031 4292200909
-0.023409214 -0.023770187 0.095229119 4292200909
-0.025007635 -0.023732202 0.095377199 4292135627
-0.026606061 -0.023694217 0.095525287 4291874246
-0.028204484 -0.023656232 0.095673367 4293122769
-0.029802905 -0.023618245 0.095821455 4293382091
-0.031401329 -0.023580261 0.095969535 4290617500
-0.03299975 -0.023542276 0.096117623 4283839538
-0.034598172 -0.023504291 0.096265703 4281933082
-0.036196597 -0.023466306 0.096413791 4283383869
-0.037795018 -0.023428321 0.096561871 4283648841
0.01669405 -0.023790877 0.092828959 4285752692
0.015095625 -0.023752891 0.09297704 4290621885
0.013497207 -0.023714906 0.093125127 4293187810
0.012026221 -0.021725476 0.09247952 4292727512
0.01042392 -0.021687398 0.092627965 4292333006
0.0088216197 -0.021649322 0.09277641 4292135114
0.0071035107 -0.023562966 0.093717463 4292003526
0.0055050855 -0.023524979 0.093865544 4292068551
0.003906664 -0.023486994 0.094013631 4292068553
0.0023082427 -0.023449009 0.094161712 4292265680
0.00061344559 -0.025286838 0.095070042 4292398036
-0.00098125252 -0.025248941 0.095217779 4292595413
-0.0026676059 -0.027144829 0.096148491 4292595667
-0.0042584622 -0.027107023 0.096295871 4292595667
-0.0058493186 -0.027069217 0.096443258 4292595667
-0.0075171795 -0.028889984 0.097341992 4292595667
-0.0090310238 -0.026993606 0.096738018 4292595667
-0.01062188 -0.026955802 0.096885405 4292595667
-0.012212733 -0.026917996 0.097032785 4292595667
-0.013803589 -0.02688019 0.097180173 4292661460
-0.015394442 -0.026842386 0.097327553 4292398288
-0.016985293 -0.026804579 0.097474933 4292135116
-0.018576151 -0.026766775 0.09762232 4292003530
-0.020167004 -0.026728969 0.0977697 4292003276
-0.02175786 -0.026691163 0.09791708 4292069323
-0.023348713 -0.026653359 0.098064467 4292134862
-0.02490169 -0.024680492 0.097433865 4292135373
-0.026496386 -0.024642596 0.097581603 4292333517
-0.028091082 -0.024604699 0.09772934 4292595916
-0.029685777 -0.024566801 0.097877078 4293119174
-0.031280473 -0.024528906 0.098024815 4291735979
-0.03285706 -0.022613335 0.09741956 4284695869
-0.034455482 -0.022575349 0.09756764 4281341198
-0.036053903 -0.022537364 0.097715728 4282396202
-0.037652325 -0.022499379 0.097863808 4283385156
0.016836742 -0.022861935 0.094130896 4284503646
0.015238317 -0.02282395 0.094278976 4291346118
0.013639899 -0.022785965 0.094427064 4292793564
0.012041474 -0.02274798 0.094575144 4292858585
0.010443049 -0.022709994 0.094723232 4292660688
0.0088446243 -0.022672009 0.094871312 4292397259
0.0072462028 -0.022634024 0.0950194 4292330694
0.0056477776 -0.022596039 0.09516748 4292199110
0.0039451979 -0.024435854 0.096073471 4292199112
0.0023504996 -0.024397958 0.096221209 4292331214
0.00065611454 -0.026295902 0.097149491 4292726485
-0.00093473803 -0.026258098 0.097296871 4292726999
-0.0025255906 -0.026220292 0.097444251 4292595926
-0.0042011654 -0.028043011 0.09834069 4292595926
-0.0057883286 -0.028005295 0.098487727 4292530133
-0.0073754913 -0.027967576 0.098634772 4292464340
-0.0089626536 -0.027929859 0.098781809 4292398547
-0.010549816 -0.027892141 0.098928854 4292463827
-0.01213698 -0.027854424 0.099075891 4292398034
-0.013661574 -0.025955655 0.098475933 4292266448
-0.015311305 -0.027778989 0.099369973 4292200655
-0.016843278 -0.025880044 0.0987707 4292265934
-0.018434135 -0.025842238 0.09891808 4292200141
-0.020024989 -0.025804432 0.09906546 4292134094
-0.021615844 -0.025766628 0.099212848 4292134348
-0.023206698 -0.025728822 0.099360228 4292134094
-0.024797551 -0.025691018 0.099507615 4292134094
-0.026388407 -0.025653211 0.099654995 4292660181
-0.02797926 -0.025615405 0.099802375 4293054419
-0.029570114 -0.025577601 0.099949762 4293974481
-0.031160969 -0.025539795 0.10009714 4290158481
-0.032751825 -0.025501991 0.10024453 4285157441
-0.034342676 -0.025464185 0.10039191 4281473805
-0.03591121 -0.021608423 0.099017665 4282724395
-0.037509635 -0.021570439 0.099165745 4283449408
0.016979434 -0.021932993 0.095432833 4283056970
0.015381009 -0.021895008 0.095580913 4290097335
0.013782592 -0.021857023 0.095729001 4293386472
0.012184166 -0.021819038 0.095877081 4292727512
0.010585741 -0.021781053 0.096025169 4292594897
0.0089873159 -0.021743068 0.096173249 4292331466
0.0073888944 -0.021705082 0.096321337 4292330694
0.0056822505 -0.023546983 0.097224623 4292264901
0.0040875562 -0.023509085 0.097372361 4292264903
0.0024928579 -0.023471188 0.097520106 4292397005
0.00079812988 -0.025371367 0.098445252 4292792276
-0.00079272274 -0.025333561 0.098592632 4292726999
-0.0024723173 -0.02715834 0.099486403 4292595926
-0.00405948 -0.027120622 0.09963344 4292595926
-0.0056466428 -0.027082905 0.099780485 4292530133
-0.0072338055 -0.027045187 0.099927522 4292464340
-0.0088209687 -0.02700747 0.10007457 4292398547
-0.010408131 -0.026969751 0.1002216 4292463827
-0.011995294 -0.026932035 0.10036865 4292398034
-0.013582457 -0.026894316 0.10051569 4292332241
-0.01516962 -0.026856599 0.10066273 4292332241
-0.016756782 -0.026818881 0.10080977 4292397266
-0.018343944 -0.026781164 0.10095681 4292331473
-0.019931106 -0.026743446 0.10110385 4292265680
-0.02151827 -0.026705729 0.10125089 4292265680
-0.023105431 -0.02666801 0.10139793 4292265680
-0.024692595 -0.026630294 0.10154498 4292331214
-0.026279757 -0.026592575 0.10169201 4292593870
-0.02786692 -0.026554858 0.10183906 4293185232
-0.029454082 -0.02651714 0.1019861 4293316803
-0.031041246 -0.026479423 0.10213314 4290026891
-0.032609809 -0.024577454 0.10154029 4284038960
-0.034200661 -0.024539648 0.10168767 4281802517
-0.03576852 -0.020679481 0.1003196 4282987318
0.017122125 -0.021004053 0.09673477 4282729037
0.015523701 -0.020966068 0.096882857 4289966013
0.013925283 -0.020928083 0.097030938 4292991975
0.012326858 -0.020890096 0.097179018 4292465370
0.010728433 -0.020852111 0.097327106 4292332754
0.0091300076 -0.020814126 0.097475193 4292200137
0.0074193082 -0.0226581 0.09837579 4292265671
0.0057127117 -0.024560237 0.09929888 4292199878
0.0041218554 -0.024522433 0.099446259 4292200391
0.0025310027 -0.024484627 0.099593647 4292332491
0.00084369152 -0.026311377 0.10048509 4292727251
-0.00074347126 -0.026273658 0.10063213 4292661717
-0.0023306303 -0.026235942 0.10077917 4292595926
-0.0039177933 -0.026198223 0.10092621 4292595926
-0.005504956 -0.026160507 0.10107325 4292530133
-0.0070921187 -0.026122788 0.10122029 4292464340
-0.0087558804 -0.028007656 0.10213221 4292398547
-0.010266445 -0.026047353 0.10151438 4292463827
-0.011853607 -0.026009636 0.10166141 4292398034
-0.01344077 -0.025971917 0.10180846 4292463827
-0.015027933 -0.025934201 0.1019555 4292463827
-0.016615095 -0.025896482 0.10210254 4292529106
-0.018202258 -0.025858765 0.10224958 4292463313
-0.019789418 -0.025821047 0.10239662 4292397520
-0.021376582 -0.02578333 0.10254366 4292397520
-0.022963744 -0.025745612 0.1026907 4292397520
-0.024550907 -0.025707895 0.10283774 4292463052
-0.026138071 -0.025670176 0.10298478 4292725957
-0.027725233 -0.02563246 0.10313182 4293449159
-0.029312396 -0.025594741 0.10327886 4293185468
-0.030899558 -0.025557024 0.10342591 4290026891
-0.032486718 -0.025519306 0.10357294 4282986021
-0.034073882 -0.025481589 0.10371999 4281801761
0.017264819 -0.020075111 0.098036706 4281150524
0.01553514 -0.021920808 0.098936006 4288190375
0.013940446 -0.02188291 0.099083744 4293585142
0.012345752 -0.021845013 0.099231482 4292334043
0.010751056 -0.021807117 0.099379219 4292070865
0.0091563622 -0.02176922 0.099526957 4291938248
0.0074455831 -0.023673506 0.10044726 4292069319
0.0058547272 -0.023635702 0.10059464 4292135367
0.0041597025 -0.025464423 0.10148376 4292201160
0.002673018 -0.02356009 0.10088941 4292398796
0.00098537712 -0.025388988 0.10177784 4292662482
-0.00060178566 -0.025351269 0.10192489 4292661717
-0.0021889447 -0.025313552 0.10207193 4292595926
-0.0037761074 -0.025275834 0.10221896 4292595926
-0.0053632702 -0.025238117 0.10236601 4292530133
-0.0070311748 -0.027125092 0.10327519 4292464340
-0.0086145326 -0.027087465 0.10342188 4292398547
-0.010124759 -0.025124963 0.10280713 4292463827
-0.011781245 -0.02701221 0.10371526 4292398034
-0.013299084 -0.025049528 0.10310121 4292529620
-0.014947961 -0.026936956 0.10400864 4292463827
-0.016473411 -0.024974093 0.10339529 4292529106
-0.018114673 -0.026861701 0.10430201 4292529106
-0.019647734 -0.024898658 0.10368937 4292463313
-0.021281386 -0.026786447 0.10459539 4292463313
-0.02282206 -0.024823222 0.10398345 4292463313
-0.024409221 -0.024785506 0.1041305 4292594636
-0.025996385 -0.024747787 0.10427754 4292331450
-0.027583547 -0.02471007 0.10442458 4293252031
-0.029198172 -0.026598312 0.10532883 4293448379
-0.030757872 -0.024634635 0.10471866 4289828996
-0.032345034 -0.024596917 0.1048657 4282985508
-0.033932198 -0.0245592 0.10501274 4281998115
0.0172722 -0.021031935 0.10008716 4281874766
0.015677499 -0.020994037 0.1002349 4288717237
0.01395101 -0.022900183 0.10115351 4291941346
0.01248811 -0.020918244 0.10053037 4292137693
0.010769309 -0.022824572 0.10144827 4291939538
0.0091784485 -0.022786768 0.10159566 4291872712
0.0075876 -0.022748962 0.10174304 4292069832
0.0059967437 -0.022711156 0.10189041 4292201417
0.0043013911 -0.024542015 0.10277654 4292267977
0.0027142281 -0.024504298 0.10292358 4292334284
0.0011270653 -0.02446658 0.10307062 4292531666
-0.00046009745 -0.024428863 0.10321766 4292596437
-0.0020472566 -0.024391145 0.10336471 4292595926
-0.0037231122 -0.026280163 0.10427148 4292595926
-0.0053064702 -0.026242537 0.10441817 4292530133
-0.006889828 -0.02620491 0.10456486 4292464340
-0.0084731858 -0.026167283 0.10471155 4292398547
-0.01005654 -0.026129656 0.10485823 4292463827
-0.011639899 -0.026092028 0.10500492 4292398034
-0.013223257 -0.026054401 0.10515161 4292463827
-0.014806614 -0.026016774 0.1052983 4292398034
-0.016389968 -0.025979146 0.10544498 4292463313
-0.017973326 -0.025941519 0.10559168 4292463313
-0.019556683 -0.025903892 0.10573836 4292463313
-0.021140039 -0.025866264 0.10588505 4292463313
-0.022723397 -0.025828637 0.10603174 4292463313
-0.024306754 -0.02579101 0.10617843 4292594636
-0.025890112 -0.025753383 0.10632511 4292791749
-0.027473466 -0.025715755 0.10647181 4293054398
-0.029056825 -0.025678128 0.10661849 4293184439
-0.030640181 -0.025640501 0.10676518 4288117606
-0.032223538 -0.025602873 0.10691187 4282392082
-0.033806894 -0.025565248 0.10705855 4280483840
0.017414559 -0.020105166 0.10138605 4281019716
0.015819857 -0.020067269 0.10153379 4287599014
0.014093027 -0.021975638 0.10244928 4293059573
0.012502175 -0.021937834 0.10259666 4292203488
0.010911326 -0.021900028 0.10274404 4291808467
0.0093204658 -0.021862222 0.10289143 4291741898
0.0077296165 -0.021824418 0.10303881 4292004552
0.0060302392 -0.023657344 0.10392226 4292267723
0.0044430764 -0.023619626 0.1040693 4292333770
0.0028559137 -0.023581909 0.10421634 4292334284
0.0012687509 -0.02354419 0.10436338 4292531666
-0.0004150547 -0.025435245 0.10526776 4292596437
-0.0019984127 -0.025397617 0.10541444 4292595926
-0.003581767 -0.02535999 0.10556113 4292595926
-0.0051651248 -0.025322363 0.10570782 4292530133
-0.0067484831 -0.025284735 0.1058545 4292464340
-0.0083318409 -0.025247108 0.1060012 4292398547
-0.0099151954 -0.025209481 0.10614789 4292463827
-0.011498554 -0.025171854 0.10629457 4292398034
-0.013081911 -0.025134226 0.10644126 4292398034
-0.014665269 -0.025096599 0.10658795 4292332241
-0.016248623 -0.025058972 0.10673463 4292463313
-0.017831981 -0.025021344 0.10688133 4292397520
-0.019415338 -0.024983717 0.10702801 4292397520
-0.020998694 -0.02494609 0.1071747 4292463313
-0.022582052 -0.024908463 0.10732139 4292463313
-0.024165409 -0.024870835 0.10746808 4292529102
-0.025748765 -0.02483321 0.10761476 4292989904
-0.027332122 -0.024795583 0.10776145 4292792519
-0.02891548 -0.024757955 0.10790814 4292199092
-0.030523058 -0.026641576 0.10880189 4287525989
-0.03210263 -0.026604038 0.10894823 4284037422
-0.033682197 -0.026566502 0.10909457 4282457110
0.015962217 -0.019140484 0.1028327 4287796135
0.014235044 -0.021051094 0.10374506 4292665069
0.012644191 -0.021013288 0.10389244 4292269279
0.011053342 -0.020975484 0.10403982 4292005332
0.0094624823 -0.020937677 0.10418721 4291872714
0.0077590891 -0.022772662 0.10506798 4292135625
0.0061719259 -0.022734946 0.10521503 4292398796
0.0045847632 -0.022697227 0.10536207 4292399309
0.0029976007 -0.02265951 0.1055091 4292400079
0.0013096512 -0.024552681 0.10641074 4292531666
-0.0002737068 -0.024515053 0.10655743 4292596437
-0.0018570648 -0.024477426 0.10670412 4292595926
-0.003440419 -0.024439799 0.1068508 4292595926
-0.005023777 -0.024402171 0.10699749 4292530133
-0.0066071348 -0.024364544 0.10714418 4292464340
-0.0081904931 -0.024326917 0.10729087 4292398547
-0.0097738476 -0.024289289 0.10743756 4292464081
-0.011357205 -0.024251662 0.10758425 4292398288
-0.012940563 -0.024214035 0.10773093 4292398288
-0.014523922 -0.024176408 0.10787762 4292398288
-0.016165921 -0.026061425 0.10877144 4292463311
-0.017690634 -0.024101153 0.108171 4292463311
-0.019273989 -0.024063526 0.10831769 4292463311
-0.02090463 -0.025948813 0.10921045 4292529104
-0.022440704 -0.023988271 0.10861106 4292529104
-0.02406377 -0.025873739 0.10950313 4292398545
-0.025643339 -0.025836203 0.10964946 4292006101
-0.027222909 -0.025798665 0.1097958 4292137685
-0.028802479 -0.025761127 0.10994214 4291477695
-0.030407332 -0.027703751 0.11085438 4289633432
-0.031983003 -0.027666306 0.11100036 4288974215
-0.033558674 -0.027628861 0.11114634 4289433224
0.016104575 -0.018213714 0.1041316 4286479757
0.014249429 -0.022001144 0.10577258 4293124591
0.012662263 -0.021963427 0.10591961 4292334815
0.011075104 -0.021925708 0.10606666 4292070611
0.0094879372 -0.021887992 0.1062137 4292003787
0.0079007745 -0.021850273 0.10636074 4292200907
0.0063136118 -0.021812556 0.10650778 4292464077
0.004726449 -0.021774838 0.10665482 4292530383
0.0031392863 -0.021737121 0.10680186 4292530642
0.0014509978 -0.023632497 0.1077004 4292596435
-0.00013236019 -0.023594869 0.10784709 4292661719
-0.0017157182 -0.023557242 0.10799378 4292595926
-0.0032990724 -0.023519615 0.10814047 4292595926
-0.0048824307 -0.023481987 0.10828716 4292530133
-0.0064657885 -0.023444362 0.10843384 4292464340
-0.0080491463 -0.023406735 0.10858053 4292398547
-0.0096325008 -0.023369107 0.10872722 4292464081
-0.011215859 -0.02333148 0.10887391 4292398288
-0.012799216 -0.023293853 0.1090206 4292464081
-0.014445341 -0.025180979 0.10991168 4292398288
-0.016024914 -0.025143441 0.11005802 4292529104
-0.017604481 -0.025105905 0.11020435 4292529104
-0.019184053 -0.025068367 0.11035069 4292529104
-0.020763621 -0.025030829 0.11049703 4292529102
-0.02234319 -0.024993293 0.11064337 4292594895
-0.02392276 -0.024955755 0.11078971 4292464340
-0.025502332 -0.024918217 0.11093605 4292269020
-0.027081901 -0.024880681 0.11108238 4292795366
-0.028661471 -0.024843143 0.11122872 4291477194
-0.030241041 -0.024805605 0.11137506 4291540930
-0.031842344 -0.026750589 0.11228376 4291933633
-0.033418015 -0.026713144 0.11242974 4293313998
0.015978267 -0.021116463 0.10691831 4287203220
0.014391116 -0.021078745 0.10706534 4291742678
0.012803949 -0.021041028 0.10721239 4292596956
0.01121679 -0.02100331 0.10735942 4292464342
0.009629624 -0.020965593 0.10750647 4292200909
0.0080424612 -0.020927874 0.10765351 4292331725
0.0064552985 -0.020890158 0.10780054 4292594895
0.0047590579 -0.02278756 0.1086967 4292726483
0.0031757038 -0.022749932 0.10884339 4292595413
0.0015923458 -0.022712305 0.10899008 4292464340
8.987723e-06 -0.022674678 0.10913677 4292530133
-0.0015743703 -0.022637051 0.10928345 4292530133
-0.0031577246 -0.022599423 0.10943014 4292530133
-0.0047410824 -0.022561798 0.10957683 4292530133
-0.0063244407 -0.022524171 0.10972352 4292530133
-0.0079860566 -0.024413142 0.11061291 4292595926
-0.0095656207 -0.024375606 0.11075925 4292661460
-0.011145193 -0.024338068 0.11090559 4292661460
-0.012724765 -0.024300531 0.11105192 4292135114
-0.014304332 -0.024262995 0.11119826 4292398286
-0.015883904 -0.024225457 0.1113446 4292858067
-0.017463472 -0.024187919 0.11149094 4292858067
-0.019043043 -0.024150383 0.11163727 4292463309
-0.020622613 -0.024112845 0.11178361 4292134598
-0.022202183 -0.024075307 0.11192995 4292397770
-0.023781752 -0.024037771 0.11207629 4292989655
-0.025361322 -0.024000233 0.11222263 4292594646
-0.026940892 -0.023962697 0.11236896 4293646825
-0.028520461 -0.023925159 0.1125153 4291604679
-0.030100031 -0.023887621 0.11266164 4289299619
-0.03170168 -0.025834871 0.11356717 4291336895
-0.033259172 -0.023812547 0.11295431 4290216620
-0.03483874 -0.023775009 0.11310065 4290610351
0.017707128 -0.020231783 0.10806403 4284505444
0.016119955 -0.020194065 0.10821107 4290295230
0.014400547 -0.022093149 0.10910622 4293386731
0.012817193 -0.022055522 0.10925291 4292464600
0.011233835 -0.022017894 0.1093996 4292398034
0.0096504772 -0.021980267 0.10954629 4292397007
0.0080671189 -0.02194264 0.10969298 4292462798
0.0064837611 -0.021905012 0.10983966 4292725970
0.0049004033 -0.021867385 0.10998635 4292923351
0.003317049 -0.02182976 0.11013304 4292857817
0.0016323716 -0.023720382 0.11102147 4292595415
5.2803505e-05 -0.023682844 0.11116781 4292398549
-0.0015267682 -0.023645306 0.11131415 4292398547
-0.0031063363 -0.02360777 0.11146048 4292398547
-0.0046859081 -0.023570232 0.11160682 4292464340
-0.0062654759 -0.023532696 0.11175316 4292530133
-0.0078450479 -0.023495158 0.1118995 4292530133
-0.0094246119 -0.02345762 0.11204583 4292661460
-0.011004183 -0.023420084 0.11219217 4292661460
-0.012583756 -0.023382546 0.11233851 4292661458
-0.014163324 -0.023345008 0.11248484 4292200907
-0.015804313 -0.0252936 0.11339081 4292002758
-0.017322464 -0.023269935 0.11277752 4292068805
-0.018902035 -0.023232399 0.11292385 4292331977
-0.020481603 -0.023194861 0.11307019 4292529356
-0.022061173 -0.023157323 0.11321653 4292726735
-0.023640743 -0.023119787 0.11336287 4292989394
-0.025258336 -0.025068933 0.11426666 4293447637
-0.026834007 -0.025031488 0.11441264 4291406521
-0.028379453 -0.023007175 0.11380188 4287522690
-0.029985351 -0.024956599 0.11470459 4283244356
-0.031561021 -0.024919154 0.11485057 4285544551
-0.033136692 -0.024881709 0.11499655 4283833423
-0.03469773 -0.022857025 0.11438723 4284293461
0.017848816 -0.019309385 0.1093568 4290623678
0.016261641 -0.019271666 0.10950384 4293518571
0.014541895 -0.021172957 0.11039589 4292136405
0.012958542 -0.02113533 0.11054259 4292332756
0.011375183 -0.021097703 0.11068927 4292266448
0.009791825 -0.021060076 0.11083596 4292462800
0.0082084667 -0.021022448 0.11098265 4292725456
0.006512092 -0.022915008 0.11186904 4292988374
0.0049325204 -0.022877472 0.11201538 4293054937
0.0033529522 -0.022839934 0.11216172 4292923611
0.0017733804 -0.022802398 0.11230806 4292727002
0.00019381243 -0.02276486 0.11245439 4292398549
-0.0013857593 -0.022727322 0.11260073 4292398549
-0.0029653274 -0.022689786 0.11274707 4292398547
-0.0045448993 -0.022652248 0.1128934 4292464340
-0.0061244671 -0.02261471 0.11303974 4292530133
-0.007785297 -0.024565104 0.11394433 4292595926
-0.0093609709 -0.02452766 0.11409031 4292661460
-0.010936637 -0.024490217 0.11423629 4292661460
-0.012512312 -0.024452772 0.11438226 4292793044
-0.014087982 -0.024415327 0.11452824 4292398286
-0.015663654 -0.024377882 0.11467421 4292266184
-0.017239323 -0.024340438 0.11482019 4292463563
-0.018814992 -0.024302993 0.11496616 4292660942
-0.020390665 -0.024265548 0.11511214 4292529355
-0.021966336 -0.024228103 0.11525812 4292463562
-0.023542007 -0.024190661 0.11540409 4292725192
-0.025117677 -0.024153216 0.11555007 4292590524
-0.026693348 -0.024115771 0.11569604 4289956498
-0.028269017 -0.024078326 0.11584202 4282520873
-0.02984469 -0.024040882 0.115988 4281729826
-0.031420361 -0.024003437 0.11613397 4280680472
-0.032996032 -0.023965992 0.11627995 4284427090
0.017990502 -0.018386995 0.11064955 4290163642
0.016266596 -0.020290403 0.11153887 4289900472
0.014683242 -0.020252775 0.11168556 4291215562
0.013099887 -0.020215148 0.11183225 4292201428
0.01151653 -0.020177521 0.11197893 4292332243
0.0098122396 -0.022072107 0.11286294 4292594386
0.008232668 -0.022034569 0.11300927 4292725970
0.0066530998 -0.021997033 0.11315561 4292923351
0.0050735278 -0.021959495 0.11330195 4293054937
0.0034939598 -0.021921959 0.11344828 4292923611
0.0018093871 -0.023874056 0.11435188 4292661209
0.00033482004 -0.021846883 0.11374096 4292530135
-0.0012447517 -0.021809347 0.1138873 4292530135
-0.0029176245 -0.023761721 0.11478981 4292530133
-0.0044932989 -0.023724277 0.11493579 4292530133
-0.0060689654 -0.023686832 0.11508176 4292595926
-0.0076446361 -0.023649387 0.11522774 4292595926
-0.0092203105 -0.023611942 0.11537372 4292661460
-0.010795977 -0.023574499 0.11551969 4292661460
-0.012371652 -0.023537055 0.11566567 4292398286
-0.013947322 -0.02349961 0.11581164 4292464077
-0.01558274 -0.025377061 0.11668222 4292792528
-0.017154662 -0.025339706 0.11682785 4292792528
-0.018726582 -0.025302351 0.11697348 4292529355
-0.020298503 -0.025264993 0.11711911 4292331976
-0.021825675 -0.023312386 0.11654152 4292660941
-0.023401348 -0.023274943 0.1166875 4293252817
-0.025014263 -0.025152927 0.117556 4291869877
-0.026586182 -0.025115572 0.11770163 4288710531
-0.028128358 -0.023162609 0.11712542 4286537578
-0.029704029 -0.023125164 0.1172714 4283707717
-0.031279698 -0.023087719 0.11741738 4287062139
-0.032836147 -0.021058602 0.11681404 4288312976
0.016271528 -0.02130427 0.11356416 4285755774
0.014691956 -0.021266734 0.11371051 4291084748
0.013112385 -0.021229196 0.11385684 4292201944
0.01153282 -0.02119166 0.11400318 4292398807
0.0099532483 -0.021154122 0.11414952 4292595413
0.0083736768 -0.021116585 0.11429586 4292858069
0.0066770595 -0.023070671 0.11519735 4292923862
0.0051013888 -0.023033226 0.11534333 4292792792
0.0035257183 -0.022995783 0.1154893 4292595928
0.0019500478 -0.022958338 0.11563528 4292530135
0.0003743773 -0.022920894 0.11578126 4292595928
-0.0011037427 -0.020891363 0.11517388 4292595928
-0.0027769639 -0.022846004 0.11607321 4292595926
-0.004352638 -0.022808559 0.11621919 4292530133
-0.005928305 -0.022771114 0.11636516 4292464340
-0.0075039756 -0.02273367 0.11651114 4292464340
-0.009154737 -0.024612946 0.11738006 4292529874
-0.010655317 -0.022658782 0.11680309 4292464081
-0.012298576 -0.024538236 0.11767132 4292266700
-0.013870497 -0.02450088 0.11781694 4292266698
-0.015442415 -0.024463525 0.11796257 4292529356
-0.017014336 -0.02442617 0.1181082 4292660941
-0.018586256 -0.024388814 0.11825383 4292595148
-0.020158177 -0.024351457 0.11839946 4292726734
-0.021685014 -0.022396669 0.11782493 4293318869
-0.023260687 -0.022359226 0.1179709 4293715421
-0.024836356 -0.022321781 0.11811688 4293785317
-0.026412025 -0.022284336 0.11826285 4292075473
-0.027987696 -0.022246892 0.11840883 4293981427
-0.029535998 -0.020215692 0.11780795 4290492607
-0.031115567 -0.020178156 0.11795428 4294372599
-0.032695137 -0.020140618 0.11810062 4292792794
0.017992109 -0.020423815 0.11470442 4280098352
0.016412538 -0.020386279 0.11485076 4286019976
0.014832966 -0.020348741 0.1149971 4290493128
0.013120403 -0.022304732 0.11589685 4292137436
0.01167383 -0.020273667 0.11528977 4292399577
0.0099690612 -0.022229843 0.11618881 4292596439
0.008393391 -0.022192398 0.11633478 4292727510
0.0068177199 -0.022154953 0.11648076 4292661717
0.0052420497 -0.02211751 0.11662673 4292595924
0.003666379 -0.022080066 0.11677271 4292464853
0.0020907086 -0.022042621 0.11691868 4292399060
0.00051503797 -0.022005176 0.11706466 4292530135
-0.0010606362 -0.021967731 0.11721064 4292530135
-0.0026363032 -0.021930287 0.11735661 4292464340
-0.0042119776 -0.021892842 0.11750259 4292464340
-0.0057876441 -0.021855397 0.11764856 4292398547
-0.0073633147 -0.021817952 0.11779454 4292398547
-0.0090144109 -0.02369941 0.11866041 4292398288
-0.010514656 -0.021743065 0.11808649 4292398286
-0.01215825 -0.0236247 0.11895166 4292661456
-0.013730171 -0.023587344 0.11909729 4292529870
-0.015302089 -0.023549989 0.11924292 4292924113
-0.01687401 -0.023512632 0.11938855 4293450457
-0.01844593 -0.023475276 0.11953418 4293450457
-0.020017851 -0.023437921 0.11967981 4292595148
-0.021589773 -0.023400566 0.11982543 4291345079
-0.023120025 -0.021443509 0.11925431 4290097322
-0.024695694 -0.021406064 0.11940028 4289575341
-0.026271366 -0.021368619 0.11954626 4291023563
-0.027815416 -0.019335236 0.11894821 4289245624
-0.029341007 -0.015410669 0.11764631 4290691536
-0.030928167 -0.015372952 0.11779335 4287598240
0.018133117 -0.01950584 0.11599099 4285559433
0.016412403 -0.021463905 0.11688831 4287665577
0.014836733 -0.02142646 0.11703428 4291152089
0.013261063 -0.021389015 0.11718026 4292072160
0.011685393 -0.02135157 0.11732624 4292269020
0.010109722 -0.021314126 0.11747221 4292465880
0.0085340515 -0.021276681 0.11761819 4292531414
0.0068451189 -0.023159418 0.11848447 4292465619
0.0052731973 -0.023122063 0.1186301 4292399826
0.0038070397 -0.021164348 0.11805611 4292334546
0.0022313693 -0.021126904 0.11820209 4292399828
0.0005574369 -0.023009997 0.11906699 4292399060
-0.00091997563 -0.021052014 0.11849404 4292530135
-0.0025864022 -0.022935286 0.11935825 4292530133
-0.0040713167 -0.020977125 0.11878599 4292530133
-0.0057302411 -0.022860575 0.11964951 4292530133
-0.0073021664 -0.02282322 0.11979514 4292595926
-0.0088740839 -0.022785865 0.11994077 4292661460
-0.010446002 -0.022748509 0.12008639 4292661458
-0.012017923 -0.022711154 0.12023202 4292858835
-0.013589844 -0.022673799 0.12037765 4292858835
-0.015161762 -0.022636443 0.12052328 4293253078
-0.016733684 -0.022599088 0.12066891 4293187285
-0.018305603 -0.022561733 0.12081453 4291937216
-0.019877525 -0.022524377 0.12096016 4289239703
-0.021449447 -0.022487022 0.12110579 4286147432
-0.022979366 -0.020527791 0.12053771 4284042828
-0.024555033 -0.020490346 0.12068368 4281740333
-0.026130704 -0.020452902 0.12082966 4282529348
-0.027674409 -0.018417262 0.12023477 4280160046
-0.02925398 -0.018379724 0.12038111 4281541196
-0.030786481 -0.014450554 0.11908612 4279238703
0.016553065 -0.020548187 0.11817171 4290755529
0.014977395 -0.020510742 0.11831769 4292400608
0.013401723 -0.020473298 0.11846367 4292334297
0.011826053 -0.020435853 0.11860964 4292400087
0.010250382 -0.020398408 0.11875562 4292531414
0.0085573625 -0.022283237 0.1196192 4292465619
