# .PCD v0.7 - Point Cloud Data file format
VERSION 0.7
FIELDS x y z rgb
SIZE 4 4 4 4
TYPE F F F U
COUNT 1 1 1 1
WIDTH 1024
HEIGHT 1
VIEWPOINT 0 0 0 1 0 0 0
POINTS 1024
DATA ascii
-0.01499333 -0.038739074 -0.0091802021 6710886
-0.01344588 -0.038731102 -0.0091868369 8618883
-0.011898557 -0.038723718 -0.0091909077 10721946
-0.010351692 -0.038719326 -0.0091820415 10327959
-0.0088048102 -0.038714934 -0.0091731744 8421504
-0.0072638942 -0.038756575 -0.008965183 8355711
-0.0057509486 -0.039032258 -0.0077445856 7697781
-0.049474683 -0.03416102 -0.022877324 8684676
-0.048032608 -0.034395996 -0.021826159 8289918
-0.046590067 -0.034640633 -0.020732833 7763574
-0.045151215 -0.03490863 -0.019537708 8158332
-0.043711793 -0.035188023 -0.018292841 8750212
-0.04226255 -0.035449281 -0.017126903 9473421
-0.040795054 -0.035662707 -0.01616933 9079177
-0.039318647 -0.035856761 -0.015296049 8026746
-0.037824992 -0.036000371 -0.014642504 8092539
-0.036321506 -0.03611638 -0.014109171 8092539
-0.034809988 -0.036209174 -0.013676991 8158332
-0.033285525 -0.0362578 -0.013437203 8224125
-0.03175652 -0.036291659 -0.013261783 8158332
-0.030219782 -0.036296293 -0.013213695 8026746
-0.028680248 -0.036289778 -0.013214171 8684676
-0.027140724 -0.036283251 -0.013214706 10523796
-0.025601216 -0.036276732 -0.013215244 10982548
-0.024061721 -0.036270205 -0.013215778 9144970
-0.022522235 -0.036263667 -0.013216373 8092539
-0.020982767 -0.036257129 -0.013216968 8092539
-0.019443311 -0.03625058 -0.013217621 8158332
-0.0179058 -0.036254555 -0.013172387 8289918
-0.016381234 -0.036332712 -0.012803791 8355711
-0.014919058 -0.036788017 -0.010791157 7829367
-0.013434689 -0.037148874 -0.0091901459 8815491
-0.011888266 -0.037141986 -0.0091921231 12161939
-0.010341703 -0.037134036 -0.0091987671 11964560
-0.0087951999 -0.037126243 -0.0092047099 9473678
-0.0072491742 -0.037121847 -0.0091958428 9473678
-0.0057102903 -0.03717545 -0.0089340992 9342349
-0.049421772 -0.032539647 -0.023165384 8092539
-0.04798327 -0.032779578 -0.022084324 9144713
-0.046542574 -0.033024192 -0.020982666 10522254
-0.045106806 -0.033295896 -0.019762004 11636109
-0.043668453 -0.033572804 -0.018518405 12289156
-0.042221662 -0.033836201 -0.017334063 12550786
-0.040759113 -0.034060627 -0.016320743 10326931
-0.039282981 -0.034250487 -0.015459137 9144713
-0.037793394 -0.034403458 -0.014759458 9539471
-0.036291573 -0.034520924 -0.01421564 9867922
-0.034782838 -0.034619641 -0.013754125 10130323
-0.033261854 -0.034677554 -0.01347175 10261652
-0.031733312 -0.034709495 -0.013303413 9736336
-0.030199675 -0.034723051 -0.01321581 8421504
-0.028661063 -0.034716971 -0.013214424 8947591
-0.02712236 -0.034710474 -0.013214907 11374993
-0.025583666 -0.034703955 -0.013215447 12224391
-0.024044985 -0.034697428 -0.013216045 11114134
-0.022506317 -0.034690902 -0.013216644 10524310
-0.020967666 -0.034684371 -0.013217242 10458774
-0.019429024 -0.034677826 -0.013217897 10458517
-0.017890399 -0.034671288 -0.013218555 10392724
-0.016358687 -0.03470359 -0.013048578 10458774
-0.014838421 -0.034806587 -0.012568017 10721432
-0.013423407 -0.035567716 -0.0091961781 10193546
-0.011877794 -0.035560708 -0.0091987429 10196116
-0.010332271 -0.035554186 -0.0091992095 12748422
-0.0087866243 -0.035546672 -0.0092039919 12552585
-0.007240952 -0.03553874 -0.0092106424 12553099
-0.0056953337 -0.035530977 -0.009216533 12553099
-0.0041726106 -0.035719 -0.008362175 11826292
-0.049370747 -0.030926203 -0.023430139 8684676
-0.047934022 -0.031165844 -0.022341976 10655639
-0.046496335 -0.031413909 -0.02121645 11569288
-0.045062456 -0.031685684 -0.019985983 12419457
-0.04362518 -0.031960126 -0.018743597 10915470
-0.042180926 -0.032225877 -0.017539605 11764868
-0.04072322 -0.03246079 -0.016471999 12223620
-0.039247446 -0.032646783 -0.015620798 12551814
-0.037761837 -0.032808673 -0.014876219 12552071
-0.036261648 -0.032927442 -0.014322429 12355977
-0.034755725 -0.033032071 -0.013831139 12160140
-0.033238214 -0.033099115 -0.013506186 11898253
-0.031710133 -0.033129167 -0.013344944 10326160
-0.030179366 -0.033150584 -0.013221932 8553090
-0.028641904 -0.033145852 -0.013214594 8881798
-0.027104011 -0.033139352 -0.01321514 10850705
-0.025566135 -0.033132844 -0.013215683 11831175
-0.024028268 -0.033126324 -0.013216286 11964046
-0.022490419 -0.03311982 -0.013216829 12030610
-0.02095258 -0.033113282 -0.013217488 12030610
-0.019414758 -0.033106767 -0.013218091 11899024
-0.017876949 -0.033100247 -0.013218693 11832974
-0.016339149 -0.033093721 -0.013219356 12355977
-0.014812788 -0.033153836 -0.012924911 12489619
-0.013316435 -0.033403501 -0.011791257 9933715
-0.011867343 -0.033981185 -0.0092051122 9011328
-0.010322598 -0.033974323 -0.0092070997 11700617
-0.0087778633 -0.033967391 -0.0092094392 10720404
-0.0072332225 -0.033961013 -0.0092092659 10917783
-0.0056884019 -0.0339531 -0.009215923 11049626
-0.0041535264 -0.034029435 -0.0088494867 11114905
-0.049320456 -0.029317293 -0.023686208 11637908
-0.047884844 -0.029554758 -0.022599224 11048341
-0.046450395 -0.029806869 -0.021446832 10063759
-0.045018185 -0.030078005 -0.020209525 11767181
-0.04358197 -0.030349955 -0.01896853 9341835
-0.042140264 -0.030618027 -0.017744752 10850962
-0.040687378 -0.030863203 -0.016622977 11047570
-0.039212603 -0.031047527 -0.015772555 10720404
-0.037730318 -0.031215977 -0.014992902 10589589
-0.03623176 -0.031336024 -0.014429068 10392981
-0.034727421 -0.03144199 -0.013928005 10327702
-0.033214599 -0.031522475 -0.013540576 10064787
-0.03168698 -0.031550646 -0.013386493 9210506
-0.030158015 -0.031575534 -0.013247068 8026746
-0.028622763 -0.031576395 -0.013214797 8487297
-0.027085686 -0.031569898 -0.013215344 9605007
-0.025548624 -0.031563401 -0.013215892 9999251
-0.024011571 -0.031556893 -0.013216499 10196630
-0.022474535 -0.031550385 -0.013217106 10262423
-0.020937515 -0.031543888 -0.013217653 10262423
-0.019400505 -0.031537361 -0.013218316 10130580
-0.017863506 -0.031530842 -0.013218982 10064787
-0.016326524 -0.031524315 -0.013219646 11767181
-0.014790031 -0.031520549 -0.013208049 11115419
-0.013268112 -0.031605326 -0.012801266 8947591
-0.011784745 -0.031944275 -0.011260206 11507093
-0.010312963 -0.032396343 -0.0092142159 9799559
-0.0087690707 -0.032389522 -0.0092160916 9013384
-0.007225194 -0.03238266 -0.0092181424 9276299
-0.0056813848 -0.032376181 -0.0092185 9539471
-0.0041429354 -0.032414801 -0.0090175541 9671057
-0.0026405791 -0.032785274 -0.0073353467 9078920
-0.04927025 -0.027711036 -0.023941815 11113877
-0.047835756 -0.027946314 -0.022856072 9407628
-0.046405196 -0.028204354 -0.021667961 9473421
-0.044974018 -0.028472951 -0.02043228 9144713
-0.043538831 -0.028742328 -0.019193027 7631988
-0.042099647 -0.029012574 -0.017949793 9605007
-0.040648516 -0.029257827 -0.016818842 9342092
-0.039177813 -0.029450515 -0.015924094 9079177
-0.037698839 -0.029625379 -0.015109443 9079177
-0.036201913 -0.029746681 -0.014535559 8947591
-0.034698535 -0.029851686 -0.014034878 8816262
-0.03319101 -0.029947607 -0.013575033 9407885
-0.03166385 -0.029973945 -0.013428 9735822
-0.03013576 -0.029998567 -0.013288679 9473164
-0.028603641 -0.030008597 -0.01321497 9210506
-0.027067378 -0.030002099 -0.013215581 9210506
-0.025531128 -0.029995613 -0.013216132 9342092
-0.023994895 -0.029989125 -0.013216685 8881798
-0.022458667 -0.029982617 -0.013217354 8618883
-0.020922462 -0.029976131 -0.013217906 8553090
-0.019386265 -0.029969614 -0.013218573 8618626
-0.017850086 -0.029963117 -0.013219184 8684419
-0.016313914 -0.029956602 -0.013219852 10261395
-0.014777766 -0.029950105 -0.013220463 9276556
-0.013246674 -0.029973974 -0.013084466 8421504
-0.011724648 -0.030057987 -0.012677938 10787996
-0.010303337 -0.030820055 -0.0092213126 7565938
-0.0087602735 -0.030813234 -0.0092232525 7895160
-0.0072172312 -0.030806424 -0.0092251329 8224125
-0.0056742076 -0.030799614 -0.0092270132 8421504
-0.0041312063 -0.030792844 -0.0092287185 8553090
-0.0025964058 -0.030859338 -0.0089008147 8487297
-0.0010850069 -0.031161865 -0.0075109215 8684676
-0.049221955 -0.026112575 -0.024173634 9276299
-0.04778675 -0.026340505 -0.023112513 8224125
-0.046360061 -0.02660431 -0.02188882 7829367
-0.044929944 -0.026870459 -0.020654421 7763574
-0.0434958 -0.027137339 -0.019416621 7763574
-0.042057641 -0.027404997 -0.018175248 9012099
-0.040609024 -0.027652619 -0.017024526 7039851
-0.039143071 -0.027855759 -0.016075358 5723991
-0.037667979 -0.028038859 -0.015216903 5658198
-0.036174562 -0.028168017 -0.014602851 5526612
-0.034673713 -0.028277962 -0.014075836 5921370
-0.033169076 -0.028380593 -0.013581966 7894646
-0.031647008 -0.028423015 -0.01336091 9340293
-0.030119495 -0.028446937 -0.013223681 9537672
-0.028588757 -0.028459612 -0.013137426 9144456
-0.027051648 -0.028446728 -0.013167037 8684162
-0.025514657 -0.02843385 -0.013196586 8684419
-0.02397823 -0.028423006 -0.01321696 7894903
-0.022442821 -0.028416529 -0.013217516 7368816
-0.020907426 -0.028410034 -0.013218129 7303023
-0.019372044 -0.028403535 -0.013218803 7368816
-0.017836673 -0.02839704 -0.013219416 7237230
-0.016301319 -0.028390542 -0.013220089 8881798
-0.014765982 -0.028384054 -0.013220705 8224125
-0.013230656 -0.028377561 -0.013221318 8092539
-0.011704491 -0.02842837 -0.012962135 8684419
-0.010198244 -0.028616285 -0.012081278 5526612
-0.0087514948 -0.029238705 -0.0092301015 7894646
-0.007209281 -0.029231912 -0.0092319883 10064787
-0.0056670844 -0.029225113 -0.0092338724 10130066
-0.0041249059 -0.029218301 -0.0092358161 10130323
-0.0025827226 -0.029211285 -0.0092386948 10130323
-0.0010417328 -0.029215444 -0.0091908872 10195859
0.00049609621 -0.029253829 -0.0089878626 10195859
0.0020302709 -0.029341025 -0.0085634384 9473421
-0.049176738 -0.024525009 -0.024366887 6710886
-0.047745477 -0.024759222 -0.023268597 6250335
-0.046328727 -0.025046874 -0.021926178 5329233
-0.044894014 -0.025294641 -0.020765815 4408131
-0.043470453 -0.025588792 -0.019393547 5395026
-0.042045049 -0.025892003 -0.017979801 6972259
-0.040601268 -0.026151778 -0.016764374 5131597
-0.039137837 -0.026360473 -0.015782185 3881787
-0.037661429 -0.026536664 -0.01494843 3552822
-0.03617483 -0.026687345 -0.014231177 5592405
-0.034682248 -0.026825434 -0.013571351 6579300
-0.033173215 -0.026911238 -0.013150387 8750469
-0.031649839 -0.026948087 -0.012953021 9670543
-0.030123526 -0.026976073 -0.012796189 9604493
-0.028590687 -0.02697983 -0.012750014 9078920
-0.027053874 -0.026967652 -0.012776658 8816005
-0.025517162 -0.026955444 -0.012803418 9079177
-0.023980556 -0.026943242 -0.01283018 8553090
-0.022444019 -0.02693088 -0.012857642 8158332
-0.020906795 -0.026914697 -0.012902595 7960953
-0.019367518 -0.026887458 -0.012998085 6315871
-0.017828589 -0.026860218 -0.013093574 6579300
-0.016290953 -0.026838144 -0.013165432 6381921
-0.01475421 -0.026819659 -0.013220915 5592405
-0.013219704 -0.026813213 -0.013221418 6250335
-0.011698076 -0.026886763 -0.01285623 5987163
-0.010190479 -0.027060241 -0.012034278 4605510
-0.0087427497 -0.02766604 -0.0092361718 9276556
-0.0072013279 -0.02765901 -0.0092391726 10392724
-0.0056599285 -0.027651979 -0.0092421733 10392467
-0.0041185496 -0.027644927 -0.0092452923 10458260
-0.0025771926 -0.027637875 -0.0092484113 10458517
-0.0010358603 -0.027630834 -0.0092514716 10458517
0.00050545181 -0.027623776 -0.0092545887 10524053
0.0020467376 -0.027616752 -0.0092575923 9670800
0.0035867053 -0.02762557 -0.0091881184 9802386
0.0051243883 -0.02766837 -0.008963285 11310485
0.006659667 -0.027759193 -0.0085188644 9867922
-0.049167316 -0.023038829 -0.024103994 3552822
-0.047759961 -0.02333796 -0.022697972 3618615
-0.046344638 -0.023628043 -0.021333484 3815994
-0.044917561 -0.023897203 -0.020065246 4013373
-0.043506306 -0.024227707 -0.018514479 5131854
-0.042094022 -0.024571652 -0.016901728 6052185
-0.04066075 -0.024866302 -0.015515837 5261898
-0.039206527 -0.025107963 -0.0143739 4868425
-0.037731316 -0.025292244 -0.013496105 5921370
-0.036234289 -0.025411563 -0.012917452 6579043
-0.034710892 -0.025444221 -0.012737833 6908008
-0.033178035 -0.025444523 -0.012707263 6250335
-0.03164329 -0.025438052 -0.012707884 7303023
-0.030108551 -0.025431551 -0.012708621 7960696
-0.028573835 -0.025425073 -0.012709239 7697781
-0.027039127 -0.025418591 -0.01270992 8026489
-0.025504436 -0.025412101 -0.012710597 9209478
-0.023969758 -0.025405619 -0.012711278 9472136
-0.022435095 -0.025399132 -0.012711956 9340550
-0.020917177 -0.02547238 -0.012345298 6314586
-0.0193993 -0.025552072 -0.011948968 4801861
-0.017845262 -0.025452258 -0.012379603 5328462
-0.016301814 -0.025401313 -0.012585105 7564139
-0.014759086 -0.025350368 -0.01279061 5065804
-0.013219238 -0.025312133 -0.012937596 4868682
-0.011697412 -0.025381861 -0.012587082 4276545
-0.01019771 -0.025602948 -0.011539153 6250078
-0.0087339021 -0.026094284 -0.0092457896 9341835
-0.0071933093 -0.02608726 -0.0092488565 9670543
-0.0056527406 -0.026080228 -0.0092519205 9605007
-0.004112192 -0.026073204 -0.0092549864 9604750
-0.002571668 -0.026066175 -0.0092580505 9670543
-0.0010311661 -0.026059132 -0.0092611741 9736336
0.00050931337 -0.026052108 -0.009264241 9999251
0.0020497704 -0.026045078 -0.009267305 9473421
0.0035902043 -0.026038036 -0.0092704287 10065044
0.0051306137 -0.026031025 -0.0092734369 12355463
0.0066710031 -0.026023984 -0.0092765596 11310228
0.0082099978 -0.026040355 -0.0091717634 10524310
0.0097461045 -0.026120711 -0.008771996 9802386
-0.049239229 -0.021776957 -0.022803264 7696239
-0.047856186 -0.022146184 -0.021060374 6447457
-0.046454892 -0.02248019 -0.019480878 5197647
-0.045132399 -0.023062214 -0.016749959 3487029
-0.043760151 -0.023522569 -0.014583659 2763306
-0.042396758 -0.024033369 -0.012183031 4209981
-0.041053917 -0.02463549 -0.0093583157 5260870
-0.039290942 -0.023903431 -0.012727495 4932676
-0.037758473 -0.023901919 -0.012705109 2960428
-0.03622447 -0.023895366 -0.012706142 4144445
-0.034690537 -0.023889018 -0.012706241 5064776
-0.033156548 -0.023882402 -0.012707567 3421236
-0.031622626 -0.023876004 -0.012707899 5919571
-0.030088689 -0.023869473 -0.012708815 6774109
-0.028554784 -0.023863012 -0.01270944 5197647
-0.027020888 -0.023856534 -0.012710122 6250078
-0.025487008 -0.023850054 -0.012710804 8551805
-0.023953138 -0.023843583 -0.012711489 9011071
-0.022419289 -0.023837114 -0.012712112 8945278
-0.020922538 -0.024006041 -0.011898163 5985107
-0.019572236 -0.024908595 -0.0076767029 4341310
-0.017966341 -0.024577722 -0.0091839787 4275260
-0.016363665 -0.024236206 -0.010740802 10255741
-0.014797952 -0.024070708 -0.011480061 10124926
-0.013249334 -0.023990016 -0.011825441 8156019
-0.011736496 -0.024120988 -0.011187597 8155762
-0.010264936 -0.02453181 -0.0092496853 9142914
-0.0087251551 -0.02452486 -0.0092524635 8420733
-0.0071853991 -0.02451792 -0.009255182 7105644
-0.0056456635 -0.024510968 -0.0092579592 6842472
-0.0041059479 -0.024504017 -0.0092607373 6842472
-0.0025662531 -0.024497068 -0.0092635145 6974058
-0.0010265845 -0.024490139 -0.0092661744 6974058
0.00051306566 -0.024483187 -0.0092689525 8092282
0.0020526934 -0.024476238 -0.0092717307 8420990
0.0035923019 -0.024469286 -0.0092745088 9473164
0.0051318859 -0.024462348 -0.0092772273 12023928
0.0066714492 -0.024455408 -0.0092799468 12285815
0.0082109915 -0.024448458 -0.0092827249 9669258
0.0097500896 -0.02444979 -0.0092470329 7039851
0.011279858 -0.024670612 -0.0081911618 4802889
-0.049465246 -0.020932784 -0.019534057 8287862
-0.04796207 -0.020977441 -0.019295711 5723220
-0.046942733 -0.022405416 -0.01258339 4932933
-0.04558675 -0.022917449 -0.010157373 5064005
-0.04420479 -0.023376763 -0.0079779569 4669247
-0.042818923 -0.023847103 -0.0057467991 4143674
-0.041475739 -0.024475783 -0.0027743536 3289136
-0.039694354 -0.023723973 -0.0062635047 4801347
-0.03783422 -0.022671448 -0.011160547 2960685
-0.036228612 -0.022427551 -0.012272618 4210752
-0.034684762 -0.022386285 -0.012436218 6183000
-0.033150598 -0.02237781 -0.012446275 4999754
-0.03161652 -0.022369502 -0.012455571 7102817
-0.030068865 -0.022309119 -0.012708686 6708573
-0.028535755 -0.0223026 -0.012709606 3552822
-0.027002661 -0.022296097 -0.012710469 3223857
-0.025469592 -0.022289656 -0.01271104 4276031
-0.023936536 -0.022283187 -0.012711725 5459534
-0.022403497 -0.022276737 -0.012712355 5722963
-0.021012971 -0.022938943 -0.0095818453 5459791
-0.019877745 -0.024898946 -0.0003737857 7494748
-0.01827137 -0.02462803 -0.0016124651 7690328
-0.016412666 -0.022998432 -0.0092141489 5525327
-0.014873508 -0.022991143 -0.0092185717 6708059
-0.013334374 -0.022983843 -0.0092230532 6444887
-0.011795268 -0.022976555 -0.0092274761 6313301
-0.01025619 -0.022969255 -0.0092319585 7822942
-0.0087171402 -0.022961965 -0.0092363814 7957355
-0.0071781157 -0.022954665 -0.0092408629 6381150
-0.00563912 -0.022947367 -0.0092453454 5789013
-0.0041001532 -0.02294009 -0.0092497095 5789270
-0.0025612118 -0.02293279 -0.0092541911 4868425
-0.0010222987 -0.022925502 -0.0092586149 4868425
0.00051658851 -0.022918195 -0.0092630945 7432296
0.0020554417 -0.02291096 -0.0092672845 7693926
0.0035942437 -0.022904025 -0.0092700683 8285549
0.005133023 -0.022897096 -0.0092727914 10116959
0.0066717807 -0.022890175 -0.0092755174 7824741
0.0082105184 -0.022883235 -0.0092782993 4605253
0.0097488184 -0.022884376 -0.0092432359 3158064
0.011279366 -0.023066757 -0.0083588846 3947580
-0.049454875 -0.019439314 -0.01928203 5985364
-0.048751544 -0.021696741 -0.0086004892 5852493
-0.047399826 -0.022222169 -0.0060911956 6378066
-0.046040494 -0.022750551 -0.003567755 6115151
-0.044655506 -0.023228547 -0.0012819617 5392713
-0.043257389 -0.023690552 0.00092853548 4144188
-0.041895468 -0.024289176 0.003783945 3420979
-0.04048365 -0.024759592 0.0060344515 4670789
-0.037800353 -0.021077186 -0.011315161 3026221
-0.0362074 -0.020874245 -0.012243199 3092271
-0.034665771 -0.02083833 -0.012382914 4539203
-0.033132344 -0.02082997 -0.012392571 4604996
-0.031599026 -0.020821834 -0.012401173 5525584
-0.030065715 -0.020813568 -0.012410422 5460048
-0.028532421 -0.020805191 -0.012420136 4079166
-0.026999194 -0.020796908 -0.012429442 3618615
-0.025466032 -0.020788727 -0.012438281 3421236
-0.023951447 -0.020860741 -0.012068475 4671046
-0.02241309 -0.02083179 -0.012175372 5196105
-0.021153588 -0.022099305 -0.0061609959 6707545
-0.020170413 -0.024804257 0.0066408743 8682363
-0.018583436 -0.024689903 0.0061313701 10526880
-0.016467834 -0.021789487 -0.0075338664 5196619
-0.014831673 -0.021261362 -0.0099977609 6314586
-0.013289399 -0.021223662 -0.010145918 6249050
-0.011750148 -0.021201026 -0.010222915 6314329
-0.010211178 -0.021178409 -0.010299856 9725542
-0.0086724842 -0.02115578 -0.010376856 8745072
-0.0071349777 -0.02113959 -0.010423434 7759976
-0.0055981283 -0.02112703 -0.010452897 7694440
-0.004061392 -0.021114461 -0.01048236 7497318
-0.0025247717 -0.021101912 -0.010511765 5591634
-0.00098826305 -0.021089347 -0.010541228 5854806
0.00054813211 -0.021076787 -0.010570692 8743787
0.0020844117 -0.02106424 -0.010600098 8743016
0.0036205777 -0.021051686 -0.010629503 9137774
0.0051566311 -0.021039139 -0.01065891 9136489
0.0066925725 -0.021026563 -0.010688432 5723220
0.0082283989 -0.021014016 -0.010717839 4013116
0.0097641107 -0.021001471 -0.010747246 3552822
0.011297233 -0.021045543 -0.010509117 3421236
0.012828351 -0.02116867 -0.0098974677 3421236
0.014359258 -0.021375898 -0.0088883769 3881787
0.015889818 -0.021780966 -0.0069443574 4210495
-0.049224045 -0.02151143 -0.0020387215 3618101
-0.047864314 -0.022039637 0.00050493475 4078652
-0.046497326 -0.022572162 0.0030693118 5262669
-0.045111071 -0.023073914 0.0054873964 5460048
-0.043702856 -0.023534479 0.0077096983 5197390
-0.042309899 -0.024065932 0.01026944 8354683
-0.040940665 -0.024700668 0.013320916 11644590
-0.037798129 -0.019588161 -0.010979366 8286320
-0.03622571 -0.019454781 -0.011584131 6969946
-0.034684379 -0.019421266 -0.0117136 4933447
-0.033141587 -0.019380951 -0.011875441 2105376
-0.031599715 -0.019341918 -0.012031245 3815480
-0.030057291 -0.019298734 -0.012206751 6050386
-0.028519761 -0.019272169 -0.01230321 5525070
-0.026983885 -0.01925086 -0.012374628 5327948
-0.025453672 -0.019251959 -0.012339371 4604996
-0.023945343 -0.019347474 -0.011854667 5657170
-0.022479698 -0.019640349 -0.010430357 6770768
-0.021293454 -0.021246305 -0.0027544466 4735811
-0.01633225 -0.019582465 -0.010585638 4013373
-0.014768749 -0.019420989 -0.011324438 3815994
-0.013233336 -0.019404987 -0.011370578 3684408
-0.011699387 -0.019396722 -0.011379889 3815994
-0.010165478 -0.019388435 -0.011389318 7365732
-0.0086316168 -0.019380158 -0.011398688 8940395
-0.0070977975 -0.019371882 -0.011408059 10248802
-0.0055640233 -0.019363599 -0.011417427 10250601
-0.0040302938 -0.019355312 -0.011426856 9660520
-0.0024966088 -0.019347049 -0.011436168 6577758
-0.00096296676 -0.019338762 -0.011445598 6051928
0.00057056855 -0.01933109 -0.011452095 8743530
0.0021040037 -0.019324116 -0.011455247 8743787
0.0036374158 -0.019317143 -0.011458401 8809837
0.0051708044 -0.019310188 -0.011461496 7169381
0.0067041717 -0.019303214 -0.01146465 4802889
0.0082375146 -0.019296259 -0.011467746 5394769
0.0097707845 -0.019290268 -0.011466207 3421236
0.011302145 -0.019327404 -0.01125922 3421236
0.012831927 -0.019428037 -0.010749716 3355443
0.014361474 -0.019600186 -0.0098993918 3487029
0.015891682 -0.019888243 -0.008496752 3421236
0.017422862 -0.020518422 -0.0054638558 6181201
-0.049702771 -0.021322843 0.0046097361 3684408
-0.048334971 -0.021853978 0.0071890219 5197647
-0.046960741 -0.022392061 0.0098017668 6578272
-0.045571525 -0.022912607 0.012330575 9340036
-0.044155966 -0.023380313 0.014605997 11841198
-0.038091976 -0.019057227 -0.0060477862 5986649
-0.036441639 -0.018691434 -0.0077729286 4276031
-0.034885034 -0.018625624 -0.0080584092 4210238
-0.033312742 -0.018501138 -0.008625526 2960685
-0.031726945 -0.018320642 -0.0094615528 2105376
-0.030128894 -0.018083576 -0.010569128 4604482
-0.028557399 -0.017934097 -0.011256369 5853264
-0.026995301 -0.017812522 -0.01180972 6510166
-0.025460416 -0.017795036 -0.011863459 5721164
-0.023951523 -0.017887399 -0.011389825 4275517
-0.022517953 -0.018319452 -0.0092853596 5459020
-0.021497944 -0.020679576 0.0020757918 3486772
-0.016312985 -0.017988557 -0.010752841 5657427
-0.014752774 -0.017840181 -0.011435002 3355443
-0.013218344 -0.017824193 -0.011481523 3355443
-0.011685615 -0.017817248 -0.011484623 3618615
-0.010152906 -0.017810304 -0.011487723 6051928
-0.0086202165 -0.017803336 -0.011490941 8088684
-0.0070875539 -0.01779639 -0.011494041 10383472
-0.005554914 -0.017789444 -0.011497142 9466482
-0.0040222947 -0.017782489 -0.011500302 9202282
-0.0024896993 -0.017775543 -0.011503402 7431525
-0.0009571265 -0.017768579 -0.011506559 5591891
0.000575424 -0.017761635 -0.01150966 6446429
0.0021079504 -0.017754678 -0.01151282 6051928
0.0036402303 -0.017750351 -0.011503364 5263183
0.0051724655 -0.017746864 -0.011489859 4473924
0.0067047356 -0.017743358 -0.01147641 5789013
0.0082370397 -0.017739872 -0.011462904 5656436
0.0097693782 -0.017736372 -0.011449457 2828916
0.011299993 -0.017772401 -0.011246121 4605053
0.012829896 -0.017847041 -0.010857235 5064574
0.014358511 -0.018015346 -0.010018259 5196158
0.01588789 -0.018291211 -0.0086624762 5261953
0.017419009 -0.018823635 -0.006073785 4867199
-0.048813064 -0.021668229 0.013977804 8288890
-0.047396056 -0.022111641 0.016154792 7763317
-0.046068594 -0.022836311 0.019692944 10987431
-0.0387659 -0.019730944 0.0047896681 9407885
-0.036894649 -0.018698568 -0.00017600042 8025718
-0.035333589 -0.018659692 -0.00033333732 4473153
-0.033752564 -0.018549247 -0.00083709147 4473153
-0.032156073 -0.018376967 -0.0016401863 3552565
-0.030535001 -0.018103374 -0.0029337704 3158064
-0.0289065 -0.017784318 -0.0044475095 3684151
-0.027261887 -0.017381059 -0.006368971 3684151
-0.025599975 -0.016880145 -0.0087633235 3881530
-0.024029357 -0.016730083 -0.0094592674 4209981
-0.022674441 -0.017514089 -0.0056330077 3618358
-0.021841997 -0.020732583 0.0099803917 9538700
-0.016295154 -0.016404159 -0.010884787 7628647
-0.014738588 -0.016270904 -0.011499563 3355443
-0.013205337 -0.016256467 -0.011539008 3289650
-0.011673514 -0.016249532 -0.011542113 3881787
-0.01014171 -0.016242592 -0.011545278 7234917
-0.0086099301 -0.016235657 -0.011548383 8416621
-0.0070781712 -0.016228719 -0.011551549 8942451
-0.0055464385 -0.016221782 -0.011554654 8416621
-0.0040148287 -0.016215643 -0.011553945 9333097
-0.0024835421 -0.016212126 -0.011540494 8218728
-0.00095222169 -0.016208606 -0.011527103 5723220
0.0005791302 -0.0162051 -0.011513594 5920599
0.0021105176 -0.016201591 -0.011500144 5460048
0.0036419414 -0.016198074 -0.011486692 3684151
0.0051733963 -0.016194576 -0.011473184 3223857
0.0067048883 -0.01619106 -0.011459733 5328462
0.0082364148 -0.016187549 -0.011446283 2038666
0.0097679738 -0.016184043 -0.011432773 131734
0.011298764 -0.016198454 -0.011332489 3025829
0.01282787 -0.016268069 -0.010964714 3485862
0.014355518 -0.016433859 -0.010130879 3485862
0.015883956 -0.016703952 -0.0087915864 4011687
0.017414369 -0.017202105 -0.006347083 2762916
-0.048946243 -0.020515414 0.016154895 6974058
-0.037384942 -0.018803896 0.0080218371 10921381
-0.035784483 -0.018677494 0.0074361479 10855588
-0.034196753 -0.018588107 0.0070311246 10197915
-0.032591045 -0.018429639 0.0062888372 11644590
-0.030953851 -0.018146083 0.0049358043 11835287
-0.029325012 -0.017876513 0.0036509528 9862268
-0.027672645 -0.017497463 0.0018315319 9073009
-0.025995102 -0.016991111 -0.00060957519 3026221
-0.024354434 -0.016604042 -0.0024684407 2565927
-0.022939306 -0.01716884 0.00032032595 5260613
-0.016279725 -0.014833983 -0.010957509 8218214
-0.014724428 -0.014703574 -0.011563686 2960685
-0.013192346 -0.014690581 -0.011596459 2894892
-0.011661427 -0.014683682 -0.011599514 4210495
-0.010130918 -0.014679129 -0.011591052 9792363
-0.008600547 -0.014675602 -0.011577599 9396834
-0.0070701432 -0.014672082 -0.011564147 6577758
-0.0055397041 -0.014668555 -0.011550693 7364961
-0.004009231 -0.014665027 -0.011537239 9790564
-0.0024787248 -0.0146615 -0.011523785 8807267
-0.00094818324 -0.014657972 -0.011510331 6642780
0.0005823939 -0.014654433 -0.011496937 7496547
0.0021130044 -0.014650906 -0.011483482 7233632
0.0036436485 -0.014647395 -0.011469971 4342081
0.0051743272 -0.014643868 -0.011456517 3158064
0.006705041 -0.014640339 -0.011443063 3158064
0.0082357889 -0.014636811 -0.011429608 1776008
0.0099709332 -0.010827631 -0.03001179 131734
0.011470147 -0.01081512 -0.030042876 329111
0.012969242 -0.010802599 -0.030074021 329111
0.014468219 -0.010790078 -0.030105168 394904
0.015967077 -0.010777557 -0.030136313 2565796
0.017465815 -0.01076503 -0.030167459 4406699
0.018961776 -0.011577098 -0.026168566 9144744
-0.0491114 -0.019443968 0.018761635 10197915
-0.028074913 -0.017555149 0.0098758014 12366257
-0.026403654 -0.017130351 0.0078155445 12366257
-0.024727518 -0.016655779 0.0055100331 12366257
-0.023235515 -0.016940324 0.0069428072 12431793
-0.016273804 -0.013313588 -0.010794376 3749430
-0.014718965 -0.013183847 -0.01140252 2105376
-0.013188846 -0.013178849 -0.011396232 1842204
-0.011658717 -0.013173847 -0.011390005 2039583
-0.010128579 -0.013168848 -0.011383717 3815480
-0.008598431 -0.01316385 -0.011377429 8872032
-0.0070682731 -0.013158859 -0.011371143 4999240
-0.0055381041 -0.013153838 -0.011364972 2499877
-0.0040079281 -0.01314884 -0.011358684 3618358
-0.0024777406 -0.01314384 -0.011352396 5853264
-0.00094754365 -0.013138838 -0.011346169 5590606
0.00058266241 -0.01313384 -0.011339881 6904410
0.0021128778 -0.01312884 -0.011333592 9263449
0.0036431025 -0.013123849 -0.011327306 6969432
0.0051732748 -0.013119635 -0.011317138 3486772
0.0067033945 -0.013116491 -0.011301741 3684151
0.0082335537 -0.013113362 -0.011286224 3354763
0.0099696731 -0.009308788 -0.030005675 3026086
0.011468109 -0.0092963371 -0.030036781 3026086
0.012966426 -0.0092838677 -0.030067945 2894502
0.014464624 -0.0092714066 -0.030099111 394903
0.015962703 -0.0092589566 -0.030130217 4209065
0.017460665 -0.0092465077 -0.030161325 7361446
0.018955698 -0.010088824 -0.025978955 9932204
-0.01631134 -0.012011638 -0.0095512904 4012602
-0.014747759 -0.011844187 -0.010352029 5984336
-0.013217199 -0.011842238 -0.010330567 3420979
-0.011686658 -0.011840774 -0.010306695 1973790
-0.010156048 -0.011839309 -0.010282823 3092014
-0.0086254897 -0.011838611 -0.010255127 4736068
-0.0070948512 -0.011837935 -0.010227313 4012859
-0.005564129 -0.011837259 -0.0101995 3026221
-0.0040333224 -0.011836589 -0.010171688 2631720
-0.0025024323 -0.011835923 -0.010143815 2434341
-0.00097145833 -0.011835246 -0.010116001 2368548
0.00055959763 -0.011834576 -0.010088189 2631720
0.0020907393 -0.011833898 -0.010060374 4210238
0.0036219647 -0.01183322 -0.010032559 5524813
0.0051532728 -0.011832559 -0.010004687 5656142
0.0066844975 -0.011834221 -0.0099652279 6050129
0.0082156993 -0.011838218 -0.0099141859 6377623
0.009968414 -0.0077915057 -0.029999623 6180524
0.011466073 -0.0077791144 -0.030030748 6180524
0.012963613 -0.0077667162 -0.030061873 5720748
0.014461034 -0.0077543254 -0.030092999 1907872
0.015958335 -0.0077419463 -0.030124068 3091621
0.01745552 -0.0077295564 -0.030155195 5260199
0.018949622 -0.0086016338 -0.025788624 7564457
-0.016588176 -0.011894356 -0.0023576303 8157047
-0.0149243 -0.011268307 -0.0054635396 4801861
-0.013389973 -0.011287117 -0.005337745 4933447
-0.011855232 -0.01130593 -0.0052118879 5327691
-0.010320068 -0.011324742 -0.0050860303 5393227
-0.0087845866 -0.0113442 -0.0049569365 4538946
-0.0072486433 -0.011363452 -0.0048288405 4078652
-0.0057115145 -0.011377342 -0.0047276309 4144445
-0.0041740648 -0.011391349 -0.0046258327 4144445
-0.0026369491 -0.011410779 -0.0044968533 4012859
-0.0010994051 -0.01143023 -0.0043677553 3947066
0.00043857281 -0.011449668 -0.0042387149 4012859
0.001976979 -0.011469119 -0.0041095531 4210238
0.0035158172 -0.011488575 -0.0039803931 4736068
0.0050550867 -0.011508042 -0.0038511725 4801861
0.0065947883 -0.011527508 -0.0037219513 4407360
0.0081349211 -0.011547 -0.0035926132 6637958
0.0099671567 -0.0062757954 -0.029993575 7688353
0.011464039 -0.0062634633 -0.03002472 7688353
0.012960802 -0.0062511428 -0.030055808 7163813
0.014457447 -0.0062388116 -0.030086955 3157670
0.015953971 -0.0062265033 -0.030117985 65941
0.017450379 -0.0062141842 -0.030149072 65941
0.01894355 -0.007115385 -0.025598284 5065382
-0.016949102 -0.012168308 0.0069322851 10592673
-0.015212557 -0.011251807 0.0023308538 8288633
-0.013661265 -0.011246769 0.0023374285 7499631
-0.012114216 -0.011265731 0.0024653794 9013641
-0.010566735 -0.011284681 0.0025932721 8881798
-0.0090188319 -0.011303658 0.002721282 9736336
-0.0074705025 -0.011322627 0.0028492948 10130066
-0.0059217452 -0.011341612 0.0029773654 10392724
-0.0043725646 -0.011360618 0.003105555 10524053
-0.0028229521 -0.011379604 0.0032336887 10524053
-0.001272913 -0.011398596 0.0033618212 10458003
0.00027755444 -0.01141759 0.0034900161 10261138
0.0018284483 -0.011436601 0.0036182685 10195345
0.0033797706 -0.011455611 0.0037465221 9998737
0.0049314573 -0.011475394 0.003878722 9539214
0.0064835805 -0.011495271 0.0040113931 8552833
0.008036145 -0.011515168 0.0041441829 3618717
0.0099659013 -0.0047616633 -0.029987533 1513118
0.011462007 -0.004749395 -0.030018637 1513374
0.012957994 -0.0047371341 -0.030049745 1447325
0.014453862 -0.0047248849 -0.030080793 658073
0.015949612 -0.0047126249 -0.030111901 65941
0.017445244 -0.0047003655 -0.030143011 65941
0.018937482 -0.0056300457 -0.025408112 4933796
0.0099646468 -0.003249096 -0.029981492 263319
0.011459977 -0.0032369054 -0.030012561 1315997
0.012955189 -0.0032247042 -0.030043688 5260201
0.014450283 -0.0032125073 -0.030074755 5062823
0.015945258 -0.0032003182 -0.030105824 4865703
0.017440114 -0.0031881405 -0.030136835 4011944
0.018931419 -0.0041456153 -0.025218105 5065639
0.0099633941 -0.0017380893 -0.029975515 2894244
0.01145795 -0.0017259512 -0.030006602 4405927
0.012952387 -0.0017138318 -0.03003763 8605592
0.014446707 -0.0017017015 -0.03006872 7228834
0.015940908 -0.0016895831 -0.03009975 6310567
0.01743499 -0.0016774649 -0.030130781 4931753
0.018925358 -0.002662109 -0.025028145 2960037
0.0099621415 -0.00022866219 -0.02996942 8474729
0.011455924 -0.00021659076 -0.030000528 8540008
0.012949589 -0.00020451976 -0.030031636 7163756
0.014443134 -0.00019247146 -0.030062627 2828627
0.015936561 -0.00018040536 -0.030093675 329015
0.017429871 -0.00016835793 -0.030124666 263222
0.0189193 -0.0011795118 -0.024838353 2960037
0.0099608907 0.0012792044 -0.029963387 2170956
0.0114539 0.0012912162 -0.029994516 2236749
0.012946792 0.0013032125 -0.030025525 1841993
0.014439565 0.0013152123 -0.030056594 2236749
0.015932221 0.0013272007 -0.030087605 4997220
0.017424757 0.0013391885 -0.030118616 4800099
0.018913249 0.00030217966 -0.024648663 2960037
0.0099596418 0.0027855358 -0.029957473 51
0.01145188 0.0027974658 -0.029988503 51
0.012943999 0.0028094025 -0.030019531 51
0.014436 0.0028213316 -0.030050563 1250114
0.015927883 0.0028332493 -0.030081535 3748699
0.017419649 0.0028451846 -0.030112563 4603234
0.018907199 0.0017829509 -0.024459081 2960037
0.020479297 -0.011689135 0.046870627 9866410
0.0099583939 0.0042902874 -0.02995144 51
0.011449859 0.0043021468 -0.029982431 51
0.012941209 0.004314024 -0.030013479 51
0.014432439 0.0043258825 -0.03004447 65844
0.015923552 0.0043377588 -0.030075518 131637
0.017414546 0.0043496052 -0.030106453 2368335
0.018901153 0.0032628092 -0.024269603 2960037
0.020472225 -0.010082438 0.047041498 7433384
0.0099571468 0.0057934816 -0.029945405 51
0.011447843 0.0058052815 -0.029976416 51
0.01293842 0.0058170878 -0.030007426 51
0.014428881 0.0058288868 -0.030038437 65843
0.015919223 0.0058406922 -0.030069448 65844
0.017409448 0.0058524865 -0.030100398 329015
0.018895112 0.0047417656 -0.024080291 2960212
0.02046516 -0.0084768375 0.047212206 7760551
0.0099559026 0.0072951294 -0.02993943 51
0.011445828 0.0073068654 -0.0299704 51
0.012935636 0.0073186127 -0.03000143 51
0.014425327 0.0073303408 -0.030032402 51
0.0159149 0.0073420755 -0.030063372 65843
0.017404355 0.0073538101 -0.030094342 65844
0.018889073 0.0062197982 -0.023891026 2960213
0.020458099 -0.0068723508 0.047382873 5327783
0.0099546574 0.0087952334 -0.029933451 3551578
0.011443815 0.0088069038 -0.029964441 3486041
0.012932855 0.0088185798 -0.029995432 3485785
0.014421777 0.0088302558 -0.030026423 3354456
0.015910581 0.0088419085 -0.030057294 3354456
0.017399268 0.0088535836 -0.030088285 3354456
0.018883038 0.0076969354 -0.023701923 3025749
0.020451043 -0.0052689537 0.047553372 4802467
0.0099534141 0.010293781 -0.02992747 8409964
0.011441804 0.010305387 -0.02995842 8409964
0.012930076 0.010317003 -0.029989431 8409707
0.014418229 0.010328597 -0.030020323 8409708
0.015906267 0.010340214 -0.030051332 8671594
0.017394187 0.010351807 -0.030082226 8671593
0.018877009 0.0091731604 -0.023512924 3025749
0.020443991 -0.0036666584 0.04772377 4934053
0.0099521726 0.011790785 -0.029921483 5195112
0.011439795 0.01180232 -0.029952394 5260392
0.012927299 0.011813877 -0.029983426 5260648
0.014414687 0.011825412 -0.030014336 5326184
0.015901957 0.011836953 -0.030045247 5785449
0.017389109 0.011848486 -0.030076159 5325412
0.018870981 0.010648479 -0.02332403 3025749
0.020436944 -0.0020654898 0.047894116 5262503
0.0099132434 0.012680643 -0.026492778 2434127
0.011405851 0.012690416 -0.026513921 2433871
0.012898374 0.012700169 -0.026535006 2368078
0.014390814 0.012709931 -0.026556091 2236749
0.01588317 0.012719692 -0.026577175 1908042
0.017375445 0.012729445 -0.026598262 1644614
0.018864958 0.012122896 -0.023135301 2696785
0.020429904 -0.00046537907 0.048064254 5718943
0.0098154256 0.01264391 -0.017717607 4341588
0.011322233 0.012653774 -0.017739207 4932953
0.012828954 0.012663626 -0.017760746 4472917
0.014335589 0.012673474 -0.017782224 2894153
0.015842142 0.012683325 -0.017803766 2236749
0.017348606 0.012693177 -0.017825305 1710407
0.018854987 0.012703039 -0.017846905 2565456
0.020422867 0.0011336231 0.04823428 5131174
-0.01457374 0.012731832 -0.01006123 3684408
-0.013054385 0.01273933 -0.010069176 3684408
-0.011535071 0.012746818 -0.010076999 3750201
-0.010015792 0.012754312 -0.010084884 3487029
-0.008497362 0.01275734 -0.010067096 3355443
-0.0069788974 0.012760296 -0.010048831 3684408
-0.0054603787 0.012763268 -0.010030623 5789013
-0.0039425064 0.012761664 -0.0099860886 8807267
-0.002424716 0.012758489 -0.0099324808 9527135
-0.00090675626 0.012755297 -0.0098788161 7890277
0.00061137282 0.012752083 -0.0098250331 6709087
0.0021298502 0.012750454 -0.0097803185 6052185
0.0036487551 0.012751592 -0.0097516179 5789013
0.0051677437 0.012752723 -0.0097227944 5065547
0.0066868188 0.012753857 -0.0096940324 3092271
0.0082059819 0.012754993 -0.0096652703 3026478
0.0097252289 0.012756123 -0.0096364468 5065804
0.01124231 0.012715246 -0.0093655055 6774623
0.012758199 0.012626378 -0.0088179307 4933961
0.014279304 0.012636311 -0.0088398671 2697513
0.015800323 0.012646266 -0.0088619217 2631720
0.017321253 0.012656217 -0.0088839149 2368572
0.018842099 0.012666167 -0.0089059081 1710150
0.020415835 0.0027315167 0.048404202 4802466
-0.016047522 0.014393687 -0.010887066 5985364
-0.014514392 0.014472776 -0.011311546 6380636
-0.012998272 0.014478767 -0.011310901 6380636
-0.011482161 0.014484776 -0.011310314 6051928
-0.0099660605 0.014490767 -0.011309669 4539460
-0.0084499698 0.014496773 -0.011309021 3355443
-0.0069340109 0.014502077 -0.01130434 3487029
-0.005418078 0.014507173 -0.011298475 4407874
-0.0039021412 0.014512264 -0.011292548 6445658
-0.0023861933 0.014517342 -0.011286626 7496033
-0.00087023794 0.014522433 -0.011280698 7168096
0.00064572488 0.014527525 -0.011274771 6971488
0.002161697 0.014532616 -0.011268844 6117978
0.0036776783 0.014537708 -0.011262917 6117721
0.0051936675 0.014542785 -0.011256995 5065804
0.0067096655 0.014547877 -0.011251068 3355443
0.0082256719 0.014552969 -0.011245141 3421236
0.0097416872 0.014558065 -0.011239274 5591634
0.011255899 0.01452973 -0.011038744 6971231
0.012768541 0.014450786 -0.010543641 4671303
0.014280638 0.014307184 -0.0096720187 2236962
0.015792744 0.014042922 -0.0080979187 2894892
0.017293371 0.012618536 0.00023084632 3026478
0.01882896 0.012628572 0.00020839562 3748956
0.020408811 0.0043277713 0.04857723 4802407
-0.01761914 0.015633943 -0.009261555 5394512
-0.016031656 0.015932135 -0.010977681 7822171
-0.014500994 0.016003732 -0.0113625 8939110
-0.012985745 0.016009746 -0.011362038 8939110
-0.011470508 0.016015761 -0.011361575 8153192
-0.0099552814 0.016021771 -0.01136105 5328976
-0.0084400633 0.016027799 -0.011360583 3289650
-0.0069248555 0.016033813 -0.01136012 3289650
-0.0054096547 0.016039845 -0.011359714 3684408
-0.0038944711 0.016045837 -0.011359133 4473924
-0.0023792929 0.016051851 -0.01135867 4999754
-0.00086412573 0.016057879 -0.011358202 5460048
0.00065103208 0.016063893 -0.01135774 5920342
0.0021661806 0.016069908 -0.011357277 5065547
0.0036813179 0.016075935 -0.01135681 4605510
0.0051964452 0.01608195 -0.011356347 4013373
0.0067115775 0.016088145 -0.01135689 3355443
0.0082266964 0.016094346 -0.011357495 3355443
0.0097418008 0.016100528 -0.011358042 4473667
0.011255322 0.01607804 -0.011190004 4868425
0.012767148 0.016005177 -0.010725628 3750201
0.014278596 0.015876159 -0.0099310828 2105376
0.015790503 0.015656648 -0.008604358 2894892
0.017304571 0.015277416 -0.0063381572 2960685
0.018815564 0.012590263 0.0095011443 3814749
0.020401796 0.005921741 0.048757225 4802407
-0.017609125 0.01714593 -0.0091889519 7302252
-0.016021334 0.017445378 -0.01093003 8739161
-0.014491592 0.0175154 -0.011309471 10378075
-0.012977041 0.017521411 -0.01130901 10443097
-0.011462504 0.01752742 -0.011308487 9528677
-0.0099479733 0.017533431 -0.011308026 6380893
-0.0084334547 0.017539442 -0.011307565 4144702
-0.0069189467 0.017545436 -0.011307046 3552822
-0.0054044467 0.017551465 -0.011306642 3223857
-0.0038899593 0.017557459 -0.011306124 3223857
-0.0023754796 0.01756347 -0.011305663 3355443
-0.00086099072 0.017569628 -0.011306093 4539460
0.00065348885 0.017575821 -0.011306638 5854806
0.0021679536 0.017582001 -0.011307187 5131597
0.0036824073 0.017588183 -0.011307797 4407874
0.0051968452 0.017594364 -0.011308347 4342338
0.0067112697 0.017600542 -0.011308895 4342338
0.0082256803 0.017606735 -0.01130944 4342338
0.0097400779 0.017612919 -0.011310051 4342338
0.011252833 0.017589651 -0.011135691 4342081
0.012763932 0.01751692 -0.010667454 4408131
0.014274469 0.017383035 -0.0098360358 3750201
0.01578564 0.017161751 -0.0084853387 4605510
0.017298859 0.016769705 -0.0061200201 5263183
0.018801903 0.012551179 0.018977638 2433871
0.020394789 0.007514663 0.048937071 5065322
-0.029645352 0.018892951 -0.010825391 7299425
-0.028085817 0.019038586 -0.011661877 10116445
-0.026564838 0.019069418 -0.01181026 8219756
-0.025057545 0.019056462 -0.011696137 6841444
-0.023568915 0.018977962 -0.011189148 6775651
-0.017599463 0.018655198 -0.0091080833 6579300
-0.016011126 0.018956788 -0.010879837 7691870
-0.014482198 0.019025674 -0.011256389 10053222
-0.012968348 0.019031668 -0.011255934 10051680
-0.011454504 0.019037681 -0.011255535 9133405
-0.0099406755 0.019043673 -0.011255018 7168353
-0.008426832 0.019049801 -0.011255272 5591634
-0.0069129891 0.019055981 -0.011255884 3815994
-0.0053991652 0.019062141 -0.011256377 2631720
-0.0038853502 0.019068321 -0.011256989 2697513
-0.0023715505 0.0190745 -0.01125754 2763306
-0.00085776363 0.01908068 -0.011258151 4802632
0.00065600814 0.01908684 -0.011258646 7692898
0.0021697669 0.019093016 -0.011259196 7365218
0.0036835119 0.019099196 -0.011259808 6578015
0.0051972438 0.019105373 -0.01126036 6578015
0.0067109615 0.019111549 -0.01126091 6380636
0.0082246661 0.019117713 -0.011261465 6380379
0.0097383577 0.019123893 -0.011262078 6314843
0.011250345 0.019099854 -0.01108133 6512222
0.012760591 0.019024475 -0.010592534 6840673
0.014270344 0.018888669 -0.0097410735 6905695
0.015780874 0.018669393 -0.0083885435 8022377
0.017293148 0.01826117 -0.0059020859 8282979
0.018787969 0.012511325 0.028643327 2894163
0.020387786 0.0091065373 0.049116764 5784933
-0.049822126 0.022416249 -0.023473999 10326674
-0.04864265 0.021753658 -0.019427372 8222326
-0.037145436 0.020511694 -0.011616528 9660263
-0.035604563 0.020592906 -0.012071433 8743273
-0.034088343 0.020610908 -0.012143745 4737096
-0.032575145 0.020621123 -0.012168855 7103331
-0.031061284 0.020633558 -0.0122074 6315100
-0.029545775 0.020651318 -0.012278289 7628133
-0.028032903 0.020661749 -0.012304707 10312282
-0.026521085 0.020669132 -0.012312698 9725799
-0.02501557 0.020655902 -0.012195848 9729654
-0.023537301 0.020548496 -0.011508589 10190205
-0.017592108 0.020154074 -0.0089721447 8421504
-0.016005065 0.020449672 -0.010726042 4078909
-0.014475876 0.02052133 -0.011123301 3749944
-0.012962433 0.02052802 -0.011127068 5065033
-0.011449013 0.020534713 -0.011130834 8740960
-0.0099356174 0.020541405 -0.0111346 9264220
-0.0084222471 0.020548096 -0.011138367 7822685
-0.0069088996 0.020554788 -0.011142134 4276288
-0.0053955768 0.020561494 -0.011145895 2171169
-0.0038822785 0.020568185 -0.011149662 2039583
-0.0023690059 0.020574877 -0.011153429 2039583
-0.00085575588 0.020581568 -0.011157195 4078909
0.00065746816 0.020588258 -0.011160962 7888992
0.002170668 0.020594951 -0.011164729 9199198
0.0036838024 0.020601271 -0.011166173 9067355
0.0051969006 0.020607382 -0.011166433 9002590
0.0067099854 0.02061349 -0.01116663 8871775
0.0082230596 0.020619601 -0.01116689 8740189
0.0097361198 0.020625712 -0.011167149 8805725
0.011247197 0.020596933 -0.010955872 9134176
0.012757104 0.020527514 -0.010498154 9394007
0.014266278 0.020394603 -0.0096554682 9524051
0.015776131 0.020176647 -0.0082970681 9592414
0.017287549 0.019758884 -0.0057270937 6574931
0.018773755 0.012470664 0.038504023 197430
0.020380786 0.010697331 0.049296364 4931167
-0.049703512 0.024095286 -0.024596766 7697781
-0.048316713 0.023883311 -0.023263874 7763574
-0.046976682 0.023560463 -0.021252833 8026746
-0.038753793 0.021722225 -0.0097875623 6838874
-0.037111305 0.022055322 -0.011788161 7562854
-0.03556703 0.022147564 -0.012315457 7759719
-0.034055725 0.022155393 -0.012326248 5526355
-0.032544628 0.022162747 -0.012334249 8025461
-0.031033568 0.022170132 -0.012342302 7631474
-0.029522555 0.022177482 -0.012350243 9998994
-0.02801156 0.022184884 -0.012358542 12095632
-0.026500596 0.022192325 -0.012367016 11702159
-0.024977027 0.022240993 -0.012627739 11311256
-0.023466997 0.022247003 -0.012627533 11443099
-0.021963526 0.022230107 -0.012487071 10718605
-0.016033638 0.021799846 -0.0097050397 8681078
-0.014496839 0.021899305 -0.010276729 5592405
-0.012982694 0.021906203 -0.010281806 5789784
-0.011468577 0.021913117 -0.010286939 6842215
-0.009954459 0.021920159 -0.010292909 7959154
-0.0084403744 0.021927202 -0.010298878 10714236
-0.0069263182 0.021934267 -0.010304966 7828082
-0.0054122969 0.021941314 -0.010310996 5592405
-0.003898307 0.021948373 -0.010317023 5526612
-0.002384349 0.021955419 -0.010323053 5460819
-0.00087042066 0.021962484 -0.010329141 5855577
0.00064347213 0.021969544 -0.010335168 6842215
0.0021573333 0.021976586 -0.010341138 7762546
0.0036711628 0.021983631 -0.010347169 9863296
0.0051849606 0.021990694 -0.010353257 9273215
0.0066987248 0.021997755 -0.010359284 7433838
0.0082124574 0.022004796 -0.010365253 7368302
0.0097261583 0.022011841 -0.010371285 6381407
0.011238447 0.021994738 -0.010229377 5197390
0.012748335 0.021916138 -0.0097106276 5721164
0.014258971 0.021809835 -0.0090222266 6969689
0.015769854 0.021623034 -0.0078405039 3157807
0.017281605 0.021233084 -0.0054141008 4011324
0.018759251 0.012429185 0.0485656 5325412
0.020373791 0.012287088 0.049475882 5525100
-0.049682513 0.02556923 -0.024485348 8487040
-0.048266131 0.025422558 -0.023542134 8618626
-0.046874747 0.025215574 -0.022225978 8618369
-0.04549627 0.024970572 -0.020674823 9144456
-0.044158205 0.024623262 -0.018491091 7829367
-0.038758948 0.023167223 -0.0093417112 7237230
-0.037077751 0.0235954 -0.01195123 7697781
-0.035543453 0.023663519 -0.012334971 8026746
-0.034015823 0.023717292 -0.012630048 8355711
-0.032506529 0.023723248 -0.012629485 8487297
-0.030997237 0.023729231 -0.012629101 8553090
-0.029487954 0.023735212 -0.012628717 9145227
-0.027978681 0.023741214 -0.01262839 10656667
-0.026469419 0.0237472 -0.012628068 10131094
-0.024960158 0.023753209 -0.012627864 8750469
-0.023450907 0.023759235 -0.012627717 8684676
-0.0219448 0.02375441 -0.012560504 7566195
-0.016046593 0.023215091 -0.0090749301 9537158
-0.01453138 0.023221113 -0.0090745902 7565167
-0.013016176 0.02322712 -0.0090742549 7828853
-0.011500983 0.023233142 -0.009073914 5987163
-0.0099858008 0.023239151 -0.0090735788 8816005
-0.0084706293 0.023245173 -0.0090732388 11767952
-0.0069554676 0.02325118 -0.0090729026 10654354
-0.0054403148 0.023257207 -0.0090726241 9407371
-0.0039251735 0.023263214 -0.0090722879 8421504
-0.0024100451 0.023269236 -0.009071948 7763574
-0.00089492428 0.023275243 -0.0090716127 7895160
0.00062013901 0.023280926 -0.0090691904 7895160
0.0021352025 0.023286611 -0.0090668304 8289918
0.0036502592 0.023292279 -0.0090644127 9802129
0.0051653143 0.023297964 -0.0090620527 9079177
0.0066803647 0.023303641 -0.0090595689 7895160
0.0081954114 0.023309309 -0.0090571521 7895160
0.0097101824 0.023310998 -0.009030032 7895160
0.011215996 0.023156099 -0.008033582 5197647
0.012728532 0.02307211 -0.0074760541 3684151
0.01424536 0.023053823 -0.0073251314 3749944
0.015758354 0.022869844 -0.0061485106 3618358
0.017267445 0.022181639 -0.001849879 3617874
0.018744446 0.012386835 0.058834374 5063013
0.020374777 0.012397499 0.058808722 5591149
-0.049668331 0.02702822 -0.024287904 10915470
-0.048257172 0.026873168 -0.023282278 11242379
-0.046850134 0.026702194 -0.02217716 11634567
-0.045442782 0.026523802 -0.021025654 11177614
-0.044040706 0.026325077 -0.019746901 8158075
-0.042645097 0.026101818 -0.018314891 10915213
-0.041266687 0.025827264 -0.016562315 10654097
-0.039968938 0.025346078 -0.013518684 9801615
-0.038513191 0.02522644 -0.012733583 9275271
-0.037011296 0.025216123 -0.012631453 6579300
-0.035502773 0.025222059 -0.012630834 6776679
-0.033994254 0.025228016 -0.012630335 8487297
-0.03248575 0.02523395 -0.012629717 8355711
