# .PCD v0.7 - Point Cloud Data file format
VERSION 0.7
FIELDS x y z rgb
SIZE 4 4 4 4
TYPE F F F U
COUNT 1 1 1 1
WIDTH 1053
HEIGHT 1
VIEWPOINT 0 0 0 1 0 0 0
POINTS 1053
DATA ascii
0.018337423 0.012108132 0.17618251 5131553
0.017018029 -0.015607606 0.17465462 7629093
0.018332584 0.012113936 0.17466167 5197346
0.016809614 0.010971369 0.17314672 8877364
0.018327743 0.012119642 0.17314036 7365696
0.016795829 0.012115032 0.17162354 7826213
0.0183229 0.012125429 0.17161861 5197346
0.016790757 0.012120778 0.17010133 9599294
0.018318057 0.012131177 0.1700964 7168573
0.016785681 0.012126605 0.16857865 9140543
0.01831321 0.012136946 0.16857372 6183217
0.016780606 0.012132334 0.16705553 8943165
0.018308364 0.012142735 0.1670506 5920301
0.016775528 0.012138141 0.16553195 5329170
0.018303515 0.012148486 0.16552702 5065760
0.016770447 0.012143971 0.1640079 4605443
0.018298667 0.012154256 0.16400295 4736537
0.016765367 0.012149702 0.16248341 7564088
0.018293815 0.012159989 0.16247846 6577462
0.016760284 0.012155513 0.16095844 5986846
0.018288963 0.012165802 0.16095351 5262882
0.016755201 0.012161285 0.15943302 7104306
0.018284108 0.012171575 0.15942809 5460006
0.016750116 0.012167078 0.15790714 8549190
0.018279253 0.01217737 0.15790221 7102527
0.016745029 0.012172892 0.15638082 5789466
0.018274395 0.012183185 0.15637587 6973254
0.01673994 0.012178666 0.15485401 6512680
0.018269537 0.012188901 0.15484908 6578753
0.01673485 0.012184461 0.15332676 9597771
0.018264677 0.012194698 0.15332183 7498831
0.016729759 0.012190277 0.15179905 7629881
0.018259816 0.012200455 0.15179412 8614747
0.016724667 0.012196053 0.15027088 5131789
0.018254954 0.012206234 0.15026595 7301707
0.01671957 0.01220185 0.14874226 4473856
0.018250089 0.012212092 0.14873731 7167034
0.016714474 0.012207668 0.14721316 6644266
0.018245224 0.012217851 0.14720823 7628358
0.016709376 0.012213506 0.1456836 9730130
0.018271226 0.0071322354 0.14583988 8221012
0.016704278 0.012219246 0.14415361 6381349
0.018388178 -0.012931418 0.14498799 7170634
0.016699176 0.012225125 0.14262313 3552772
0.016694076 0.012230846 0.1410922 3947531
0.016688971 0.012236706 0.1395608 8218696
0.016683865 0.012242528 0.13802895 4013324
0.01667876 0.01224831 0.13649663 6380596
0.016673651 0.012254172 0.13496386 4802587
0.016668541 0.012259935 0.13343062 4276241
0.016663428 0.012265838 0.13189691 7562304
0.016658317 0.012271582 0.13036275 6117680
0.016653202 0.012277466 0.12882812 4210704
0.016648086 0.012283192 0.12729304 5197346
0.016642969 0.012289057 0.12575749 4934173
0.016637851 0.012294822 0.12422147 5394725
0.016632728 0.012300668 0.12268499 6775356
0.016627606 0.012306475 0.12114805 5197346
0.016622484 0.012312301 0.11961064 4342290
0.016617358 0.012318148 0.11807278 8218439
0.016612232 0.012323956 0.11653444 5657384
0.016607102 0.012329783 0.11499565 3618565
0.016601972 0.012335571 0.11345639 3486979
0.016596841 0.01234144 0.11191666 4802586
0.016591709 0.012347268 0.11037647 6511412
0.016586574 0.012353057 0.10883582 6446133
0.016581438 0.012358925 0.10729469 4407826
0.016576299 0.012364754 0.10575311 4341778
0.01657116 0.012370603 0.10421105 6577720
0.01656602 0.012376413 0.10266854 8415818
0.016560879 0.012382302 0.10112555 4868380
0.016555734 0.012388092 0.099582106 7103809
0.016550589 0.012393961 0.098038189 7956037
0.016545441 0.012399791 0.096493803 4078861
0.016540293 0.01240564 0.094948955 5262626
0.016535142 0.01241151 0.09340363 7562561
0.016529992 0.01241734 0.091857851 4802586
0.016524838 0.012423189 0.090311594 4605207
0.011999425 0.0048758616 0.089491703 13019047
0.013523045 0.0051595112 0.089460909 12234928
0.015047672 0.0054352158 0.089430861 6447409
0.01657326 0.0057041026 0.089401454 4736794
0.018099682 0.005979938 0.089371391 11052710
0.019627027 0.0062525161 0.089341633 12496044
0.01219406 -0.010435261 0.08943332 10526623
0.013691905 -0.010161023 0.089403026 10395294
0.015190648 -0.0098865414 0.089372709 7104563
0.016690323 -0.0096160294 0.089342773 6051887
0.018190835 -0.0093372054 0.089312032 11644333
0.019692279 -0.0090622306 0.089281656 12692652
0.021194655 -0.0087976335 0.089252286 13604502
0.012216736 -0.012597549 0.088137411 10197915
0.013714121 -0.012587651 0.088132598 10197915
0.015328787 -0.024690287 0.089315787 9140302
0.016803505 -0.024427755 0.089286253 7102780
0.01820627 -0.012558133 0.088118188 10921381
0.019703651 -0.012548294 0.088113382 11315625
0.021201029 -0.012538396 0.088108577 11775148
0.012211039 -0.012591857 0.08663214 10197915
0.013708651 -0.012582017 0.086627342 10197915
0.015206262 -0.012572117 0.086622529 6381350
0.016703872 -0.012562277 0.086617723 5526056
0.01820148 -0.012552436 0.086612917 10197915
0.019699087 -0.012542536 0.086608112 10197915
0.01220534 -0.012586087 0.085126415 10197915
0.01370318 -0.012576303 0.085121617 10197915
0.015201016 -0.012566403 0.085116804 6381350
0.016698854 -0.012556619 0.085112005 5526054
0.018196689 -0.012546717 0.085107192 10197915
0.019694522 -0.012536816 0.085102387 10197915
0.012199641 -0.012580473 0.083620243 12430508
0.013697706 -0.012570569 0.08361543 12364972
0.015195769 -0.012560667 0.083610617 9334598
0.016693834 -0.012550882 0.083605818 7167032
0.018191895 -0.012540978 0.083601013 12299693
0.019689957 -0.012531194 0.083596215 12299693
0.012193939 -0.012574719 0.082113601 13669781
0.013692231 -0.012564874 0.082108796 13409950
0.015190522 -0.012555028 0.08210399 9006402
0.016688813 -0.012545124 0.082099184 7035702
0.018187102 -0.012535279 0.082094379 12953511
0.019685389 -0.012525433 0.082089573 13084326
0.012188234 -0.012569005 0.080606505 13476257
0.013686755 -0.012559158 0.080601707 12496558
0.015185272 -0.012549311 0.080596901 5921053
0.016683789 -0.012539404 0.080592088 5394212
0.018182306 -0.012529616 0.08058729 10526880
0.01968082 -0.012519711 0.080582477 10855588
0.012182529 -0.01256327 0.079098955 11512747
0.013681277 -0.01255348 0.079094157 11052967
0.015180022 -0.012543572 0.079089344 6118434
0.016678765 -0.012533723 0.079084538 5526056
0.018177507 -0.012523875 0.079079732 10197915
0.019676249 -0.012513967 0.079074927 10395037
0.012176823 -0.012557631 0.077590957 10855845
0.013675796 -0.012547722 0.077586144 11118503
0.015174768 -0.012537871 0.077581339 7629369
0.01667374 -0.012528022 0.077576533 7035960
0.018172709 -0.012518113 0.077571727 11052710
0.019671679 -0.012508262 0.077566922 11052710
0.012171115 -0.012551914 0.076082498 12692909
0.013670314 -0.012542003 0.076077685 13540765
0.015169514 -0.012532211 0.076072887 7235379
0.016668713 -0.0125223 0.076068074 7625529
0.018167909 -0.012512389 0.07606326 13540765
0.019667106 -0.012502596 0.076058462 13540508
0.012165404 -0.012546176 0.074573569 11841198
0.013664831 -0.012536263 0.074568756 12693166
0.015164258 -0.012526469 0.074563965 5263376
0.016663684 -0.012516556 0.074559152 5854764
0.018163107 -0.012506763 0.074554347 12824238
0.019662531 -0.01249685 0.074549541 12824238
0.012159691 -0.012540417 0.073064186 10789795
0.013659347 -0.012530621 0.073059388 11250089
0.015159001 -0.012520707 0.073054582 4671236
0.016658653 -0.012510852 0.073049776 6644545
0.018158305 -0.012500997 0.073044971 11710126
0.019657955 -0.012491083 0.073040158 11644333
0.012153977 -0.012534697 0.071554355 10197915
0.01365386 -0.0125249 0.071549557 10263708
0.015153741 -0.012514984 0.071544744 5263120
0.016653622 -0.012505127 0.071539938 6512960
0.0181535 -0.012495271 0.071535133 11513004
0.019653378 -0.012485355 0.07153032 11512747
0.012148262 -0.012529016 0.070044063 11775405
0.013648372 -0.012519157 0.070039257 10724259
0.01514848 -0.01250924 0.070034444 8548932
0.016648589 -0.01249944 0.070029646 7827538
0.018148694 -0.012489524 0.070024833 11315882
0.0196488 -0.012479665 0.070020027 11512747
0.012142545 -0.012523313 0.068533316 12561580
0.013642881 -0.012513394 0.068528503 11184296
0.015143218 -0.012503594 0.068523705 9203784
0.016643552 -0.012493675 0.068518892 8481874
0.018143887 -0.012483756 0.068514079 10921381
0.019644219 -0.012473955 0.068509281 10724259
0.012136825 -0.012517591 0.067022108 11906220
0.013637391 -0.012507729 0.067017302 11052967
0.015137954 -0.012497809 0.067012489 6118433
0.016638516 -0.012487947 0.067007683 7696209
0.018139077 -0.012478086 0.067002878 10395294
0.019639637 -0.012468224 0.066998072 10197915
0.012131104 -0.012511848 0.065510437 8288141
0.013631897 -0.012501985 0.065505631 6775405
0.015132688 -0.012492063 0.065500818 5460500
0.016633479 -0.012482258 0.06549602 7104842
0.018134268 -0.012472336 0.065491207 6118522
0.019635055 -0.012462473 0.065486401 5855606
0.012125382 -0.012506084 0.063998304 3486051
0.013626402 -0.012496219 0.063993499 4472667
0.015127421 -0.012486354 0.063988693 6710574
0.016628439 -0.01247649 0.063983887 4802102
0.018129455 -0.012466625 0.063979082 1644626
0.019630471 -0.012456702 0.063974269 1644626
0.012119658 -0.012500418 0.062485728 2499931
0.013620906 -0.012490492 0.062480915 5720933
0.015122152 -0.012480626 0.06247611 9864543
0.016623398 -0.01247076 0.062471304 6313799
0.018124642 -0.012460834 0.062466491 4208230
0.019625885 -0.012451028 0.062461693 4273766
0.012113932 -0.012494673 0.060972683 2762845
0.013615408 -0.012484805 0.060967874 5918312
0.015116882 -0.012474878 0.060963064 10193254
0.016618354 -0.012465009 0.060958255 6445642
0.018119827 -0.012455142 0.060953449 4536937
0.019621298 -0.012445275 0.060948644 4536937
0.012108204 -0.012488966 0.059459183 2697053
0.013609908 -0.012479037 0.059454367 5130339
0.01511161 -0.012469168 0.059449561 9339996
0.01661331 -0.012459239 0.059444748 5985862
0.018115012 -0.012449429 0.05943995 3683173
0.01961671 -0.012439501 0.059435137 3617380
0.010600543 -0.01249311 0.057950024 657991
0.012102474 -0.01248318 0.05794521 921163
0.013604406 -0.012473308 0.057940409 2368578
0.015106336 -0.012463379 0.057935588 6118177
0.016608266 -0.012453566 0.057930794 4538930
0.018110193 -0.012443637 0.057925977 1052491
0.01961212 -0.012433765 0.057921171 986955
0.010594584 -0.012487423 0.056435611 1842004
0.012096744 -0.012477491 0.056430794 1842260
0.013598902 -0.012467559 0.056425981 3223373
0.015101061 -0.012457686 0.056421176 7105077
0.016603218 -0.012447814 0.056416366 4999481
0.018105375 -0.012437883 0.056411553 197442
0.019607529 -0.012428069 0.056406755 65856
0.010588623 -0.012481716 0.054920733 4406370
0.012091011 -0.012471782 0.054915916 4472162
0.013593398 -0.012461849 0.054911103 5919077
0.015095784 -0.012451975 0.054906297 10194537
0.016598169 -0.012442041 0.054901481 6380361
0.018100554 -0.012432167 0.054896675 329015
0.019602936 -0.012422293 0.054891866 329015
0.010582659 -0.012475929 0.053405385 5785705
0.012085276 -0.012465994 0.053400569 7099248
0.013587892 -0.012456118 0.053395763 8348788
0.015090506 -0.012446183 0.053390946 11833718
0.016593119 -0.012436307 0.053386141 7430478
0.018095732 -0.012426431 0.053381331 3091542
0.019598342 -0.012416556 0.053376526 3091542
0.010576694 -0.012470181 0.05188958 5260134
0.012079539 -0.012460245 0.051884763 6442862
0.013582383 -0.012450367 0.051879957 7692144
0.015085226 -0.012440431 0.051875141 12356981
0.016588068 -0.012430612 0.051870339 8478045
0.018090907 -0.012420676 0.051865529 5785962
0.019593747 -0.012410798 0.05186072 5851498
0.010570728 -0.012464413 0.050373312 1250114
0.012073801 -0.012454534 0.050368506 1447236
0.013576873 -0.012444596 0.05036369 3552585
0.015079944 -0.012434716 0.05035888 11767667
0.016583014 -0.012424838 0.050354075 9198169
0.018086083 -0.0124149 0.050349258 8407652
0.01958915 -0.01240502 0.050344449 8342887
0.01056476 -0.012458743 0.048856597 2499920
0.012068061 -0.012448803 0.048851781 2565713
0.013571362 -0.012438864 0.048846964 4670551
0.015074661 -0.012428982 0.048842158 12751228
0.016577959 -0.012419043 0.048837341 6970204
0.018081257 -0.012409162 0.048832536 7687786
0.019584553 -0.01239934 0.048827734 5063012
0.01055879 -0.012452934 0.047339402 5129834
0.01206232 -0.012443052 0.047334593 5195626
0.013565849 -0.012433169 0.047329787 6642284
0.015069377 -0.012423228 0.047324974 12687233
0.016572902 -0.012413287 0.047320154 3289395
0.018076429 -0.012403463 0.047315355 7296113
0.019579953 -0.012393522 0.047310542 197429
0.010552818 -0.012447223 0.045821764 7688813
0.012056577 -0.012437339 0.045816951 7754092
0.013560333 -0.012427337 0.045812126 9068913
0.01506409 -0.012417453 0.045807321 7631167
0.016567845 -0.012407628 0.045802522 2828845
0.018071599 -0.012397685 0.045797702 3288920
0.019575352 -0.012387802 0.045792896 131636
0.010546844 -0.012441492 0.044303656 4997476
0.012050831 -0.012431547 0.044298839 5850984
0.013554817 -0.012421662 0.044294033 7952741
0.015058802 -0.012411717 0.044289216 4802822
0.016562786 -0.012401831 0.044284403 3289138
0.018066769 -0.012391946 0.044279598 4537698
0.019570749 -0.012382002 0.044274781 3814491
0.010540869 -0.012435741 0.042785086 986687
0.012045084 -0.012425853 0.042780276 921150
0.013549298 -0.012415848 0.042775452 3683163
0.015053513 -0.012405961 0.042770643 4671236
0.016557725 -0.012396074 0.042765837 3354677
0.018061936 -0.012386127 0.04276102 4340320
0.019566147 -0.0123763 0.042756222 5062756
0.010534892 -0.012430028 0.041266061 592186
0.012039335 -0.012420081 0.041261245 197429
0.013543779 -0.012410132 0.041256424 2565456
0.015048221 -0.012400185 0.041251607 4671235
0.016552662 -0.012390296 0.041246802 4801602
0.018057102 -0.012380407 0.041241992 1513285
0.019561542 -0.012370518 0.041237183 3748699
0.010528912 -0.012424236 0.039746564 3880284
0.012033585 -0.012414287 0.039741743 1578821
0.013538256 -0.012404338 0.039736927 1776200
0.015042928 -0.012394447 0.039732121 6183969
0.016547598 -0.012384557 0.039727308 4604222
0.018052267 -0.012374667 0.039722502 2236749
0.019556934 -0.012364717 0.039717685 2631249
0.010522931 -0.012418483 0.038226604 4077406
0.012027833 -0.012408532 0.038221788 2105164
0.013532734 -0.012398582 0.038216971 657979
0.015037633 -0.012388689 0.038212162 9926738
0.016542533 -0.012378798 0.038207356 2960173
0.01804743 -0.012368905 0.038202547 789564
0.019552328 -0.012358954 0.03819773 855101
0.010516949 -0.012412769 0.036706198 2433871
0.01202208 -0.012402817 0.036701377 2499920
0.013527209 -0.012392865 0.036696561 4340320
0.015032337 -0.012382912 0.03669174 7498552
0.016537465 -0.012373018 0.036686931 4932672
0.018042592 -0.012363125 0.036682125 4865891
0.019547718 -0.012353231 0.036677316 4865891
0.010510963 -0.012406976 0.035185311 5916520
0.012016324 -0.012397082 0.035180498 3486041
0.013521682 -0.012387068 0.03517567 4932198
0.01502704 -0.012377173 0.035170864 4737029
0.016532397 -0.012367219 0.035166048 5326913
0.018037753 -0.012357382 0.035161249 5720427
0.019543108 -0.012347488 0.035156436 5852012
0.010504977 -0.012401222 0.033663966 5720170
0.012010566 -0.012391266 0.033659149 3025749
0.013516154 -0.012381369 0.033654343 1315651
0.01502174 -0.012371355 0.033649512 4737030
0.016527327 -0.012361517 0.03364471 4341564
0.018032912 -0.01235162 0.033639908 1841993
0.019538496 -0.012341664 0.033635087 2039371
0.010498988 -0.012395448 0.032142155 2039371
0.012004807 -0.01238549 0.032137334 1249858
0.013510624 -0.012375592 0.032132529 460600
0.015016439 -0.012365635 0.032127712 7104305
0.016522255 -0.012355736 0.032122906 4473153
0.018028069 -0.012345838 0.032118093 4208991
0.019533882 -0.012335881 0.032113273 4143199
-0.049704149 0.024208587 0.024761762 4671303
0.010492999 -0.012389713 0.030619891 329015
0.011999045 -0.012379753 0.030615071 1118528
0.013505092 -0.012369795 0.030610252 2368078
0.015011137 -0.012359895 0.030605445 10776912
0.016517181 -0.012349936 0.030600626 6114383
0.018023225 -0.012340035 0.030595819 7686243
0.019529266 -0.012330195 0.030591017 7621478
-0.049585272 0.022542125 0.023451056 8287348
-0.048175901 0.024558185 0.023114868 8549492
-0.048235398 0.045786381 0.019606365 9335153
0.010487006 -0.012383899 0.029097149 921150
0.011993283 -0.012373997 0.029092342 2565456
0.013499558 -0.012364036 0.029087521 3748955
0.015005833 -0.012354076 0.029082701 8812620
0.016512107 -0.012344174 0.029077893 5589596
0.01801838 -0.012334331 0.029073099 5653349
0.019524651 -0.01232437 0.029068278 5850727
-0.049565271 0.022108229 0.021940012 10777459
-0.048059933 0.022895455 0.021805383 7234917
-0.046614453 0.024496527 0.021534957 6709601
-0.045595124 0.031843785 0.020305725 6249821
0.010481012 -0.012378123 0.027573954 921150
0.011987519 -0.012368219 0.027569147 2565456
0.013494023 -0.012358258 0.027564324 2565456
0.015000528 -0.012348354 0.027559517 5592118
0.016507031 -0.012338451 0.027554708 2894658
0.018013531 -0.012328489 0.027549887 1907785
0.019520033 -0.012318585 0.02754508 4341858
-0.049578052 0.02208283 0.020361152 6643808
-0.048058018 0.022685219 0.020256335 4671303
-0.046548609 0.023452191 0.020123769 4342338
-0.045055833 0.02447523 0.019948022 4408131
-0.043672301 0.027033739 0.019513398 4539717
-0.043407761 0.045321882 0.016426776 3026478
0.010475017 -0.012372387 0.026050299 460344
0.011981753 -0.012362481 0.02604549 1184065
0.013488487 -0.012352518 0.02604067 1315907
0.01499522 -0.012342555 0.026035847 2039627
0.016501952 -0.012332649 0.026031038 3025749
0.018008683 -0.012322744 0.026026228 3091541
0.019515414 -0.012312781 0.026021408 5328236
-0.049416844 0.019890487 0.019150984 5197647
-0.047983732 0.021553928 0.018864429 6512479
-0.046543311 0.023196071 0.018581487 7431268
-0.045031145 0.023958057 0.018448455 7692898
-0.043532316 0.024936769 0.0182785 8151136
-0.042104401 0.02695078 0.017932191 5918543
-0.041268326 0.037518758 0.016128825 4012859
-0.040246084 0.045890894 0.014699419 3355186
0.010469019 -0.01236663 0.024526171 2631249
0.011975984 -0.012356664 0.024521356 2697042
0.013482949 -0.012346758 0.024516547 2762835
0.014989911 -0.012336792 0.024511725 4669540
0.016496873 -0.012326827 0.024506902 4537184
0.018003833 -0.012316921 0.0245021 5785191
0.019510793 -0.012307014 0.024497291 7625588
-0.04942999 0.019869937 0.017574299 6380636
-0.047996625 0.021532252 0.017285073 7758691
-0.046556734 0.02318353 0.016997727 8214359
-0.045036413 0.023839576 0.016881619 8607061
-0.043508679 0.024424864 0.016777679 6836304
-0.042000942 0.025316475 0.016621029 8931914
-0.040506851 0.026446236 0.016423386 6970203
-0.039166249 0.029879807 0.015829317 3947323
-0.038066979 0.037114978 0.014581046 3947580
-0.036736775 0.041172005 0.013879629 3881787
-0.035291951 0.043633617 0.013452731 3815994
-0.033758488 0.044789292 0.013250546 3552822
-0.032171104 0.045107618 0.01319246 4013373
-0.030562818 0.045083724 0.013193263 7496547
-0.028954647 0.04505977 0.013194078 9725028
-0.027346602 0.045035876 0.01319488 6183000
-0.025738675 0.045011923 0.013195696 3421236
-0.024143197 0.045229193 0.013154993 4210495
0.010463021 -0.012360853 0.023001587 6244969
0.011970215 -0.012350887 0.022996763 6376298
0.013477408 -0.012340979 0.022991953 6310762
0.0149846 -0.012331012 0.022987137 5983083
0.016491791 -0.012321045 0.022982314 2762834
0.017998982 -0.012311196 0.022977516 2433871
0.019506171 -0.012301288 0.022972705 5195109
-0.04876605 -0.025584457 0.023899017 5788242
-0.049620066 0.022051984 0.015614444 7690585
-0.048100322 0.022665784 0.015504565 5129798
-0.046578545 0.02328001 0.015394606 4275260
-0.045050144 0.023833681 0.015295163 5063748
-0.043518398 0.024367217 0.015199222 2368548
-0.041994005 0.025028266 0.015081113 5787214
-0.040460847 0.025596118 0.014979191 6115408
-0.038942393 0.026407149 0.014835007 7887964
-0.037430994 0.027365502 0.014665207 8216415
-0.035947759 0.028808042 0.014411242 7954271
-0.034592677 0.032357812 0.013790986 7231833
-0.033129193 0.034340829 0.013443046 3487029
-0.031601351 0.035359658 0.013262699 3421236
-0.030029196 0.035674181 0.013204769 7232090
-0.028436983 0.035650831 0.013205567 9984345
-0.026844885 0.035627484 0.013206374 9005160
-0.025252724 0.035600714 0.013207771 8809066
-0.023660604 0.035572235 0.013209463 8607318
-0.022068622 0.035543755 0.013211155 6708573
-0.020476896 0.035517868 0.013212403 5722192
-0.01888535 0.035493158 0.01321344 5524556
-0.017294139 0.03547328 0.013213638 7889763
0.010457018 -0.012355058 0.021476528 3420248
0.011964443 -0.012345089 0.021471705 3354456
0.013471866 -0.012335179 0.021466892 3354455
0.014979288 -0.01232521 0.021462077 2828627
0.01648671 -0.012315301 0.021457266 1250114
0.017994128 -0.012305391 0.021452455 263222
0.019501548 -0.012295482 0.021447649 3815003
-0.049731735 -0.031845693 0.023498721 4078652
-0.048474006 -0.029243376 0.023038974 1513239
-0.047218934 -0.026500272 0.0225545 3157807
-0.049634222 0.022043595 0.014031028 3683894
-0.048114285 0.022657366 0.013920103 2039583
-0.046592314 0.023271799 0.013809057 1842204
-0.04506401 0.023829518 0.01370796 1710361
-0.043531723 0.024358619 0.013611888 1907997
-0.042008296 0.025035951 0.013489791 4341053
-0.040467922 0.025504105 0.013404412 3552565
-0.03890289 0.025634291 0.01337835 5459020
-0.037364602 0.026172213 0.013280716 6181972
-0.035824541 0.02671068 0.013182979 6313558
-0.034285318 0.027291106 0.013077876 6247508
-0.032733727 0.027702104 0.013002516 3355443
-0.03117439 0.028006477 0.012945867 2565927
-0.029613173 0.028295772 0.012891859 5196105
-0.028035859 0.028316177 0.01288507 7231576
-0.026453717 0.028248737 0.012893693 7625563
-0.024871841 0.028181294 0.012902324 8217700
-0.023290236 0.028113849 0.012910957 5853264
-0.0217089 0.028046403 0.012919581 4604996
-0.020120746 0.027830416 0.012954293 2434341
-0.018531678 0.027577659 0.012995466 3880502
-0.016943522 0.027325071 0.013036611 8808809
-0.015356628 0.027080962 0.013076265 6709344
-0.013772818 0.02689082 0.013106451 8350571
-0.012229803 0.027725656 0.012956642 9398376
0.010451017 -0.012349359 0.019951023 921150
0.011958671 -0.012339389 0.019946197 3420248
0.013466323 -0.012329419 0.01994138 5324641
0.014973975 -0.012319508 0.019936569 3551576
0.016481625 -0.012309537 0.019931752 723772
0.017989274 -0.012299626 0.019926939 657979
0.019496923 -0.012289655 0.019922122 4605285
-0.049455728 -0.035244133 0.022609271 3683380
-0.048184182 -0.032874469 0.02218627 6704718
-0.046933465 -0.030152122 0.021700744 2762792
-0.045692667 -0.027190525 0.021172782 723723
-0.048128244 0.022649029 0.012335187 657930
-0.046606086 0.023263613 0.012223072 723723
-0.045077879 0.023825375 0.012120307 657930
-0.043545097 0.024350632 0.012024015 2170912
-0.042021416 0.025027338 0.011900872 4143931
-0.040482108 0.025513569 0.011811487 3026221
-0.038826007 0.024314698 0.012020843 3026221
-0.037237413 0.024066688 0.012061627 3026478
-0.035538688 0.022108134 0.012405678 3223600
-0.033967439 0.022060078 0.012411023 5065033
-0.032395806 0.022002477 0.012418065 4736068
-0.030824266 0.021942517 0.012425518 4275774
-0.029252985 0.021882853 0.01243293 3947066
-0.027681969 0.021823598 0.012440264 4670789
-0.026111182 0.021764165 0.012447628 4736068
-0.024561627 0.022101665 0.012384613 4144702
-0.02298112 0.021856135 0.012424975 2763049
-0.021470958 0.02301557 0.012216211 3026221
-0.020057566 0.026285373 0.011633224 1842204
-0.018470969 0.026033698 0.01167467 3157293
-0.016879609 0.025654173 0.011738781 7628647
-0.0152896 0.025274875 0.011802855 4671303
-0.01370791 0.02506642 0.011836642 8875373
-0.012146177 0.025348667 0.011783406 7431525
-0.01061152 0.02637933 0.011597441 6709601
0.010445011 -0.012343523 0.018425027 263222
0.011952896 -0.01233361 0.018420221 1710407
0.013460778 -0.012323638 0.018415395 5587555
0.014968659 -0.012313667 0.018410577 7817058
0.01647654 -0.012303754 0.018405765 5718884
0.017984418 -0.012293782 0.018400947 5587556
0.019492297 -0.012283869 0.018396134 6445170
-0.049184401 -0.03858668 0.021721184 2828842
-0.04790125 -0.036421914 0.021330774 4932676
-0.046650168 -0.033776209 0.020854257 3092014
-0.045408808 -0.03089688 0.020335913 1644825
-0.044169296 -0.027868727 0.019790906 1381653
-0.046619859 0.023255389 0.010636657 986895
-0.045091759 0.023821255 0.010532204 657930
-0.043558486 0.024342727 0.010435696 1710618
-0.042034563 0.025018984 0.010311469 3617844
-0.040494479 0.025497196 0.010222699 4143931
-0.038839277 0.02431458 0.010431238 2236962
-0.036980651 0.020017475 0.011197354 1973790
-0.035390727 0.019631753 0.011263262 2039583
-0.033821125 0.019546101 0.011275445 4013116
-0.032252055 0.019463686 0.011287054 5459277
-0.030682163 0.019362187 0.011302084 5327434
-0.02909602 0.018974083 0.011368422 4144445
-0.027512025 0.01859975 0.011432298 3749944
-0.025934288 0.018315822 0.011479993 3881273
-0.024385219 0.018554751 0.011434066 1842204
-0.022926198 0.020568812 0.011070301 1907997
-0.021438265 0.022137381 0.010786292 3749944
-0.020048883 0.02588252 0.010112532 4603968
-0.018463563 0.025648609 0.010151247 4078395
-0.016872751 0.02527185 0.010215551 4868168
-0.014971406 0.017571559 0.011591273 3421236
-0.01339232 0.017108811 0.011671002 7300453
-0.011835774 0.017180275 0.011655068 4671046
-0.010279021 0.017251801 0.011639122 4276545
-0.0087220557 0.017323209 0.011623192 4342338
-0.0071648876 0.017394796 0.011607239 4407874
-0.0056075063 0.017466266 0.011591303 4407874
-0.0040499163 0.017537797 0.011575353 4342338
-0.0024925657 0.017624764 0.011556638 3750201
-0.00093649613 0.0177687 0.011527722 3223857
0.00062003155 0.017912639 0.011498803 3618615
0.0021770129 0.018056698 0.011469859 5591891
0.0037344536 0.018200703 0.011440925 8022891
0.0052923509 0.018344827 0.011411972 6709344
0.0068507055 0.018488957 0.011383018 4473924
0.0084095178 0.018633146 0.011354043 5130838
0.010439006 -0.012337785 0.016898589 592186
0.011947119 -0.012327812 0.016893763 592186
0.013455231 -0.012317897 0.016888957 1579078
0.014963342 -0.012307865 0.016884126 2894163
0.016471451 -0.012297951 0.016879313 3091285
0.01797956 -0.012288036 0.016874507 3025749
0.01948767 -0.012278121 0.016869692 4868199
-0.04891561 -0.041898314 0.020838693 986895
-0.047633573 -0.039785951 0.020454017 986895
-0.046369165 -0.03737095 0.020014636 2105376
-0.045127243 -0.034573339 0.019506084 4209210
-0.043891881 -0.031570576 0.018960435 4012088
-0.042647865 -0.028546661 0.018410942 1973790
-0.045105636 0.023817096 0.0089436555 657930
-0.043571874 0.024334844 0.0088469321 1644825
-0.042047851 0.025012538 0.0087212892 4998469
-0.040506683 0.025478257 0.0086339619 7360849
-0.038584005 0.020386292 0.0095512141 2631463
-0.036960769 0.019524241 0.0097039081 2500134
-0.035392035 0.019455446 0.009713213 3421236
-0.033821244 0.019349845 0.009729173 2434341
-0.032249518 0.019222511 0.0097490624 3947323
-0.030671744 0.018985992 0.0097886929 4604482
-0.029088028 0.01863257 0.0098494552 3749687
-0.02750558 0.018279435 0.0099101737 3420979
-0.025921812 0.017879235 0.0099793961 4144445
-0.024349594 0.017670721 0.010013976 3223857
-0.022844953 0.018767748 0.0098125162 3618358
-0.021446226 0.022081394 0.0092103127 5853778
-0.02005922 0.025878228 0.0085207177 5721678
-0.018473787 0.025646769 0.0085594179 3749687
-0.016376343 0.013841999 0.010690614 2631720
-0.014792606 0.013144697 0.010813579 2302755
-0.01324059 0.013163807 0.01080702 4078909
-0.01168854 0.013182858 0.010800472 2368548
-0.010136464 0.013201968 0.010793914 3749944
-0.0085843559 0.013221019 0.010787359 3947066
-0.0070322198 0.01324007 0.010780812 3947323
-0.0054800538 0.013259121 0.010774258 3947066
-0.0039278585 0.013278173 0.01076771 3881273
-0.0023756349 0.013297225 0.010761156 3881273
-0.0008233838 0.013316336 0.010754596 3815480
0.00072889705 0.013335448 0.010748036 3157807
0.0022812099 0.0133545 0.010741482 4276288
0.0038335202 0.013374908 0.010734684 5722449
0.0053858357 0.013396788 0.010727625 3815994
0.0069381907 0.01341861 0.010720572 2960685
0.0084905829 0.013440491 0.010713507 5326928
0.010432996 -0.012331968 0.015371667 5390434
0.01194134 -0.012322052 0.015366853 5127262
0.013449682 -0.012312077 0.015362034 3945819
0.014958023 -0.012302102 0.015357214 1315907
0.016466364 -0.012292186 0.0153524 197429
0.017974703 -0.01228227 0.015347593 921150
0.019483041 -0.012272295 0.015342774 5459821
-0.049933184 -0.047125425 0.020319656 3420465
-0.04863029 -0.045401823 0.020002287 3880759
-0.047357608 -0.043247595 0.019606335 4340796
-0.0460907 -0.0409333 0.019181158 4866626
-0.044849899 -0.038195834 0.018678747 4932162
-0.043616757 -0.035241883 0.018136818 4472639
-0.042372692 -0.032298345 0.017596764 3420722
-0.041113589 -0.029420676 0.017068719 2105376
-0.043585319 0.02432769 0.007257591 2105376
-0.042061143 0.025006112 0.0071306662 4736325
-0.040519863 0.025473297 0.0070422799 6968147
-0.038607225 0.020532452 0.0079408167 3092014
-0.036970809 0.019480059 0.0081297616 2171169
-0.035404891 0.019456968 0.0081308698 5196105
-0.033833869 0.019351326 0.0081470348 3749687
-0.032261677 0.019220246 0.008167848 3092271
-0.03068389 0.018987356 0.0082072439 5984593
-0.029100735 0.018647591 0.0082661472 3815737
-0.027518019 0.018294333 0.0083275186 2697513
-0.025932686 0.017870229 0.0084018195 4538689
-0.024356101 0.017583257 0.0084510939 5590092
-0.022833342 0.018327583 0.0083121294 5655885
-0.021454152 0.022024674 0.0076341941 5525070
-0.020069206 0.025866417 0.0069298204 4868168
-0.018483967 0.025643829 0.0069673234 3947323
-0.016341476 0.012830748 0.0093031116 2171169
-0.014769288 0.012369268 0.0093842605 1842204
-0.013217869 0.012375943 0.0093799597 1842204
-0.011666815 0.012391628 0.0093740094 1973790
-0.010115748 0.012407431 0.0093680415 4867654
-0.0085646603 0.012423176 0.0093620857 5721421
-0.0070135519 0.012438862 0.0093561346 5852750
-0.0054624313 0.012454665 0.0093501667 5852750
-0.0039112899 0.012470409 0.0093442034 5852750
-0.0023601339 0.012486213 0.0093382355 5852750
-0.0008089547 0.012501899 0.0093322843 5786957
0.00074215268 0.012521002 0.0093257139 4012859
0.0022932633 0.012541281 0.0093189226 4473410
0.0038444076 0.012561562 0.0093121389 6903896
0.0053955847 0.012581842 0.0093053477 3618358
0.0069467952 0.012602123 0.0092985639 3749687
0.0084980391 0.012622404 0.0092917718 6180437
0.010426986 -0.01232619 0.013844285 5390691
0.01193556 -0.012316273 0.013839478 5521507
0.013444132 -0.012306295 0.013834657 5128291
0.014952702 -0.01229632 0.01382983 4406112
0.016461274 -0.012286401 0.013825023 4668770
0.017969841 -0.012276425 0.013820202 3157334
0.01947841 -0.012266507 0.013815387 7564928
-0.04834618 -0.048889805 0.019174775 5917258
-0.047076046 -0.046774663 0.018782305 5063234
-0.04581679 -0.044438846 0.018349167 4603711
-0.044575796 -0.041776635 0.017855896 3618101
-0.043335512 -0.038989507 0.017339583 5394255
-0.042092029 -0.036119901 0.016808072 7759976
-0.040824339 -0.033441309 0.016311716 7561569
-0.039536085 -0.030917654 0.015843894 5788499
-0.038230732 -0.028511673 0.015397733 4605253
-0.040534444 0.025488198 0.0054464848 5985621
-0.038606569 0.020329377 0.006393793 4407360
-0.036983665 0.019478003 0.0065475521 2105376
-0.035417575 0.019455861 0.0065485411 3289393
-0.03384649 0.019352827 0.0065644309 5327434
-0.032273844 0.019218061 0.0065861703 3289393
-0.030695584 0.018981086 0.0066267354 7363676
-0.02911344 0.018662568 0.0066823349 4670532
-0.027530469 0.018309306 0.006744334 2302498
-0.025943704 0.017863778 0.0068233437 3552565
-0.02436519 0.017544528 0.0068790824 4998983
-0.022843717 0.018317008 0.0067336527 4867654
-0.021462077 0.021967934 0.0060578156 4670532
-0.020079587 0.025862874 0.005336985 11118760
-0.01849415 0.02564091 0.0053747711 9074551
-0.016344555 0.01267591 0.0077608456 4932933
-0.014775239 0.012280916 0.0078305677 3092271
-0.013224139 0.012297248 0.0078244871 3026478
-0.011672593 0.012302687 0.0078204181 3158064
-0.010121487 0.012319433 0.0078142649 4407617
-0.0085703628 0.012336236 0.0078080995 4867654
-0.0070192134 0.012352982 0.0078019463 4670275
-0.0054680463 0.012369786 0.0077957879 4604482
-0.0039168568 0.01238659 0.0077896221 4604482
-0.0023656446 0.012403336 0.0077834688 4670275
-0.00081441185 0.012420082 0.0077773151 5064776
0.00073684286 0.012436886 0.0077711493 4341567
0.0022881171 0.012453692 0.0077649904 5327948
0.0038394143 0.012470438 0.0077588367 8608089
0.0053907312 0.012487243 0.0077526704 7493720
0.006942071 0.01250399 0.0077465163 5918800
0.0084934318 0.012520795 0.00774035 4144199
0.010420975 -0.012320451 0.01231645 1907785
0.011929778 -0.012310473 0.012311629 1776199
0.01343858 -0.012300495 0.012306808 1776200
0.014947381 -0.012290576 0.012301993 1973578
0.016456181 -0.012280597 0.012297172 3091285
0.01796498 -0.012270619 0.012292351 2170956
0.019473778 -0.0122607 0.012287542 6315894
-0.045520205 -0.048219081 0.017580021 5328719
-0.044281889 -0.045602206 0.01709057 8222326
-0.043043926 -0.042867027 0.016579112 10588047
-0.041777734 -0.040376745 0.016113169 10911101
-0.040495858 -0.037981465 0.015664874 9989228
-0.039211296 -0.035511259 0.015202635 7235431
-0.037897658 -0.033328049 0.014793746 5395026
-0.036562148 -0.031350154 0.014423028 7498089
-0.035220496 -0.029363148 0.014050596 6841187
-0.036996517 0.019475909 0.004964889 4276288
-0.035430249 0.01945442 0.0049658143 4144702
-0.033859119 0.019354289 0.0049813595 3749944
-0.029873371 -0.01999405 0.012296457 3157807
-0.028371861 -0.020070745 0.01230778 4801861
-0.026776651 -0.021765517 0.012620055 5525841
-0.025281984 -0.02178078 0.012619959 3684151
-0.023787405 -0.021796044 0.012619863 3158064
-0.02229291 -0.021811308 0.012619768 2829099
-0.022854092 0.018306341 0.0051547727 4538946
-0.021470005 0.021911172 0.0044811694 8023405
-0.020090083 0.025861707 0.0037432448 10329501
-0.01850434 0.02563807 0.003781748 7499888
-0.015148864 -0.014511373 0.011247177 7296855
-0.013621854 -0.015004469 0.011335942 5852750
-0.012116265 -0.015016124 0.011335158 5787214
-0.010610753 -0.015027839 0.011334379 6181201
-0.0091053154 -0.015039555 0.011333601 6181715
-0.0075999554 -0.015051153 0.011332804 4276031
-0.0060946671 -0.015062869 0.011332027 3092014
-0.0045894575 -0.015074527 0.011331236 3026478
-0.0030843203 -0.015086245 0.011330458 2828842
-0.0015792598 -0.015097903 0.011329676 2631463
-7.4275675e-05 -0.015109563 0.011328886 3881273
0.0014306344 -0.015121282 0.01132811 5064519
0.0029354687 -0.015132942 0.011327328 5853521
0.0044402289 -0.015144663 0.011326551 8346716
0.0059449673 -0.015159032 0.01132627 9000534
0.0074496623 -0.015175641 0.011326404 5918800
0.0089542661 -0.015192308 0.011326551 2171182
0.010456564 -0.015062714 0.011299479 526393
0.011923994 -0.012304713 0.010783321 460601
0.013433026 -0.012294733 0.0107785 460600
0.014942057 -0.012284754 0.010773677 526393
0.016451087 -0.012274774 0.010768856 526393
0.017960116 -0.012264912 0.010764052 460601
0.019469146 -0.012254932 0.010759231 5395051
-0.043973889 -0.049601473 0.01637073 11436931
-0.042720314 -0.047149736 0.01590774 10325903
-0.041456241 -0.044725247 0.015449844 8354426
-0.04017901 -0.04236526 0.015004046 6906980
-0.038861345 -0.040445063 0.014640777 5526355
-0.037535667 -0.03854483 0.014281239 6578272
-0.03619764 -0.036728121 0.013937367 12234157
-0.034829289 -0.035263717 0.013659619 10984090
-0.033415869 -0.03439999 0.013494611 7955042
-0.031997159 -0.033572555 0.013336415 7955042
-0.03056933 -0.032844856 0.013196929 4802118
-0.029115248 -0.032503583 0.013129988 1842204
-0.027638886 -0.032515727 0.013129382 4736325
-0.026162244 -0.032533996 0.013129935 7364961
-0.024686066 -0.03254579 0.013129262 7101789
-0.023209861 -0.032559406 0.013128941 6707545
-0.021733595 -0.032575734 0.013129126 4341567
-0.020257423 -0.032592002 0.0131293 5196362
-0.018781338 -0.032608271 0.013129473 8683134
-0.017305344 -0.032624543 0.013129647 10921381
-0.015829813 -0.032632805 0.013128317 8683134
-0.014395183 -0.031720359 0.012954118 4867654
-0.012964237 -0.030648785 0.012750036 4932933
-0.011529747 -0.029574595 0.012545452 4801604
-0.010113733 -0.02793582 0.01223486 5458506
-0.0089173177 -0.020289009 0.010796113 8346459
-0.0074204961 -0.020307964 0.010796752 7495262
-0.0059237811 -0.020326801 0.010797366 6707031
-0.0044271606 -0.020345697 0.010797994 6641495
-0.0029306426 -0.020364594 0.010798622 5984593
-0.0014342256 -0.020383434 0.010799238 4275774
6.2094994e-05 -0.020402333 0.010799865 4999240
0.0015583131 -0.020421231 0.010800494 7494491
0.0030544335 -0.020440131 0.010801123 7625306
0.0045504519 -0.020458974 0.01080174 8150879
0.0060463711 -0.020477874 0.01080237 7362905
0.0075421901 -0.020496719 0.010802994 4144445
0.0090379082 -0.020515561 0.010803612 2697266
0.010531945 -0.020429907 0.0107846 2762578
0.012020113 -0.019887857 0.010679876 2762577
0.013492521 -0.017844019 0.010293077 2762577
0.014936732 -0.01227897 0.0092449021 2828370
0.016445993 -0.012268988 0.0092400797 2828370
0.017955253 -0.012259066 0.0092352703 2828370
0.01946451 -0.012249144 0.0092304526 6513015
-0.041121155 -0.049248565 0.014834343 6052956
-0.039809782 -0.047442839 0.014489461 4737096
-0.038492106 -0.045638897 0.014144907 8678765
-0.037156977 -0.043991901 0.013830073 13410721
-0.035799213 -0.042587299 0.013561154 13475743
-0.034404557 -0.041651648 0.01338106 13279392
-0.032989759 -0.04097018 0.013249125 11906220
-0.031560164 -0.040480945 0.013153599 9868436
-0.03010352 -0.040393025 0.013134104 10525081
-0.028640475 -0.040404785 0.013133494 10651270
-0.027177496 -0.040416665 0.013132902 9009272
-0.025714597 -0.040428489 0.013132305 9602180
-0.02425177 -0.04044031 0.013131709 8810608
-0.022787938 -0.040471967 0.013134872 8019293
-0.021325329 -0.040483143 0.013134145 7956070
-0.019891368 -0.039936773 0.013027783 9007987
-0.018475747 -0.038982727 0.012844166 11709355
-0.017072327 -0.037705623 0.012599323 11249832
-0.015666317 -0.036390178 0.01234721 9600895
-0.014267866 -0.034803271 0.012043645 3947066
-0.012873353 -0.032996863 0.011698474 2039583
-0.011474373 -0.031148743 0.011345384 1907997
-0.010066663 -0.029362082 0.011003935 1973790
-0.0088827917 -0.02144237 0.0095001943 5261898
-0.007387863 -0.021457741 0.009500212 7363676
-0.0058930214 -0.021473113 0.0095002223 9591386
-0.0043982714 -0.021488369 0.0095002148 9265505
-0.0029036051 -0.021503743 0.0095002251 9001819
-0.0014090261 -0.021519115 0.0095002437 6115922
8.5461266e-05 -0.021534432 0.0095002418 4341567
0.0015798652 -0.021549806 0.0095002614 6707031
0.0030741785 -0.021565124 0.0095002605 6641495
0.004568466 -0.021583267 0.0095007997 6247508
0.0060626576 -0.021601411 0.0095013389 5327948
0.0075567518 -0.021619614 0.0095018921 3157807
0.0090507492 -0.021637818 0.0095024444 5327444
0.010544347 -0.021636067 0.0094992109 4143198
0.012035167 -0.021429759 0.0094572073 4077405
0.013524114 -0.021006053 0.0093739908 4339805
0.015006416 -0.019775569 0.0091378344 5981027
0.016440896 -0.012263184 0.0077108312 6505314
0.017950386 -0.01225326 0.0077060205 5128035
0.019459873 -0.012243336 0.0077012102 7564929
-0.036739476 -0.049976569 0.013500216 12169906
-0.035365582 -0.048945777 0.013300354 12497329
-0.033950519 -0.048465129 0.013205665 13214627
-0.032524154 -0.048129555 0.013138714 13538966
-0.031074105 -0.048141047 0.013138116 13345442
-0.029623097 -0.048168901 0.013140645 12693166
-0.02818073 -0.048058484 0.013116735 11381675
-0.026756784 -0.047634516 0.013032876 11381675
-0.025345918 -0.046961121 0.012901318 10329501
-0.023933375 -0.046276882 0.012767681 11250346
-0.022525935 -0.045457002 0.01260811 11381418
-0.021140968 -0.044160374 0.012357359 11381418
-0.01976197 -0.042660888 0.012067812 11775919
-0.018382547 -0.041066628 0.01176014 11118760
-0.017002983 -0.039361414 0.011431229 10592673
-0.015622933 -0.037540238 0.011080136 10327445
-0.014237002 -0.035711251 0.010727537 6772824
-0.012846993 -0.033831324 0.010365185 3158064
-0.011454135 -0.031863905 0.0099860849 1842204
-0.010057276 -0.029826943 0.0095936721 1842204
-0.0086748432 -0.027219469 0.0090921381 4210238
-0.0071898755 -0.027227841 0.0090908743 6248022
-0.0057049701 -0.027236274 0.0090896236 8480872
-0.0042201304 -0.027244704 0.0090883728 7824741
-0.0027353521 -0.027253138 0.009087122 8085086
-0.0012506372 -0.02726157 0.0090858722 8085086
0.00023401262 -0.027270004 0.0090846214 4736325
0.0017185991 -0.027278436 0.0090833716 4341824
0.0032023785 -0.027255561 0.0090761343 4736325
0.004680845 -0.02698962 0.0090224007 2697513
0.0061598672 -0.026707666 0.0089656031 2105376
0.0076390174 -0.026382389 0.0089005185 2105376
0.009118204 -0.025995128 0.0088235689 6312028
0.010587125 -0.024845082 0.008600709 1907785
0.012036753 -0.021968208 0.0080475044 1907785
0.013529172 -0.021901246 0.0080318106 2170700
0.015017596 -0.021415446 0.0079359952 5587555
0.016493866 -0.019265398 0.0075217937 8077659
0.017945517 -0.012247434 0.0061763059 5062241
0.019455237 -0.012237509 0.0061714943 8481149
-0.026641866 -0.049741231 0.011971362 10526880
-0.025242018 -0.04893712 0.011813433 10263708
-0.023853853 -0.047877483 0.011606197 10461087
-0.022466188 -0.046742812 0.011384474 10526880
-0.021083914 -0.04543332 0.011129014 10526880
-0.019719057 -0.04369691 0.010791156 10724259
-0.018354241 -0.041839905 0.010430026 10461087
-0.016985612 -0.039929733 0.010058616 10329501
-0.015614563 -0.037930436 0.0096699987 10921381
-0.014237085 -0.035921741 0.0092795538 8220013
-0.012800436 -0.035138741 0.0091256304 5196362
-0.011330386 -0.035106484 0.00911659 1907997
-0.0098571181 -0.03515425 0.0091229854 1776411
-0.0083838906 -0.035206251 0.0091301994 5590606
-0.0069122817 -0.035218947 0.009129826 9133148
-0.0054520019 -0.034901496 0.0090657435 7298140
-0.0040320456 -0.033305131 0.0087548234 5459277
-0.0026136062 -0.031481136 0.008399955 7363419
-0.0011631021 -0.030550376 0.0082174828 8805211
0.00030373308 -0.030103695 0.0081284326 6772310
0.0017720604 -0.02965665 0.0080393096 5853521
0.0032418766 -0.029209066 0.0079500778 7428441
0.0047129355 -0.028749585 0.0078585483 5787728
0.0061849812 -0.028262671 0.0077617238 2960685
0.0076586572 -0.027775275 0.0076648016 2236962
0.0091339648 -0.02728728 0.0075677568 2697279
0.010605325 -0.026430771 0.0073995767 2959956
0.012031414 -0.021991322 0.0065397527 2959956
0.013529004 -0.02235008 0.0066061411 2959956
0.015020373 -0.022214036 0.0065770224 4208734
0.016505606 -0.021285808 0.0063949651 5653349
0.01794065 -0.012241707 0.004646136 3354199
0.019450597 -0.012231779 0.0046413238 7694205
-0.025213214 -0.049621083 0.010480456 11052967
-0.023830963 -0.048474018 0.010254371 11052967
-0.022447115 -0.047284693 0.010020048 11118503
-0.021084312 -0.045621753 0.009693508 11118503
-0.019718101 -0.043914299 0.0093582869 11118503
-0.018310081 -0.042932767 0.0091643967 10987174
-0.016851237 -0.042943668 0.0091637401 10724002
-0.015392455 -0.042954803 0.0091631319 10724259
-0.013935604 -0.04292405 0.0091543673 11381675
-0.012500698 -0.042377498 0.0090451604 7894389
-0.011069318 -0.041699801 0.0089104148 7105387
-0.0096330438 -0.041088272 0.0087885521 6447457
-0.0082067633 -0.04015528 0.0086040851 9013384
-0.0067773839 -0.03922021 0.0084192073 9736593
-0.0053552329 -0.037979726 0.0081748422 10393495
-0.0039501353 -0.036081526 0.00780239 9933715
-0.0025856427 -0.032646451 0.0071306326 10323333
-0.0011517429 -0.031203752 0.0068468596 9801872
0.0003106457 -0.030627118 0.0067317393 9736593
0.0017764581 -0.030108364 0.006627894 10523539
0.0032440035 -0.029588951 0.0065239132 10918040
0.004713288 -0.029068995 0.0064198221 10655639
0.0061843139 -0.02854844 0.006315615 10196630
0.0076570828 -0.028027225 0.0062112724 9867922
0.0091315964 -0.027505351 0.0061068018 5852517
0.01060304 -0.026665088 0.0059403135 4274527
0.012025856 -0.021998344 0.0050285058 4471391
0.013524828 -0.022457015 0.005115001 4471391
0.015017681 -0.022465799 0.0051138713 3682906
0.016505593 -0.021886989 0.0049982811 2236749
0.017966956 -0.016975012 0.0040386221 1250114
0.019445958 -0.012225912 0.00311067 6381174
-0.020883823 -0.049599569 0.009002625 13541793
-0.019470617 -0.048938099 0.0088699395 13542050
-0.018057974 -0.048220031 0.008726134 13476000
-0.016662009 -0.047102518 0.0085038552 12102571
-0.015245019 -0.04635806 0.0083548483 11184296
-0.013838998 -0.045309849 0.0081461696 12037549
-0.012429517 -0.044259023 0.0079369666 11315625
-0.011016117 -0.043216407 0.0077293669 10329501
-0.0095982794 -0.042196415 0.007526211 10329501
-0.0081770588 -0.041173927 0.0073225568 10329501
-0.0067524416 -0.040149063 0.0071184295 10329501
-0.0053335731 -0.038853176 0.0068610418 10329501
-0.0039329682 -0.036856558 0.006465964 10329501
-0.0025871438 -0.032849986 0.0056759506 11775662
-0.0011586284 -0.031226257 0.0053541125 10855588
0.00030350927 -0.030634115 0.0052349563 10329501
0.0017695215 -0.030115316 0.0051302169 11315882
0.0032372659 -0.029595857 0.0050253421 11315882
0.0047067492 -0.0290758 0.0049203439 10329501
0.006177973 -0.02855514 0.0048152227 10329501
0.007650943 -0.028033881 0.004709986 10526880
0.0091256825 -0.027513433 0.0046049035 6775933
0.010597271 -0.026669702 0.0044362871 1842249
0.012020299 -0.022005459 0.0035168631 1907785
0.013519453 -0.022461884 0.0036037271 2499663
0.015013177 -0.022536615 0.0036155912 3551834
0.016502285 -0.022090675 0.0035251244 3420505
0.01797346 -0.018693147 0.0028545733 2368335
-0.019434106 -0.049847305 0.0075832047 12758959
-0.018037409 -0.048835132 0.007379882 12758959
-0.01663737 -0.047820587 0.0071760714 11644333
-0.015235336 -0.046774432 0.0069660009 11512747
-0.013831725 -0.045683563 0.0067470507 12691881
-0.01242452 -0.044589784 0.0065275216 11250089
-0.011013695 -0.043493271 0.0063074506 10197915
-0.009599247 -0.042393915 0.0060867984 10197915
-0.0081811575 -0.041291706 0.0058655795 10197915
-0.0067594922 -0.04018436 0.0056433296 10197915
-0.0053412123 -0.038867135 0.0053794798 10197915
-0.0039401827 -0.036878332 0.0049824878 10197915
-0.0025942342 -0.032871164 0.0041853944 10658466
-0.0011655145 -0.031248849 0.0038610215 10395294
0.00029637135 -0.030641086 0.0037377598 10197915
0.0017625801 -0.030122183 0.0036321061 10526880
0.0032305242 -0.02960268 0.0035263372 10526880
0.0047002072 -0.029082578 0.0034204449 10197915
0.0061716312 -0.028561875 0.0033144297 10197915
0.0076448163 -0.028041394 0.0032084512 10263708
0.0091197668 -0.027521551 0.0031025971 6776189
0.010591477 -0.026672879 0.0029315476 2565713
0.012014739 -0.02201255 0.0020047922 2236749
0.013514077 -0.022466848 0.0020920499 855357
0.015008046 -0.022545034 0.0021047466 4274784
0.016497597 -0.02212798 0.0020192468 6836335
0.017969145 -0.018766772 0.0013499971 6114156
-0.018041128 -0.048960291 0.0059373812 11316139
-0.016644506 -0.047874741 0.0057176319 10724259
-0.015244307 -0.046786524 0.0054973392 11447211
-0.013840524 -0.045695454 0.0052764649 12692652
-0.012433141 -0.044601597 0.0050550369 11184296
-0.011022141 -0.043504953 0.0048330324 10197915
-0.0096075181 -0.042405397 0.0046104486 10197915
-0.008189355 -0.041300293 0.0043867463 10395294
-0.0067675244 -0.04019234 0.0041624624 10592673
-0.0053488514 -0.038881127 0.0038975319 10658209
-0.0039473963 -0.036900137 0.0034986627 10658209
-0.0026013276 -0.032892376 0.002694482 10790052
-0.0011724042 -0.031271353 0.0023675568 10855588
0.00028923232 -0.030648094 0.0022401549 10724002
0.00175564 -0.030129146 0.0021336072 10658209
0.0032237831 -0.029609598 0.0020269365 10395294
0.004693666 -0.029089451 0.0019201501 10197915
0.006165294 -0.028568879 0.0018132633 10197915
0.0076387017 -0.02804959 0.0017066379 10197915
0.009113851 -0.027529702 0.0015998896 7630210
0.010585683 -0.026676094 0.0014263924 6508398
0.012009179 -0.022019677 0.00049231306 6377069
0.013508701 -0.022471787 0.00057994446 2960213
0.015002914 -0.022553431 0.00059348124 1908042
0.016492596 -0.022128083 0.00050561369 3288663
0.017964667 -0.018815827 -0.00015967985 3354456
-0.018050443 -0.048972633 0.0044721365 10263708
-0.016653644 -0.047887061 0.0042505008 10263708
-0.015253279 -0.046798587 0.0040282789 10658209
-0.013849321 -0.045707438 0.0038055133 11315882
-0.012441764 -0.044613447 0.0035821586 10789795
-0.011030611 -0.043516133 0.0033581303 10197915
-0.0096159158 -0.042413741 0.0031330758 10329501
-0.0081975693 -0.0413085 0.0029074324 11118503
-0.0067755571 -0.040200409 0.0026812074 11840427
-0.0053564934 -0.038895089 0.0024152002 11840427
-0.0039546126 -0.036921974 0.002014474 11840427
-0.0026084203 -0.032913562 0.0012031932 12561580
-0.0011793677 -0.031291358 0.00087322854 12627116
0.00028209225 -0.030655134 0.0007421418 12168364
0.0017486989 -0.030136142 0.00063469994 11840684
0.003217038 -0.029616432 0.00052711007 10987174
0.0046871197 -0.02909624 0.00041942208 10197915
0.0061589782 -0.028577095 0.00031193829 10197915
0.0076325848 -0.028057761 0.00020441136 10197915
