# .PCD v0.7 - Point Cloud Data file format
VERSION 0.7
FIELDS x y z rgb
SIZE 4 4 4 4
TYPE F F F U
COUNT 1 1 1 1
WIDTH 1061
HEIGHT 1
VIEWPOINT 0 0 0 1 0 0 0
POINTS 1061
DATA ascii
-0.010616477 0.043938611 -0.0031114216 3026478
-0.0091787279 0.042817868 -0.0033320377 4210495
-0.0077372333 0.041694231 -0.0035532182 6249050
-0.0062926547 0.040545449 -0.0037794609 4868168
-0.0048568924 0.038951471 -0.0040955446 4473667
-0.0034467715 0.03620204 -0.0046448219 4276288
-0.0020480391 0.03262642 -0.0053608003 4276545
-0.00057390664 0.031738814 -0.00553424 3881787
0.00091115182 0.031213574 -0.0056345449 3026478
0.0023979859 0.03068768 -0.0057349731 2829099
0.0038866031 0.030161137 -0.0058355252 2829099
0.0053770053 0.029633997 -0.0059361891 2763306
0.006869195 0.029106207 -0.0060369833 2763306
0.0083631771 0.028577764 -0.0061378945 2763306
0.0098580578 0.027970552 -0.0062546968 5983354
0.011344023 0.026235158 -0.0065991236 186
0.012824096 0.023023658 -0.0072413418 186
0.014335324 0.023005966 -0.0072391527 186
0.015842253 0.022040628 -0.0074281562 186
0.017328627 0.012756681 -0.009295335 65978
0.018849494 0.0057403035 -0.010704949 65978
-0.017734775 0.049502403 -0.00053261855 6314072
-0.016316203 0.048398659 -0.00074796122 5788756
-0.014893978 0.047291897 -0.00096389186 7103588
-0.013468146 0.046180479 -0.0011807471 4603454
-0.012038616 0.045066219 -0.0013981549 8282979
-0.010605376 0.043949008 -0.0016161386 6314586
-0.0091684153 0.042828839 -0.0018346984 3487029
-0.0077277082 0.041705832 -0.0020538105 4210752
-0.0062838332 0.040560611 -0.002277354 3750201
-0.0048488025 0.038969599 -0.0025900812 3552822
-0.0034395524 0.036218088 -0.0031349973 3355443
-0.0020413545 0.032653432 -0.0038425766 3552822
-0.00056831312 0.031755634 -0.0040165326 3355443
0.00091591419 0.031230761 -0.0041158558 4736839
0.0024019151 0.030705117 -0.0042153327 6971745
0.0038896974 0.030178938 -0.0043149027 7496804
0.0053792619 0.029652108 -0.0044146031 7628390
0.0068706111 0.029124564 -0.004514432 7694183
0.0083637629 0.02859731 -0.0046142032 7693926
0.0098578427 0.027994191 -0.0047291364 7490682
0.011343171 0.026281536 -0.0050660088 186
0.012822994 0.02315164 -0.0056863311 186
0.014334688 0.023372663 -0.0056363801 186
0.015842419 0.022898909 -0.0057253898 186
0.017323965 0.012750175 -0.0077494094 186
0.018852094 0.012760114 -0.0077416082 65978
-0.017719679 0.049513184 0.00095149298 10325903
-0.016301947 0.04840837 0.00073784898 10716549
-0.014880566 0.047300372 0.00052357459 9077121
-0.013455504 0.046189643 0.00030878533 8354426
-0.01202675 0.045075964 9.3419963e-05 10454405
-0.01059429 0.043959387 -0.00012250968 11041145
-0.0091581084 0.042839911 -0.00033899647 10975095
-0.007718191 0.041717537 -0.00055604038 5657170
-0.006275021 0.040575769 -0.0007769225 4407617
-0.0048407195 0.038987726 -0.0010863073 4013116
-0.0034323407 0.03623414 -0.0016268692 3289650
-0.0020346795 0.03268034 -0.0023261153 3947580
-0.00056272326 0.031772513 -0.0025005031 3881787
0.00092067086 0.03124789 -0.0025988815 3092271
0.0024058407 0.030722613 -0.0026973765 2960685
0.003892787 0.030196685 -0.0027960022 2829099
0.0053815157 0.02967016 -0.0028947326 2763306
0.0068720328 0.029143337 -0.0029935159 2763306
0.0083643589 0.02861757 -0.0030920818 2763306
0.0098576266 0.028017782 -0.0032053199 2829099
0.011342319 0.026327891 -0.0035347086 2829099
0.012820981 0.023165893 -0.004155972 2763306
0.014331982 0.023410615 -0.0041017211 1381746
0.015840085 0.023210285 -0.004135706 65978
0.017345391 0.021804806 -0.0044086361 65978
0.018846622 0.012753605 -0.0061973678 65978
-0.017704738 0.049520705 0.0024333242 9668487
-0.016287783 0.048416242 0.0022216472 11172731
-0.014867168 0.04730894 0.0020094318 6776165
-0.013442879 0.046198737 0.001796659 9469823
-0.012014898 0.045085695 0.0015833407 9271673
-0.010583216 0.043969754 0.0013694653 8682106
-0.0091478173 0.042850912 0.0011550396 8026232
-0.007708685 0.041729175 0.00094004982 5920342
-0.0062662186 0.040590975 0.0007218456 6183257
-0.0048326682 0.039005145 0.00041563602 5526098
-0.0034251367 0.036250185 -0.00012042336 3487029
-0.0020280101 0.032707259 -0.00081137847 3750201
-0.00055714091 0.031789392 -0.00098617701 3618615
0.00092542381 0.031265017 -0.0010836041 3355443
0.0024097606 0.030740052 -0.0011811429 3421236
0.0038958737 0.030214431 -0.0012787983 3487029
0.0053837653 0.029688157 -0.0013765773 3552822
0.0068734698 0.029163294 -0.0014740751 3618615
0.0083649531 0.028637836 -0.0015716776 3552822
0.0098574115 0.028041326 -0.0016832465 3552822
0.011341468 0.026374165 -0.0020052413 3487029
0.012818973 0.023180209 -0.002627312 3223857
0.014329148 0.023427425 -0.0025730031 2631720
0.015836485 0.023245214 -0.0026030943 1907997
0.017341524 0.022054192 -0.0028314427 6705835
0.018841155 0.012747078 -0.004654774 5982656
-0.017689832 0.04952791 0.0039134566 6446943
-0.016273636 0.048424091 0.0037038128 7432296
-0.014853787 0.047317371 0.0034936185 4671303
-0.013430266 0.046207812 0.0032828858 3881787
-0.012003059 0.04509541 0.0030716076 4144702
-0.010572155 0.043980107 0.0028597862 6315357
-0.0091375364 0.042861905 0.0026474076 6776165
-0.007699192 0.041740738 0.0024344742 8421247
-0.0062574274 0.040606055 0.0022189149 8750212
-0.0048246486 0.039021671 0.0019157276 8421247
-0.0034179422 0.036266167 0.0013843214 7763574
-0.00202135 0.032734126 0.00070162176 7302509
-0.00055156427 0.031806212 0.00052644103 6579043
0.00093017105 0.031282146 0.00042997717 7434609
0.0024136784 0.030757489 0.00033340149 7105644
0.0038989566 0.03023212 0.00023669042 7039594
0.0053860401 0.029707748 0.00014018525 6842472
0.0068749054 0.029183194 4.3650602e-05 7368816
0.0083655464 0.028658047 -5.2995871e-05 6842472
0.0098571964 0.028064875 -0.00016289082 6118749
0.011340619 0.026420414 -0.00047758818 5394512
0.012816966 0.023194406 -0.0011003718 6970974
0.01432631 0.023443354 -0.001046165 6774880
0.015832847 0.023270842 -0.0010740587 6511451
0.01733706 0.022093279 -0.0012977325 7758434
0.018835692 0.012740598 -0.0031138298 8281511
-0.017674942 0.049535152 0.0053919754 5657941
-0.016259504 0.048431918 0.0051843454 6841958
-0.014840419 0.047325846 0.0049761771 7631217
-0.013417667 0.046216927 0.0047674775 8420476
-0.011991234 0.045105107 0.0045582345 7828596
-0.010561106 0.043990444 0.0043484531 6381664
-0.0091272676 0.04287288 0.0041381288 5986906
-0.007689707 0.041752413 0.0039272541 5723991
-0.0062486455 0.040621191 0.0037143209 5000011
-0.0048166425 0.039038077 0.0034141135 6118492
-0.0034107249 0.03628327 0.0028876003 5789784
-0.0020146952 0.032761004 0.0022128902 6052956
-0.00054599531 0.031822968 0.0020373578 5987163
0.00093491265 0.031299219 0.0019418431 6381921
0.0024175886 0.030774811 0.0018462188 7566195
0.0039020567 0.030250931 0.0017506992 9670029
0.0053883125 0.029727343 0.0016552373 9735565
0.0068763392 0.0292031 0.0015596587 9932173
0.0083661396 0.028678203 0.0014639637 10129038
0.0098569822 0.02808849 0.001355759 10325389
0.011339771 0.026466578 0.001048246 9666431
0.01281496 0.023208724 0.00042488851 9926262
0.014323476 0.023459289 0.00047896252 9661548
0.015829215 0.023296427 0.00045321917 9924206
0.017332591 0.022129506 0.00023362736 9921893
0.018830236 0.012734101 -0.0015745322 7756153
-0.017660236 0.049538471 0.0068681124 5592405
-0.016245389 0.048439786 0.0066632498 6381921
-0.014827069 0.047334298 0.006457103 5987163
-0.013405081 0.046226025 0.006250436 8814206
-0.011979419 0.045114845 0.006043226 8354426
-0.010550069 0.044000763 0.0058354801 7631217
-0.009117011 0.042883839 0.0056271958 8814720
-0.0076802331 0.041764006 0.0054183751 7368559
-0.006239871 0.040636312 0.0052080587 6250335
-0.0048086396 0.039054591 0.0049108407 5329233
-0.0034035174 0.036300246 0.0043891734 4868682
-0.00200805 0.03278783 0.0037224365 5329233
-0.00054043182 0.031839784 0.0035465902 5263440
0.00093964848 0.031316284 0.0034520268 7434609
0.0024215078 0.030792838 0.003357481 10392210
0.0039051622 0.030270157 0.0032630798 12356234
0.0053905821 0.029746879 0.0031685811 12029582
0.0068777716 0.029223006 0.0030739703 11964560
0.0083667329 0.02869842 0.0029792313 11834002
0.009856768 0.028111937 0.0028726489 11637651
0.011338829 0.026503028 0.0025704287 10717063
0.012812962 0.023223456 0.0019485278 8681849
0.014320645 0.023475163 0.002002382 7103845
0.015825585 0.023321902 0.0019787489 7104102
0.017328124 0.02216463 0.0017630107 8546408
0.018824786 0.012727587 -3.6881625e-05 7495519
-0.019102914 0.04961095 0.0083502578 8750212
-0.017680554 0.048745889 0.0081916172 11637651
-0.01625704 0.047838457 0.0080249431 11637137
-0.014833384 0.046858165 0.0078444509 8947334
-0.013406599 0.045872372 0.007662931 11900566
-0.011976634 0.04488178 0.0074805114 9670286
-0.010543371 0.043888934 0.007297684 9275785
-0.0091071893 0.042882197 0.0071122218 8947077
-0.0076707709 0.041775592 0.0069078351 7697781
-0.0062311082 0.040651426 0.0067001283 7303023
-0.0048006484 0.039071038 0.0064058877 7303023
-0.0033963171 0.036317274 0.0058890833 6250335
-0.0020016108 0.032806687 0.0052287402 8419191
-0.00053487415 0.031856537 0.0050541284 10125183
0.0009443828 0.031333525 0.0049605495 11439501
0.0024254436 0.030811809 0.0048672282 12289413
0.003908264 0.030289441 0.004773783 11440786
0.005392849 0.029766416 0.0046802214 10064787
0.0068792026 0.029242855 0.0045865667 9867665
0.0083673242 0.028718524 0.0044927653 9736336
0.0098565528 0.028135389 0.0043878285 9539214
0.011337879 0.026538437 0.0040906393 8157561
0.012810964 0.023238067 0.0034704541 6776422
0.014317817 0.023491036 0.0035241048 4408131
0.01582196 0.023347449 0.0035025587 4276545
0.017323662 0.022199661 0.0032906036 5722963
0.018819343 0.012721116 0.0014991339 5986135
-0.024907075 0.049975175 0.0098689422 7631988
-0.023510285 0.04874989 0.0096440157 8026746
-0.02211922 0.047322832 0.009381149 8092539
-0.020731606 0.045720246 0.0090852976 7566195
-0.019282484 0.045344431 0.0090201534 8618626
-0.017818857 0.045269575 0.0090116132 10720661
-0.016355157 0.045190759 0.0090023205 10524053
-0.014897356 0.04496007 0.008964479 7829367
-0.0134572 0.044254962 0.0088374335 8947334
-0.012014604 0.043551084 0.0087106349 7566195
-0.010573935 0.042725123 0.0085608903 8158075
-0.0091324486 0.04183992 0.0084000193 7631988
-0.0076880078 0.040952872 0.0082388073 7895160
-0.0062415116 0.040033836 0.0080715986 9538443
-0.0048093083 0.038504977 0.007789765 10784912
-0.0034025288 0.03583527 0.0072935028 10911872
-0.0019952019 0.032824595 0.006733187 10779772
-0.00052932417 0.031873226 0.0065599727 9928832
0.00094914413 0.031352181 0.0064676581 10785169
0.0024293736 0.030830663 0.0063752551 10851476
0.003911362 0.030308606 0.0062827663 9473164
0.005395114 0.029785953 0.0061901654 8026746
0.0068806307 0.029262647 0.0060974481 7829367
0.0083679156 0.028738685 0.0060046143 7697781
0.0098562762 0.028153406 0.0059002712 7566195
0.011336926 0.026573451 0.005609022 5789784
0.01280897 0.023252737 0.004990696 6315871
0.014314992 0.023506913 0.0050441246 4802632
0.015817532 0.023198711 0.0049918862 4013373
0.017318387 0.021953402 0.0047635827 4539460
0.018813904 0.012714686 0.0030335141 5000011
-0.024911063 0.049547851 0.011259328 11309714
-0.023504686 0.048511945 0.011071796 11899281
-0.02210707 0.047225602 0.010837603 9867151
-0.020721506 0.045592282 0.010538774 7763574
-0.019338042 0.043790963 0.010208673 7829367
-0.017955702 0.041824132 0.0098477537 8355711
-0.016567029 0.03984829 0.0094851814 8421504
-0.015171981 0.037863381 0.0091209421 7434609
-0.013701308 0.03765206 0.0090871379 7697781
-0.012224918 0.037575651 0.0090784794 7303023
-0.01074759 0.037518766 0.0090734512 7368816
-0.0092696808 0.037473708 0.0090706293 7566195
-0.0077916319 0.037428655 0.0090678008 9144456
-0.0063153422 0.037320837 0.0090532927 11243921
-0.0048682294 0.036179055 0.0088461973 12027783
-0.0034531723 0.033698425 0.0083897598 11041659
-0.0020046679 0.032211408 0.0081184022 8485241
-0.00053312478 0.031491105 0.0079898583 7828082
0.00094621803 0.031017164 0.0079072099 9538186
0.0024271579 0.030542688 0.00782446 9210249
0.0039096959 0.030067675 0.0077416166 8552833
0.0053938376 0.029592184 0.0076586911 8618369
0.0068792952 0.029096814 0.0075720726 8749955
0.0083663743 0.028596941 0.0074846214 8881284
0.0098541919 0.0280136 0.0073816357 9012870
0.011334242 0.026430784 0.0070925648 7697010
0.012806928 0.023261253 0.0065081026 7695982
0.014311645 0.023439791 0.0065470026 6445658
0.015812257 0.022865821 0.0064458088 4999754
0.017308753 0.020210527 0.0059571611 4736582
0.018808471 0.012708116 0.0045662383 5920342
-0.0263732 0.049135279 0.012646837 11834002
-0.024963927 0.048189253 0.012477663 11310228
-0.023551539 0.047241084 0.012308104 11962761
-0.022142746 0.046153892 0.012112895 11897739
-0.020748122 0.044689242 0.011848016 9998480
-0.019350916 0.043171786 0.011573409 7368816
-0.017967461 0.041223541 0.011219304 7434609
-0.01657079 0.039430924 0.010893946 7960953
-0.015163231 0.037756123 0.010590361 8618369
-0.013758812 0.035853218 0.010244691 9144199
-0.012351587 0.033851046 0.00988073 10326417
-0.01093786 0.031839568 0.0095150713 11047570
-0.009515984 0.029866304 0.0091564935 11636880
-0.0080265673 0.029795151 0.0091489721 11506322
-0.0065369178 0.029724058 0.0091414629 10588561
-0.005047021 0.029653674 0.0091340812 10980749
-0.0035567922 0.029587137 0.0091274166 9010043
-0.0020663531 0.029520478 0.0091207288 6776165
-0.00057569984 0.029453821 0.009114041 7762032
0.0009130062 0.029287616 0.0090889828 9603208
0.0023992576 0.028971022 0.0090361824 8420990
0.0038858196 0.028613051 0.0089757554 8552576
0.0053735892 0.028254904 0.0089152958 9800587
0.0068619754 0.027856918 0.0088474955 9800587
0.0083514815 0.027441589 0.008776499 9800587
0.0098396242 0.026784837 0.008660973 9800587
0.011306042 0.023672268 0.0080924379 8878971
0.012802915 0.023024429 0.0079785902 7761518
0.014304939 0.022842146 0.0079506207 6314329
0.015804218 0.021935357 0.0077890214 4934218
0.017291175 0.015751598 0.006654154 4539460
0.018803045 0.012701763 0.0060973698 6051671
-0.039441738 0.04965375 0.014160711 7368816
-0.038101386 0.047928657 0.013850553 8158332
-0.036735952 0.04649397 0.013593552 7498860
-0.035341799 0.045429271 0.013404263 4276031
-0.033929978 0.044588435 0.013255932 7432296
-0.032486644 0.044217419 0.013193572 11243150
-0.031023562 0.044158265 0.013188255 10914956
-0.029558336 0.044133037 0.013189149 10785940
-0.028093044 0.044107806 0.013190042 11701388
-0.026627671 0.044082578 0.013190936 10064530
-0.025162233 0.044057291 0.013191819 9078920
-0.023696709 0.044032294 0.013192761 10522511
-0.022258293 0.043452963 0.01309231 11244178
-0.0208345 0.042523261 0.012927801 9276042
-0.019413037 0.041473057 0.012741256 7303023
-0.01800908 0.039942924 0.012466962 7895160
-0.016600138 0.038407389 0.012191698 10062988
-0.015193021 0.036697514 0.011884576 11308172
-0.013782474 0.034925807 0.011566168 11177100
-0.012358386 0.033356477 0.011284786 11439758
-0.010934554 0.031628732 0.010974461 11177871
-0.0095425807 0.028779808 0.010459167 10850191
-0.0082469042 0.022613715 0.0093374355 9735308
-0.0067431871 0.022628769 0.0093458416 8486783
-0.0052395388 0.022643711 0.0093542086 8420990
-0.0037359521 0.022658765 0.0093626138 6184542
-0.0022324345 0.022673702 0.0093709957 6250335
-0.00072897808 0.022688761 0.009379386 7762032
0.00077441119 0.022703759 0.0093877716 9472136
0.002277737 0.022718759 0.0093961572 8289404
0.0037809969 0.022733757 0.0094045429 8355197
0.0052841911 0.022748696 0.0094129229 9472393
0.006787322 0.02276375 0.0094213262 9472393
0.0082903504 0.022775909 0.0094291884 9669515
0.0097933104 0.022787057 0.0094368719 9406857
0.011295155 0.022689009 0.0094245998 7433838
0.012795744 0.022395242 0.0093765641 6052699
0.0142949 0.0217191 0.0092586549 3750201
0.015783837 0.018342035 0.0086472267 3487029
0.017277628 0.01268541 0.0076193316 3026478
0.018797625 0.012695214 0.0076268259 4934218
-0.042399745 0.04867937 0.015439068 9604493
-0.041109651 0.04631789 0.015016503 9341578
-0.039788436 0.044288315 0.014654124 7631988
-0.038455743 0.042325959 0.01430396 7960953
-0.037096392 0.040665772 0.014008584 6315614
-0.035729486 0.039035078 0.013718569 4078652
-0.034335054 0.037754957 0.013492114 6908008
-0.032911692 0.036877729 0.013338685 9407114
-0.031475451 0.036167618 0.013215548 8881284
-0.030004354 0.036021132 0.013194557 8158075
-0.028526019 0.035995502 0.013195465 9473164
-0.027047619 0.035969812 0.013196356 8092539
-0.025569182 0.035943292 0.013197109 7434609
-0.024090752 0.03591517 0.013197565 8684419
-0.02261224 0.035887051 0.013198023 8881541
-0.021133568 0.035860535 0.013198763 8421247
-0.019654656 0.035837624 0.013200171 8552576
-0.018175732 0.035813477 0.01320134 9209735
-0.016716592 0.035318859 0.013117298 11113106
-0.015277491 0.034287773 0.012936085 12156542
-0.013834848 0.033257686 0.012755061 10915984
-0.012395732 0.032037884 0.012539683 9275271
-0.010968016 0.030378345 0.012244682 8946820
-0.0097702369 0.021718962 0.010681906 9209478
-0.0082661537 0.021721823 0.010688059 8946563
-0.0067620953 0.02172468 0.010694227 8420733
-0.0052580568 0.021727599 0.010700399 7500402
-0.0037540463 0.021730401 0.010706547 5395026
-0.0022500562 0.021733319 0.010712719 6578786
-0.00074609037 0.021736182 0.010718872 6973544
0.00075785117 0.02173904 0.010725038 8946820
0.0022617686 0.021741902 0.010731191 8092282
0.0037656645 0.02174476 0.010737358 7171437
0.0052695354 0.021747623 0.010743511 7368816
0.0067733838 0.02175048 0.010749677 8355197
0.0082772076 0.021753343 0.01075583 9603722
0.0097809928 0.021754839 0.010761746 8486783
0.011282151 0.02148894 0.010719256 5395026
0.012779622 0.020654177 0.010573789 5197647
0.014265651 0.017568655 0.010020908 2960685
0.015753787 0.012669076 0.0091397204 2960685
0.017273022 0.012678947 0.0091472026 2631720
0.018792208 0.012688819 0.0091546848 4144959
-0.045221593 0.049535688 0.017047929 7631988
-0.043965288 0.046858054 0.016572604 7631988
-0.042686578 0.044362593 0.016130026 8026746
-0.041400399 0.041852593 0.015684867 9735308
-0.040106695 0.039327811 0.015237079 9538186
-0.038778849 0.037179861 0.014856997 9603722
-0.037436992 0.03513319 0.014495105 7498346
-0.0360699 0.033370301 0.014184188 4998983
-0.034697257 0.031600289 0.013872004 6118492
-0.033315498 0.029880812 0.01356893 7631988
-0.032116484 0.024977766 0.012694433 7566195
-0.030620363 0.024948105 0.012694717 8158075
-0.029124027 0.024920754 0.012695426 9406857
-0.027627626 0.024893166 0.012696087 9407114
-0.026131146 0.024865521 0.01269673 9275528
-0.024634589 0.024837872 0.012697387 8158075
-0.023137948 0.024810227 0.012698031 7368816
-0.021686435 0.023826689 0.012527159 8684162
-0.022143327 -0.019091628 0.0048313015 9931659
-0.020778723 -0.023838546 0.0039854073 9800587
-0.019230984 -0.024627119 0.0038498456 8947077
-0.015994422 0.016248636 0.011189931 10522254
-0.01440543 0.01822014 0.011549326 8815748
-0.012898387 0.01816223 0.011544584 7171437
-0.011391158 0.018104261 0.011539838 7894903
-0.0098837484 0.018046286 0.011535106 9537415
-0.0083761504 0.017988376 0.011530367 10323847
-0.0068683717 0.017930405 0.011525623 10061446
-0.0053604068 0.017872434 0.011520878 8617855
-0.0038522615 0.017814402 0.011516131 7039080
-0.0023439296 0.017756429 0.011511388 8156019
-0.00083702861 0.017629456 0.011494264 7039080
0.00066942413 0.017462524 0.011469987 8815234
0.0021764319 0.017295532 0.011445694 8026489
0.0036839936 0.017128479 0.011421396 6776679
0.0051921122 0.016961424 0.011397102 6842472
0.0067007858 0.016794249 0.011372786 8157818
0.0082100136 0.016626956 0.011348448 9668487
0.0097198002 0.016459722 0.011324116 8355197
0.011228726 0.016147362 0.011273771 5329233
0.012712999 0.012642941 0.010651088 5197647
0.01423152 0.012652761 0.010658535 2829099
0.015749995 0.01266264 0.010666001 2894892
0.017268421 0.012672522 0.010673452 2565927
0.018786799 0.012682345 0.010680899 1710704
-0.046747725 0.048250683 0.018276935 7368816
-0.045484304 0.045706533 0.017829923 7303023
-0.044234157 0.042868033 0.0173306 7368816
-0.042975616 0.040012073 0.0168282 7763574
-0.041688416 0.037422124 0.016373148 9801101
-0.040387783 0.034898572 0.015929945 9800844
-0.039079633 0.032359164 0.015483942 9800844
-0.037754949 0.029939057 0.015059173 8023405
-0.039719917 -0.023745278 0.0055196458 7034197
-0.037826743 -0.018747067 0.0064142188 8024433
-0.036241315 -0.018520379 0.0064603942 8552319
-0.034665614 -0.018444747 0.0064797234 8355197
-0.033087976 -0.018330678 0.0065058749 9407114
-0.031501822 -0.018056722 0.0065604597 9800844
-0.029918665 -0.0178206 0.0066083074 10456975
-0.028329885 -0.017461531 0.0066780066 11241608
-0.026739435 -0.017045112 0.0067579052 9865866
-0.025146276 -0.016544111 0.0068528196 9275271
-0.023579638 -0.016567569 0.0068545202 9669258
-0.022129858 -0.019156827 0.0064002024 9340807
-0.020765306 -0.023890048 0.0055648685 8355197
-0.019215986 -0.024623292 0.0054404824 7237230
-0.01713898 -0.012374065 0.0076232203 8157818
-0.015531842 -0.011172228 0.0078426246 7368559
-0.013968036 -0.011029063 0.0078739021 6776679
-0.012410739 -0.011055819 0.0078749834 7894646
-0.010853362 -0.011082571 0.0078760516 10061446
-0.0092959115 -0.011109327 0.0078771338 11564662
-0.0077383802 -0.011136084 0.007878216 11107452
-0.0061807744 -0.011162836 0.0078792851 10126725
-0.0046230904 -0.011189594 0.0078803683 8549492
-0.0030653302 -0.011216351 0.0078814514 8024176
-0.0015074934 -0.011243165 0.0078825159 6710629
5.0421448e-05 -0.011269923 0.0078836 8223611
0.0016084147 -0.011296676 0.00788467 7500145
0.0031664832 -0.011323434 0.0078857541 6710886
0.0047246302 -0.011350193 0.0078868391 6710886
0.0062828534 -0.011376947 0.0078879092 7500145
0.007841154 -0.011403706 0.0078889942 8092025
0.009675256 0.012617158 0.012161 7434609
0.011193063 0.012626812 0.012168389 5329233
0.012710823 0.012636522 0.012175796 5329233
0.014228537 0.01264635 0.012183226 3421236
0.015746204 0.012656184 0.012190642 3092271
0.017263824 0.012666074 0.012198077 2434341
0.018781396 0.012675902 0.012205507 3486332
-0.049599327 0.048640084 0.019798271 7303023
-0.048296466 0.046716779 0.019464921 7303023
-0.047004052 0.044575393 0.019093208 7303023
-0.04573964 0.041971058 0.018639961 7303023
-0.044487786 0.039079394 0.018136151 7303023
-0.043228898 0.036149014 0.017625555 7566195
-0.041957796 0.03325012 0.017120548 8684162
-0.040677454 0.030342177 0.016613979 8684162
-0.042848472 -0.023682641 0.0071057421 8684162
-0.041315548 -0.024384184 0.0069881072 6644065
-0.039689071 -0.023667807 0.0071201567 6180944
-0.037803117 -0.018767053 0.0079889828 8483442
-0.036217391 -0.018522145 0.008037976 9471622
-0.034642335 -0.018443083 0.0080577685 9471879
-0.033065442 -0.018327115 0.0080840634 10063502
-0.031480938 -0.018067302 0.0081356596 9275528
-0.029898368 -0.017826719 0.00818389 9603979
-0.028309073 -0.017441757 0.0082575176 10913928
-0.026720582 -0.017046468 0.008332964 10324618
-0.025127945 -0.01653867 0.0084282234 9865609
-0.023562901 -0.016577799 0.0084271803 8749698
-0.0221164 -0.019221973 0.0079676285 7171437
-0.020751501 -0.023932226 0.0071444367 6842472
-0.019201007 -0.024619451 0.0070293806 7105644
-0.017143611 -0.012829392 0.0091103315 7039851
-0.015528761 -0.011426334 0.0093630878 6710886
-0.013962734 -0.011212172 0.0094065974 6710886
-0.012406101 -0.011242913 0.009407009 7039851
-0.010849384 -0.011273716 0.0094074169 8092025
-0.0092925383 -0.011303449 0.0094080074 9405058
-0.0077355239 -0.01133045 0.00940907 9404801
-0.0061784289 -0.011357337 0.0094101699 8748413
-0.0046212599 -0.011384343 0.0094112465 6973030
-0.0030640124 -0.011411344 0.0094123092 5855063
-0.0015066846 -0.011438289 0.0094133914 6250335
5.0719289e-05 -0.011465294 0.0094144689 6579300
0.0016082018 -0.011492179 0.0094155557 6776679
0.0031657603 -0.011519185 0.0094166342 6908265
0.004723398 -0.011546131 0.0094177173 7105644
0.0062811133 -0.011573138 0.0094187958 7237230
0.0078389058 -0.011600084 0.0094198789 7171437
0.0096746953 0.012610754 0.013684149 7303023
0.011191695 0.012620415 0.01369152 6184285
0.012708649 0.012630075 0.013698892 6183771
0.014225557 0.012639916 0.013706291 5920342
0.015742419 0.012649816 0.013713695 4670532
0.017259231 0.012659657 0.013721094 6374769
0.018775998 0.012669553 0.013728512 5523395
-0.049848616 0.045184925 0.020656953 7829367
-0.04855033 0.04313916 0.020305563 7895160
-0.047262132 0.040874556 0.019916013 7894903
-0.045986198 0.038347881 0.019480791 7303023
-0.044732422 0.0354084 0.018973598 7434609
-0.043475207 0.032378774 0.018450724 7960953
-0.042209025 0.029330181 0.017924571 7960953
-0.044363007 -0.023159185 0.0087762075 7960953
-0.042821679 -0.023693677 0.0086888876 7960953
-0.041290216 -0.024405031 0.008570727 5460819
-0.03965826 -0.023590423 0.0087186741 4276031
-0.037794348 -0.01902413 0.0095207924 7564396
-0.036193412 -0.018522548 0.0096141109 9011842
-0.034619082 -0.018441422 0.0096341176 9143171
-0.033042692 -0.018319387 0.0096612526 8420733
-0.031460613 -0.018087635 0.0097075151 7303023
-0.0298771 -0.017814441 0.0097610028 7105644
-0.028288282 -0.017421965 0.0098352768 8486783
-0.026700841 -0.01702984 0.0099094762 8617855
-0.025113445 -0.016611179 0.0099883182 8881027
-0.023558456 -0.016847976 0.0099528823 8749441
-0.022137871 -0.020053804 0.0093999365 8355197
-0.0207377 -0.023974266 0.0087224646 8683905
-0.019186195 -0.024619229 0.0086159417 8815234
-0.01759216 -0.024266135 0.0086833742 7763317
-0.015561287 -0.012599872 0.010722487 6579300
-0.013996771 -0.012457854 0.010753055 6579300
-0.012438219 -0.012470566 0.010756668 6316128
-0.01087964 -0.012483274 0.010760265 6644836
-0.0093210274 -0.012495924 0.010763883 6776679
-0.007762386 -0.012508575 0.0107675 6381921
-0.0062037194 -0.012521286 0.010771113 5592405
-0.0046450207 -0.012533994 0.010774711 4999754
-0.003086294 -0.012546645 0.010778328 6774109
-0.0015276012 -0.012562024 0.010781461 6314072
3.112889e-05 -0.01257747 0.010784604 6707288
0.0015898981 -0.012592911 0.010787732 6970460
0.0031487057 -0.012608291 0.010790865 6707288
0.0047075492 -0.012623793 0.01079399 6773081
0.0062664328 -0.012639234 0.010797118 7759462
0.007825355 -0.012654675 0.010800247 7496290
0.0096741347 0.012604383 0.01520569 8349800
0.01119033 0.012614055 0.01521303 8741731
0.012706478 0.012623727 0.015220371 8543581
0.014222581 0.012633579 0.01522774 8674910
0.015738636 0.012643364 0.015235118 5718415
0.017254645 0.012653216 0.015242485 2302658
0.018770605 0.012663124 0.015249873 1513408
-0.048789445 0.039744176 0.021188376 9801358
-0.047505457 0.037360311 0.020782121 9670286
-0.046233468 0.034712516 0.020330312 7303023
-0.044978894 0.031710021 0.019817278 7631988
-0.043717865 0.02865576 0.019295342 9867151
-0.045875546 -0.022655552 0.010439781 9932687
-0.044335175 -0.023166563 0.010357418 9867151
-0.042794917 -0.023704659 0.010270369 9801358
-0.041264202 -0.024415148 0.010153578 7170409
-0.039630342 -0.023557566 0.010307535 3881530
-0.037792817 -0.019396778 0.011031819 6183771
-0.036188327 -0.01883303 0.011135017 7039594
-0.034604739 -0.018590042 0.011182812 6974058
-0.033030897 -0.018501978 0.01120387 6973801
-0.03145631 -0.018395018 0.011228176 6842472
-0.029870978 -0.018082114 0.011288048 6710886
-0.028283954 -0.017716274 0.011357042 6579300
-0.026699446 -0.017375261 0.011421747 6250335
-0.02513285 -0.017376292 0.011427413 8025975
-0.023594774 -0.017981106 0.011328864 9797760
-0.022145625 -0.02058458 0.010885359 9992826
-0.020720528 -0.023939006 0.010312269 9990513
-0.019171292 -0.02461651 0.010201231 9268332
-0.017578445 -0.024271475 0.01026665 6446943
-0.015985787 -0.023900665 0.010336537 3421236
-0.014216793 -0.018730056 0.011234682 3158064
-0.01264951 -0.018774167 0.011232931 2829099
-0.011081963 -0.018814469 0.011231822 3947580
-0.0095142946 -0.018854834 0.011230708 4868682
-0.0079465006 -0.018895138 0.0112296 5000268
-0.0063785845 -0.018935442 0.011228491 7171180
-0.0048105451 -0.018975809 0.011227379 8024690
-0.003242383 -0.019016119 0.011226285 6972259
-0.0016740978 -0.019056424 0.011225178 7630446
-0.00010568989 -0.01909679 0.011224066 7499888
0.0014628412 -0.019137098 0.011222959 8419448
0.003031495 -0.019177465 0.011221849 9273729
0.004600273 -0.019217771 0.011220744 7697010
0.0061691715 -0.019258201 0.011219629 7302766
0.0077381954 -0.019298509 0.011218525 7302766
0.0096735749 0.012598049 0.016725611 7302766
0.011188965 0.012607671 0.016732916 3221894
0.012704309 0.012617351 0.016740238 3617448
0.014219607 0.012627152 0.016747572 2171074
0.015734859 0.012637011 0.016754923 394940
0.017250063 0.012646807 0.01676227 1710528
0.018765219 0.012656671 0.016769607 4077507
-0.049031954 0.036303833 0.022073461 9734537
-0.047753513 0.033782516 0.021647792 10653840
-0.046483278 0.031040929 0.021184471 9144456
-0.045227364 0.027981713 0.020666877 9604236
-0.047379117 -0.022074426 0.01211321 11829633
-0.045846947 -0.022663141 0.012018412 11633539
-0.044307366 -0.023173766 0.011936975 10587533
-0.042768162 -0.023715418 0.011850229 9800073
-0.041237917 -0.024420697 0.011735532 7103845
-0.03960425 -0.023552664 0.011889797 4276031
-0.038010906 -0.023282228 0.011941903 5654857
-0.03638 -0.02237864 0.012102232 5787985
-0.034730759 -0.021112742 0.012324503 3684408
-0.03315749 -0.021094762 0.012333417 3421236
-0.03158455 -0.021081368 0.012341574 3487029
-0.030011555 -0.021065829 0.012350083 3289650
-0.028438494 -0.021047676 0.01235904 2829099
-0.02686597 -0.021038795 0.012366414 2697513
-0.025294038 -0.021040969 0.012371895 4801861
-0.02371309 -0.020851998 0.012410047 8346716
-0.022129163 -0.02058314 0.012461841 9331812
-0.020729275 -0.024495097 0.0117992 9595241
-0.019178774 -0.025145084 0.011693999 8939881
-0.017586915 -0.024825726 0.011754461 9661034
-0.015992926 -0.024422789 0.011829177 9987943
-0.014401345 -0.024047488 0.011899172 10509918
-0.012817497 -0.023854723 0.011937988 9399404
-0.011265365 -0.024586333 0.01181887 6315100
-0.009738164 -0.026177363 0.011552922 11315625
0.0096730171 0.012591686 0.01824392 11249832
0.011187603 0.01260132 0.018251194 65978
0.012702143 0.012611005 0.018258501 1710784
0.014216637 0.012620758 0.018265797 2828483
0.015731085 0.012630567 0.018273113 2762691
0.017245485 0.012640437 0.018280433 3814338
0.018759837 0.012650246 0.01828775 5521852
-0.049282596 0.03275843 0.022950914 8289661
-0.048003837 0.03017278 0.02251865 8947077
-0.046737529 0.027308103 0.022039184 10849934
-0.048879076 -0.02149299 0.013783051 11309200
-0.047350008 -0.022085814 0.013688536 12287100
-0.045818359 -0.022670619 0.013595399 11762555
-0.044279594 -0.023181098 0.013514839 9669258
-0.042741444 -0.023726191 0.013428436 8552576
-0.0412114 -0.024422327 0.013316467 7104873
-0.039625514 -0.024285065 0.013345556 5460048
-0.038083956 -0.024849555 0.013255881 7363162
-0.036538821 -0.025386518 0.013170878 8805982
-0.034991905 -0.02592402 0.013085783 6774109
-0.033444472 -0.026484122 0.012996869 5854806
-0.031886093 -0.026881654 0.012935487 6183514
-0.030316962 -0.027104709 0.012903619 6709601
-0.028754193 -0.027463766 0.012848737 6775394
-0.02716694 -0.027362613 0.012871743 3487029
-0.025580671 -0.027274303 0.012892573 3881787
-0.023995697 -0.027206805 0.012909875 5789270
-0.02241097 -0.027139306 0.012927176 5789527
-0.02082281 -0.026987836 0.012958681 3815994
-0.019230647 -0.026728671 0.013008413 3684408
-0.017639387 -0.026469678 0.0130581 5328462
-0.01605507 -0.026366971 0.01308136 6578786
-0.014471237 -0.02626759 0.013104045 8089455
-0.012890109 -0.026234934 0.013115445 11967387
0.0096724583 0.012585299 0.019760603 12561066
0.011186242 0.01259494 0.01976786 460732
0.012699979 0.012604637 0.019775135 4668866
0.014213671 0.012614396 0.019782417 8079529
0.015727315 0.012624216 0.019789701 8143779
0.017240914 0.012634032 0.019797001 4667833
0.018754464 0.012643852 0.019804286 1118654
-0.049538527 0.029143739 0.023827245 7566195
-0.048255991 0.026536755 0.023395825 7303023
-0.048849236 -0.021504968 0.015355622 10456975
-0.047320925 -0.022097154 0.015262213 10784655
-0.045789823 -0.022678223 0.015170679 11763583
-0.044251848 -0.023188377 0.015091041 9735308
-0.042714726 -0.023736615 0.015005031 8026489
-0.041184917 -0.024423957 0.014895707 8552062
-0.039637599 -0.024874629 0.014826053 7894132
-0.038114998 -0.025745355 0.014686023 9402231
-0.036603134 -0.026841169 0.014508294 11233898
-0.035190873 -0.029686229 0.014037522 10516600
-0.033739347 -0.032015171 0.01365325 10124669
-0.032244399 -0.033706009 0.013375903 10319735
-0.030719137 -0.034941465 0.013174864 10909816
-0.029137826 -0.035184491 0.013140086 10058105
-0.027545242 -0.035220634 0.013139948 4408131
-0.025952496 -0.035255708 0.013139994 3618615
-0.024359629 -0.035290483 0.013140092 7496033
-0.022766788 -0.03532806 0.013139728 7762289
-0.021173889 -0.035366885 0.013139153 8816005
-0.019580878 -0.035405885 0.013138536 9079434
-0.017987635 -0.035442095 0.01313841 10855588
0.0096719004 0.01257894 0.021275694 13213856
0.011184881 0.012588588 0.021282934 3485891
0.012697817 0.01259824 0.021290159 789693
0.014210707 0.01260795 0.021297405 1381567
0.015723549 0.012617838 0.021304678 1447360
0.017236345 0.012627665 0.021311946 921278
0.018749094 0.012637431 0.021319209 263355
-0.049817778 0.025232619 0.024665108 8684162
-0.048688404 -0.019754294 0.017218938 7303023
-0.047239594 -0.021388702 0.016953642 7895160
-0.045761377 -0.022686791 0.016744146 10978950
-0.044224177 -0.023196321 0.016665466 8811379
-0.042690407 -0.023782112 0.016574144 6118492
-0.041178495 -0.024729904 0.016422793 7432810
-0.039695852 -0.026184054 0.016187463 5986392
-0.038498741 -0.032290317 0.015180644 6709087
-0.037258256 -0.0380238 0.014235712 9336181
-0.03587212 -0.041620035 0.013645278 9074551
-0.034375004 -0.043493621 0.013340539 8353912
-0.0328198 -0.044437479 0.013190002 7762546
-0.031228893 -0.044778593 0.013139405 8552576
-0.029620947 -0.044815451 0.013139266 9802386
-0.02801289 -0.044852372 0.013139121 10591388
-0.026404722 -0.04488923 0.013138982 10721432
-0.024816372 -0.045348767 0.013068777 12364201
0.0096713426 0.012572614 0.022789177 12299179
0.011183524 0.012582273 0.022796387 1447359
0.012695658 0.012591927 0.02280361 65978
0.014207746 0.012601648 0.022810824 65978
0.015719788 0.012611425 0.022818057 1907905
0.017231783 0.012621264 0.022825293 4537024
0.018743731 0.012631103 0.022832531 3420355
-0.048660167 -0.019786205 0.018781945 5197647
-0.047212105 -0.021420827 0.01851937 4210752
-0.045733027 -0.022696203 0.018315807 4144959
-0.044211973 -0.023427328 0.018201604 5921370
-0.042706173 -0.024421001 0.01804431 9342349
-0.041327234 -0.027393531 0.01756219 9342606
-0.040546998 -0.039862249 0.015521313 10658466
-0.039369456 -0.046643279 0.014414178 10855845
0.0096707866 0.012566315 0.024301067 10987174
0.011182167 0.012575924 0.024308242 2763189
0.0126935 0.012585591 0.024315434 186
0.014204788 0.012595261 0.024322612 65978
0.015716029 0.012605046 0.024329828 1710784
0.017227225 0.012614897 0.024337035 4339904
0.018738372 0.012624686 0.024344236 3354562
-0.048757326 -0.021506194 0.020069076 9070953
-0.04723192 -0.02210439 0.019977689 7364704
-0.045723137 -0.022965629 0.019843571 8617084
-0.044242825 -0.02428055 0.01963575 12365486
-0.043237161 -0.032695737 0.018274413 12365743
-0.042633656 -0.047658805 0.015849423 12365486
0.0096702306 0.012559983 0.025811361 10197915
0.011180811 0.012569604 0.025818504 3881655
0.012691345 0.01257922 0.025825661 1710528
0.014201834 0.012588898 0.025832823 921278
0.015712276 0.012598755 0.025840012 197563
0.017222671 0.012608556 0.025847184 131771
0.018733019 0.01261829 0.025854364 131771
-0.048733406 -0.021596212 0.021622468 6446943
-0.047228329 -0.022465471 0.021488491 11110022
-0.045772169 -0.024066621 0.021236861 13541279
-0.045161638 -0.037976522 0.019006323 13538195
0.0096696746 0.012553627 0.027320029 10197915
0.011179456 0.012563255 0.027327156 9004457
0.012689192 0.012572878 0.027334295 8540331
0.014198883 0.012582568 0.027341425 4406210
0.015708527 0.012592313 0.027348576 855485
0.017218122 0.012602121 0.027355731 131771
0.018727673 0.01261199 0.027362889 131771
-0.04873893 -0.022082675 0.023111394 9736079
-0.047339577 -0.024410259 0.02274688 11906734
0.0096691195 0.012547294 0.028827118 11052967
0.011178103 0.012556928 0.028834227 6839994
0.012687042 0.012566567 0.028841322 5128636
0.014195934 0.012576264 0.028848438 5260223
0.015704781 0.012586022 0.028855555 4011458
0.017213579 0.012595779 0.028862674 3157185
0.018722331 0.012605594 0.028869811 3156930
-0.049022917 -0.026323693 0.024009315 10197915
0.0096685644 0.012540983 0.030332629 12432050
0.011176753 0.01255063 0.030339707 5590718
0.012684894 0.012560276 0.030346787 2171329
0.014192989 0.012569928 0.03035385 3551940
0.015701039 0.01257963 0.030360946 4405954
0.01720904 0.012589457 0.030368054 4208319
0.018716997 0.012599282 0.03037516 4208576
0.011175402 0.012544302 0.031843577 4801212
0.012682748 0.012553955 0.031850636 65978
0.014190047 0.012563614 0.031857684 1842113
0.0156973 0.012573329 0.031864751 3814851
0.017204506 0.012583165 0.031871825 3683264
0.018711668 0.012592881 0.031878892 3617730
0.011174054 0.012537993 0.033345878 4407740
0.012680604 0.012547659 0.033352911 65978
0.014187109 0.012557323 0.033359941 2697155
0.015693566 0.012566993 0.033366956 4537282
0.017199978 0.012576776 0.033374012 3025602
0.018706342 0.012586564 0.033381052 2302402
0.011172707 0.012531713 0.034846589 3092150
0.012678463 0.012541328 0.034853585 65978
0.014184172 0.012551004 0.034860585 2762947
0.015689837 0.012560676 0.0348676 5653438
0.017195454 0.012570414 0.034874603 4537023
0.018701024 0.012580208 0.034881625 2762691
0.011171362 0.012525455 0.036345724 4670905
0.012676325 0.012535138 0.036352705 2762947
0.01418124 0.012544704 0.036359664 3026116
0.01568611 0.012554325 0.036366645 3748804
0.017190933 0.012564132 0.036373638 3420099
0.018695712 0.012573938 0.03638063 1579200
0.011170018 0.012519159 0.037843272 6117052
0.012674188 0.012528853 0.037850223 5456833
0.014178311 0.012538426 0.037857167 4866501
0.015682388 0.012548059 0.037864115 3486405
0.017186418 0.012557816 0.03787107 2565571
0.018690404 0.012567568 0.037878044 723901
0.011168675 0.012512881 0.039339256 5722300
0.012672053 0.012522526 0.039346173 6506168
0.014175384 0.012532171 0.039353091 7688886
0.01567867 0.012541755 0.039360002 5917892
0.017181909 0.012551518 0.039366942 3223493
0.018685102 0.012561281 0.039373882 723901
0.011167333 0.012506631 0.040833648 2960820
0.012669921 0.012516283 0.040840548 4077765
0.014172461 0.012525874 0.040847443 8017334
0.015674954 0.01253547 0.040854324 8672943
0.017177403 0.012545182 0.04086123 4340420
0.018679807 0.012554958 0.040868137 658109
0.011165994 0.012500339 0.042326473 3816119
0.01266779 0.012509997 0.042333353 1184447
0.01416954 0.012519605 0.042340204 2433987
0.015671244 0.012529206 0.04234707 2697155
0.017172903 0.012538927 0.042353958 1381567
0.018674515 0.012548652 0.042360831 197563
0.011164656 0.012494182 0.043817751 7039152
0.012665663 0.012503735 0.043824583 460732
0.014166623 0.012513348 0.043831415 186
0.015667537 0.0125229 0.043838244 186
0.017168406 0.012532633 0.043845102 186
0.018669231 0.012542364 0.043851957 186
0.011163319 0.012487931 0.045307431 7696303
0.012663537 0.01249749 0.045314245 3025859
0.014163708 0.012507049 0.045321058 2302402
0.015663836 0.012516675 0.045327861 2236866
0.017163916 0.012526352 0.045334697 2236610
0.01866395 0.012536095 0.045341522 2171074
0.011161983 0.012481694 0.046795562 7433391
0.012661413 0.012491264 0.046802342 8540331
0.014160798 0.012500835 0.046809126 8539560
0.015660137 0.012510406 0.046815906 8605096
0.01715943 0.012520094 0.046822712 8605095
0.018658677 0.012529844 0.046829522 8670374
0.011160648 0.012475413 0.048282124 7828151
0.012659292 0.012484991 0.048288886 1842113
0.014157889 0.012494573 0.048295639 1907905
0.015656441 0.012504151 0.048302401 1907905
0.017154949 0.012513789 0.048309173 1973697
0.01865341 0.012523551 0.04831595 2039233
0.011159316 0.012469208 0.049767137 7822510
0.012657173 0.012478797 0.049773872 2960067
0.014154985 0.012488324 0.0497806 3683525
0.015652752 0.012497919 0.04978732 1052862
0.017150471 0.012507508 0.049794052 131771
0.018648146 0.012517276 0.049800817 197563
0.011157985 0.01246296 0.051250584 7169207
0.012655056 0.01247256 0.051257286 3222980
0.014152083 0.012482099 0.051263984 4012230
0.015649064 0.012491696 0.051270701 1118654
0.017145999 0.012501297 0.051277403 1118654
0.018642889 0.012511015 0.051284131 2697155
0.020143988 -0.0021256928 0.049333692 4143301
0.011156655 0.012456787 0.052732483 7499703
0.012652942 0.012466337 0.052739151 723901
0.014149183 0.012475884 0.05274583 1250239
0.015645379 0.01248543 0.052752513 855486
0.01714153 0.012495037 0.0527592 2762947
0.018637637 0.012504768 0.052765895 6573245
0.020134836 0.0084974701 0.052242506 5063107
0.011155326 0.01245057 0.054212812 5395116
0.01265083 0.012460127 0.054219466 4406469
0.014146288 0.012469681 0.05422613 8016563
0.0156417 0.012479238 0.05423278 5588931
0.017137067 0.012488796 0.05423943 1776321
0.01863239 0.012498533 0.054246109 921278
0.020127667 0.012508214 0.05425277 789693
0.011153998 0.012444363 0.055691607 6579119
0.012648719 0.012453928 0.055698242 1579200
0.014143395 0.012463436 0.055704858 6244795
0.015638025 0.012472999 0.055711493 5982397
0.01713261 0.012482569 0.055718113 1644736
0.01862715 0.012492256 0.055724755 2039489
0.020121643 0.012502001 0.055731416 5128899
0.011152673 0.01243817 0.057168853 6776239
0.012646611 0.012447684 0.05717545 65978
0.014140505 0.01245726 0.057182055 3485892
0.015634354 0.012466774 0.057188652 3814852
0.017128156 0.012476351 0.057195257 987070
0.018621914 0.012486045 0.057201881 2368450
0.020115625 0.012495744 0.057208493 5983427
0.011151347 0.012431929 0.058644541 5921454
0.012644506 0.012441511 0.058651127 186
0.014137618 0.012451037 0.058657695 1973697
0.015630685 0.01246062 0.058664281 2631363
0.017123707 0.012470147 0.058670849 2039489
0.018616684 0.01247979 0.058677442 2500035
0.020109614 0.012489497 0.058684036 3355078
0.011150025 0.012425758 0.060118701 5197739
0.012642402 0.01243529 0.06012525 65978
0.014134735 0.012444885 0.060131807 3814851
0.015627021 0.012454418 0.060138356 8017077
0.017119262 0.012463951 0.060144909 8803757
0.018611459 0.012473607 0.060151469 5851843
0.020103611 0.012483262 0.060158029 1381823
0.011148702 0.012419595 0.06159132 9670059
0.012640301 0.01242914 0.061597843 3223236
0.014131853 0.01243868 0.061604377 1973697
0.015623362 0.012448224 0.061610896 4669382
0.017114824 0.012457769 0.061617415 5458374
0.01860624 0.01246737 0.061623953 3683526
0.020097611 0.012477033 0.061630499 855486
0.011147383 0.012413505 0.063062415 10655412
0.012638202 0.012422994 0.063068911 5063620
0.014128976 0.012432489 0.063075393 3617476
0.015619705 0.01244204 0.063081898 3354820
0.017110389 0.01245153 0.063088395 3289028
0.018601026 0.012461143 0.063094907 3420356
0.020091621 0.012470817 0.063101418 2697155
0.011146064 0.012407299 0.06453196 10781866
0.012636106 0.012416862 0.064538427 4603589
0.014126102 0.012426363 0.064544894 5063107
0.015616053 0.012435865 0.064551368 3091652
0.017105957 0.012445366 0.064557835 2302402
0.018595818 0.012454924 0.064564317 3748803
0.020085635 0.01246461 0.064570799 4405955
0.011144746 0.012401164 0.06599997 9208753
0.012634011 0.012410677 0.066006407 2171074
0.014123229 0.012420185 0.066012859 3946437
0.015612404 0.012429754 0.066019312 2828483
0.017101532 0.012439206 0.066025749 2039489
0.018590616 0.012448777 0.066032201 3354564
0.020079656 0.012458407 0.066038661 4011972
0.01114343 0.012394977 0.067466445 7697827
0.012631918 0.012404497 0.06747286 329147
0.014120361 0.012414016 0.067479283 592316
0.015608759 0.012423536 0.067485705 460732
0.017097112 0.012433117 0.067492127 394940
0.018585419 0.012442576 0.067498542 592316
0.020073682 0.012452214 0.067504987 723901
0.011142115 0.012388855 0.068931393 7697828
0.012629827 0.012398386 0.068937786 65978
0.014117495 0.012407913 0.068944193 65978
0.015605118 0.012417383 0.068950579 65978
0.017092695 0.01242691 0.068956979 65978
0.018580228 0.01243638 0.068963364 65978
0.020067714 0.012446029 0.068969779 131770
0.011140801 0.012382681 0.070394814 9144497
0.012627739 0.012392214 0.070401199 1973697
0.014114632 0.012401752 0.070407569 1908161
0.01560148 0.012411229 0.07041394 1908161
0.017088283 0.012420767 0.07042031 1842368
0.018575041 0.012430306 0.070426688 1842113
0.020061754 0.012439844 0.070433058 1842113
0.011139489 0.012376568 0.071856722 11111082
0.012625653 0.012386052 0.07186307 5129413
0.014111772 0.012395601 0.071869418 5063878
0.015597846 0.012405089 0.071875751 5129670
0.017083876 0.012414634 0.071882106 4866240
0.018569861 0.012424123 0.071888447 4800447
0.020055799 0.012433668 0.071894802 4932032
0.011138178 0.012370459 0.073317111 11962272
0.01262357 0.012379955 0.073323429 7752108
0.014108916 0.012389449 0.073329754 7555246
0.015594217 0.012398949 0.073336057 7884721
0.017079473 0.012408444 0.073342383 8672173
0.018564684 0.012418001 0.073348708 8670630
0.020049851 0.012427557 0.073355027 8669602
0.011136869 0.012364293 0.074775971 9341361
0.012621487 0.012373799 0.07478226 4603074
0.014106061 0.012383306 0.074788556 4997056
0.01559059 0.012392808 0.074794859 2828739
0.017075075 0.012402315 0.074801147 2434243
0.018559514 0.012411817 0.07480745 4603588
0.02004391 0.012421385 0.074813746 6901693
0.011135561 0.012358255 0.07623332 7697827
0.012619409 0.012367706 0.076239593 1776320
0.014103211 0.012377219 0.076245867 2105281
0.015586969 0.012386676 0.076252118 526524
0.017070681 0.012396189 0.076258391 131771
0.01855435 0.012405703 0.076264665 1513408
0.020037973 0.012415217 0.076270938 4603589
0.011134255 0.012352154 0.077689156 8026788
0.012617331 0.012361617 0.0776954 1447616
0.014100363 0.01237108 0.077701636 1973697
0.01558335 0.012380601 0.077707894 592316
0.017066292 0.012390064 0.07771413 65978
0.018549191 0.01239959 0.077720374 65978
0.020032043 0.012409048 0.077726625 2236866
0.011132949 0.012346057 0.079143472 8881317
0.012615256 0.012355527 0.079149693 4997058
0.014097517 0.012364936 0.079155914 6048188
0.015579735 0.012374468 0.079162136 1842369
0.017061908 0.012383942 0.079168342 65978
0.018544035 0.012393413 0.079174563 65978
0.020026119 0.012402884 0.079180785 131770
0.011131645 0.012339955 0.080596298 10128291
0.012613183 0.012349437 0.080602482 8275106
0.014094676 0.012358919 0.080608673 6441917
0.015576124 0.012368339 0.080614865 1973697
0.017057529 0.012377816 0.080621064 197563
0.018538887 0.012387298 0.080627255 131771
0.020020202 0.012396781 0.080633447 131771
0.011130342 0.012333858 0.082047597 12888746
0.012611112 0.012343346 0.082053766 6178232
0.014091837 0.012352835 0.082059942 8014764
0.015572517 0.012362267 0.082066096 6309820
0.017053153 0.012371695 0.082072265 5522367
0.018533744 0.012381183 0.082078442 5456575
0.02001429 0.012390672 0.082084611 5456576
0.011129041 0.012327756 0.083497398 12822696
0.012609043 0.012337255 0.083503544 2828483
0.014089 0.012346694 0.083509684 5391297
0.015568914 0.012356194 0.083515823 5456576
0.017048782 0.012365628 0.083521977 5259196
0.018528605 0.012375128 0.083528116 6374581
0.020008385 0.012384567 0.083534256 7161777
0.011127741 0.012321653 0.084945694 12299179
0.012606977 0.01233116 0.084951825 65978
0.014086167 0.012340609 0.084957927 65978
0.015565314 0.012350116 0.084964059 65978
0.017044416 0.012359501 0.084970176 65978
0.018523473 0.012369012 0.084976286 2368193
0.020002486 0.012378458 0.08498241 3683010
0.011126443 0.012315672 0.086392492 11512747
0.012604912 0.012325062 0.086398594 65978
0.014083337 0.012334581 0.086404689 65978
0.015561718 0.012344038 0.086410783 65978
0.017040053 0.012353433 0.08641687 65978
0.018518345 0.012362891 0.086422957 263355
0.019996593 0.012372348 0.086429052 394940
0.011125145 0.01230962 0.087837808 11118503
0.01260285 0.012319027 0.087843865 131770
0.01408051 0.012328491 0.087849937 131770
0.015558125 0.012337954 0.087856017 131770
0.017035697 0.012347423 0.087862074 65978
0.018513223 0.012356825 0.087868147 1973953
0.019990705 0.012366289 0.087874219 3091651
0.01112385 0.012303567 0.089281619 10855845
0.01260079 0.012312981 0.089287654 3683265
0.014077686 0.012322395 0.089293696 4143297
0.015552772 0.011968632 0.089266725 3551937
