# .PCD v0.7 - Point Cloud Data file format
VERSION 0.7
FIELDS x y z rgb
SIZE 4 4 4 4
TYPE F F F U
COUNT 1 1 1 1
WIDTH 1031
HEIGHT 1
VIEWPOINT 0 0 0 1 0 0 0
POINTS 1031
DATA ascii
-0.015634416 0.047992602 -0.0011175065 6184285
-0.01740925 0.049354453 -0.0015842726 5855577
-0.019192712 0.050722882 -0.0020533183 5658198
-0.020984806 0.052097932 -0.0025246283 5592405
-0.022785589 0.053479657 -0.0029982242 5526612
-0.024595061 0.054868098 -0.0034741056 5723991
-0.027072378 0.056300242 -0.0041304352 7959668
-0.024979562 -0.053882048 -0.0060229306 5657941
-0.023072591 -0.052414071 -0.0054879235 6447200
-0.021177726 -0.050953828 -0.0049562911 7959154
-0.019292587 -0.049501058 -0.0044273888 6250078
-0.017417056 -0.048055686 -0.0039011796 6052699
-0.015551075 -0.046617668 -0.0033776555 7170666
-0.013694531 -0.045186941 -0.0028567719 7433581
-0.011847422 -0.043763455 -0.0023385352 7499374
-0.010009575 -0.042347148 -0.0018229011 7696496
-0.0081809871 -0.040937968 -0.0013098689 7433581
-0.0063616047 -0.039535869 -0.0007994161 5789784
-0.0049926136 -0.038172893 -0.00041216449 5131854
-0.0039991676 -0.036841378 -0.00012762434 6579043
-0.0034035183 -0.035540897 4.813647e-05 8879742
-0.0029689006 -0.034253389 0.00017984789 9142400
-0.0026729044 -0.032976534 0.00027366879 9076607
-0.0019590429 -0.031673964 0.00048167311 7826797
0.00045903376 -0.030267732 0.0011554041 6644322
0.0048125731 -0.028752731 0.0023579628 6447457
0.0091197211 -0.027255645 0.0035476859 8351856
0.011179721 -0.025901839 0.0041232533 6908265
0.011802367 -0.024634769 0.0043060249 9734537
0.011971716 -0.023394179 0.0043649338 7368816
0.015778417 -0.021965597 0.0054175067 3750201
0.017172361 -0.020671196 0.0058108624 4144702
0.01750537 -0.01943299 0.0059143691 4605510
0.01756401 -0.018208753 0.0059429281 4342338
0.017627181 -0.016984541 0.0059727188 4407874
0.017696684 -0.015760293 0.0060042436 4473924
0.017766189 -0.014536305 0.0060357586 5591634
0.01765012 -0.013319941 0.0060166032 5000011
0.016925219 -0.012126279 0.0058312067 3288888
0.019428549 -0.010813321 0.0065272273 6440806
0.019333808 -0.0095985709 0.0065138708 6244712
0.019239066 -0.0083835097 0.006500517 3748956
0.019144265 -0.0071681417 0.0064871437 263222
0.01904946 -0.0059524621 0.0064737811 394808
0.018954657 -0.0047364738 0.0064604133 5259877
0.01885985 -0.003520174 0.0064470563 5981285
0.018764926 -0.0023035672 0.0064336648 5784677
0.01867006 -0.0010866483 0.0064202906 4602977
0.018575132 0.00013058051 0.0064069047 1315907
0.018480204 0.0013481193 0.006393529 1250126
0.018385215 0.0025659674 0.0063801338 4077415
0.018290227 0.0037841273 0.0063667418 5193836
0.018195178 0.0050025964 0.0063533373 5062507
0.018100128 0.0062213773 0.0063399361 4077672
0.018005077 0.0074404692 0.0063265301 657735
0.017910022 0.0086598713 0.006313134 65857
0.017814852 0.0098795844 0.0062997118 263235
0.017719738 0.01109961 0.0062863068 4077158
0.017624564 0.012319946 0.0062728822 8079208
0.016553015 0.013539269 0.005993248 5459031
0.01736909 0.014761577 0.0062282993 7101532
0.017555146 0.015982363 0.0062915604 9135461
0.01748088 0.017203487 0.0062838532 8414308
0.017406674 0.01842485 0.0062761558 9003618
0.017323926 0.019646516 0.0062661367 6840159
0.017239667 0.020868462 0.0062557147 5789270
0.016938763 0.022093028 0.006186245 8545894
0.015907168 0.023327805 0.0059176539 9919837
0.011736778 0.024611069 0.004793765 11633025
0.011676058 0.025842868 0.0047898572 7895160
0.011168851 0.027082803 0.0046642949 6579300
0.0099269142 0.028338833 0.0043385788 5723991
0.0064210552 0.029647324 0.0033961295 7696753
0.0025693863 0.030975956 0.0023596066 8682363
-0.0011007815 0.032313481 0.0013726592 7630446
-0.0025182641 0.033604082 0.00099943357 8354940
-0.0030049277 0.034873314 0.00087977824 9275014
-0.0033391395 0.036139656 0.00080165413 10062474
-0.0038162305 0.037411664 0.00068463536 9800073
-0.0044414913 0.038690273 0.0005272844 9009529
-0.0054895207 0.039985918 0.0002548359 8813692
-0.0069380188 0.04129998 -0.00012660377 11695734
-0.0086657889 0.04262986 -0.00058402919 9208450
-0.010401838 0.043966074 -0.0010436479 6842215
-0.012146108 0.04530865 -0.0015054446 5855577
-0.013899819 0.046657693 -0.0019697433 6250335
-0.015666692 0.048013419 -0.0024375671 6579043
-0.017442133 0.049375676 -0.0029076564 6250335
-0.019226087 0.050744511 -0.0033800029 5658198
-0.02101873 0.052119974 -0.0038546431 6381921
-0.022820057 0.053502109 -0.0043315915 7105387
-0.024630131 0.054890972 -0.0048108553 8091254
-0.027133301 0.056324974 -0.0054786201 9995396
-0.025270026 -0.053911146 -0.0074325334 6052956
-0.023093043 -0.052418023 -0.0068197474 5986649
-0.021197718 -0.050957423 -0.0062845852 8812664
-0.019312058 -0.049504288 -0.0057521537 8222069
-0.017436003 -0.048058562 -0.005222437 6973544
-0.015569556 -0.046620194 -0.0046954355 7104873
-0.013712484 -0.045189112 -0.0041710739 7104873
-0.011864904 -0.043765284 -0.0036493966 6579043
-0.010026583 -0.042348631 -0.0031303365 7236459
-0.0081975218 -0.040939115 -0.0026138858 9074551
-0.0063776616 -0.039536681 -0.0021000367 7630703
-0.0050002588 -0.038172796 -0.0017080057 6644579
-0.00400639 -0.036840968 -0.0014215629 7104873
-0.003410639 -0.035540197 -0.001244698 8223097
-0.0029758853 -0.034252398 -0.001112156 8420219
-0.0026798965 -0.03297526 -0.0010178002 8486012
-0.0019611404 -0.031672098 -0.00080715399 7498603
0.00044433665 -0.030266387 -0.00013255523 7563882
0.0047989702 -0.028751036 0.0010780942 6644836
0.0091105318 -0.027253417 0.0022767433 8023662
0.011173395 -0.025899176 0.0028567933 7236973
0.011797532 -0.024631748 0.0030410974 9340550
0.011969338 -0.023390757 0.0031009996 6908265
0.016276162 -0.021935998 0.0042979135 3289650
0.017563544 -0.020647546 0.0046644551 3289650
0.017875927 -0.019410759 0.0047628968 3289650
0.017940709 -0.01818662 0.0047932551 3289650
0.018014845 -0.016962307 0.004826183 3355443
0.01808898 -0.015738273 0.0048591001 3355443
0.018163057 -0.014514519 0.0048920079 3289650
0.017982092 -0.013301156 0.004854809 3421236
0.017256416 -0.012107832 0.0046679238 2236974
0.019405961 -0.010808007 0.0052711959 2039371
0.019311238 -0.0095929531 0.0052576866 2039370
0.019216456 -0.008377593 0.0052441657 6573420
0.019121613 -0.0071619228 0.0052306252 657979
0.019026827 -0.0059459405 0.0052171098 197429
0.018931983 -0.0047296504 0.0052035749 526393
0.018837135 -0.0035130496 0.0051900502 1841993
0.018742172 -0.0022961407 0.0051764916 1776200
0.018647322 -0.0010789187 0.0051629725 1710407
0.018552355 0.00013861142 0.005149419 1644614
0.018457329 0.0013564514 0.0051358538 1052492
0.018362358 0.0025746035 0.0051223063 921162
0.018267388 0.0037930668 0.0051087616 1513297
0.018172298 0.0050118389 0.0050951899 1513297
0.018077208 0.0062309224 0.005081621 1250126
0.017982114 0.007450317 0.0050680554 3420515
0.01788702 0.0086700236 0.005054492 4011880
0.017791867 0.0098900404 0.0050409171 4209258
0.017696714 0.011110368 0.0050273375 789577
0.017601559 0.012331008 0.0050137676 5588335
0.01696625 0.013551236 0.0048519499 3355201
0.017744223 0.014773089 0.0050780145 5394512
0.017918041 0.015993508 0.0051382557 6511708
0.01784542 0.017214257 0.0051308693 5986135
0.017772334 0.018435244 0.0051233601 7496290
0.017694889 0.019656496 0.0051146578 6248793
0.017617445 0.020877998 0.0051059504 5000011
0.017356278 0.022101743 0.0050468524 8217957
0.016272631 0.023336731 0.0047621462 9330784
0.011738187 0.02462492 0.0035309573 11305088
0.011670158 0.0258571 0.0035249502 9012099
0.011158933 0.027097393 0.003397397 8354683
0.0099070976 0.028353924 0.0030667528 8024433
0.0063575511 0.029663719 0.0021060866 8419448
0.0025104249 0.030992705 0.0010639379 8025975
-0.001132063 0.032329995 7.8044053e-05 5066061
-0.0025328042 0.033620507 -0.00029311463 6579300
-0.0030068767 0.034889691 -0.00041017533 8617855
-0.0033436914 0.03615639 -0.00048959599 10390668
-0.0038243996 0.037428804 -0.00060844992 8354940
-0.0044581844 0.038707998 -0.00076923595 6908008
-0.005512266 0.040004179 -0.0010451953 8419191
-0.0069633015 0.041318681 -0.0014299122 9404544
-0.0086915735 0.042648941 -0.00189055 7763060
-0.010428124 0.043985531 -0.0023533884 7434095
-0.012172894 0.04532849 -0.0028184198 7697010
-0.013931575 0.046678118 -0.0032872052 8682620
-0.015699001 0.048034243 -0.0037583155 8813692
-0.017474994 0.049396906 -0.0042317128 8025204
-0.019259498 0.050766151 -0.0047073825 8025718
-0.021052685 0.052142024 -0.005185368 9142143
-0.022854559 0.053524576 -0.0056656613 9994368
-0.024665177 0.054913852 -0.0061482922 10779772
-0.027231542 0.056351811 -0.0068378244 10390154
-0.025313757 -0.052620403 -0.0087620215 5723220
-0.021675082 -0.051001467 -0.0077402731 5656399
-0.019361228 -0.049510099 -0.0070857885 9007730
-0.017454989 -0.048061442 -0.0065443451 8418163
-0.015587961 -0.046622712 -0.0060138213 7564653
-0.01373042 -0.045191284 -0.0054860041 9468281
-0.011882312 -0.043767102 -0.0049608564 7696239
-0.010043575 -0.042350121 -0.0044383779 6907494
-0.0082140397 -0.040940262 -0.0039185164 8287091
-0.0063937036 -0.039537489 -0.0034012634 8287091
-0.0050078915 -0.038172696 -0.003004431 8023919
-0.0040136585 -0.036840558 -0.0027161003 8418677
-0.0034177469 -0.035539497 -0.0025381164 7302766
-0.0029828001 -0.034251399 -0.0024047217 6710886
-0.0026869355 -0.03297399 -0.0023098607 6513507
-0.001968046 -0.031670541 -0.0020978812 5592148
0.00042971218 -0.030265031 -0.0014210986 7104102
0.0047860774 -0.028749302 -0.00020217353 6973287
0.0091013536 -0.027251188 0.0010052242 7300710
0.011167023 -0.025896516 0.0015897492 7105387
0.011792589 -0.024628734 0.0017755863 8880513
0.011966271 -0.023387369 0.0018363261 8026232
0.016460091 -0.021922668 0.0030926988 4144445
0.01778888 -0.020632211 0.0034730157 4210752
0.018097188 -0.01939575 0.0035708949 4078909
0.018160215 -0.018171813 0.0036008903 4013116
0.018223243 -0.016948121 0.0036308835 3947580
0.018286331 -0.015724665 0.0036608966 4013373
0.018349303 -0.014501452 0.0036908707 3947580
0.018232122 -0.013285621 0.0036710014 3618615
0.017469388 -0.012093869 0.0034725752 3157820
0.01938339 -0.010802688 0.0040145507 329015
0.019288626 -0.0095873354 0.0040008742 329015
0.01919386 -0.0083716717 0.0039872006 3617883
0.019099036 -0.0071556983 0.0039735078 986943
0.019004151 -0.0059394166 0.0039598099 657979
0.018909326 -0.0047228234 0.0039461227 855101
0.018814379 -0.0035059215 0.003932416 1052736
0.018719492 -0.0022887085 0.0039187195 460600
0.018624485 -0.0010711873 0.0039050034 1381443
0.018529536 0.00014664694 0.0038912976 4471649
0.018434526 0.0013647901 0.0038775799 2565467
0.018339517 0.0025832446 0.003863865 65857
0.018244447 0.0038020087 0.003850138 65857
0.018149434 0.005021086 0.0038364287 65857
0.018054303 0.0062404722 0.0038226929 1315919
0.01795917 0.0074601704 0.0038089596 6311285
0.017864037 0.0086801797 0.0037952291 7426678
0.017768845 0.0099005001 0.0037814793 7361656
0.017673649 0.011121132 0.0037677397 329028
0.017578453 0.012342077 0.003754003 2565723
0.017134497 0.01356287 0.0036439272 3092285
0.017934252 0.014784671 0.0038774016 3684408
0.018114768 0.016005004 0.0039398186 3618615
0.018053195 0.017225631 0.0039353603 3618615
0.017991563 0.018446455 0.0039308886 4802889
0.017929815 0.019667473 0.0039263894 4802632
0.017862432 0.020888738 0.0039203358 3881787
0.017561136 0.022112761 0.0038497006 6577244
0.016463084 0.023347856 0.0035590893 8740446
0.011739544 0.024638778 0.0022676024 10061960
0.011664211 0.02587134 0.0022594666 9668487
0.01114897 0.027111989 0.002129908 9405572
0.0098805008 0.028369155 0.0017924476 8353398
0.0062939669 0.029680124 0.00081523776 7434095
0.0024513809 0.031009465 -0.00023251449 6118749
-0.0011633801 0.032346517 -0.0012172512 6775908
-0.002547387 0.033636943 -0.0015862838 8026232
-0.0030089905 0.034906078 -0.001700735 7565938
-0.0033482907 0.036173131 -0.00178143 8814977
-0.0038325579 0.037445951 -0.0019021044 7236973
-0.004474978 0.038725734 -0.0020663992 5855320
-0.0055349916 0.040022448 -0.0023458696 6447457
-0.0069885645 0.041337386 -0.0027338562 7631217
-0.0087173395 0.042668026 -0.0031977065 8354169
-0.01045439 0.044004999 -0.0036637795 9535873
-0.012203899 0.045348521 -0.004133217 10453634
-0.013963367 0.046698559 -0.0046053473 11237496
-0.015731344 0.048055083 -0.0050797584 10713208
-0.017507829 0.049418148 -0.0055564493 10452349
-0.019292882 0.050787799 -0.006035442 10714236
-0.021086674 0.052164089 -0.0065167798 11433590
-0.022889037 0.053547055 -0.0070004188 9074551
-0.024935493 0.054949544 -0.0075512771 6776165
-0.029692993 -0.051712401 -0.01130149 5262412
-0.026502077 -0.050130729 -0.010398085 4605253
-0.018285727 -0.04813328 -0.0080932686 5656913
-0.015692759 -0.04663242 -0.007356937 5722963
-0.013748455 -0.045193464 -0.0068015852 9794676
-0.011899875 -0.043768939 -0.0062729893 9533303
-0.010060552 -0.042351604 -0.0057470407 8287348
-0.0082305996 -0.040941413 -0.0052237753 6315614
-0.0064097289 -0.039538302 -0.004703104 6775908
-0.0050155115 -0.038172595 -0.0043014404 7235688
-0.0040209144 -0.036840148 -0.0040112142 9926519
-0.0034249024 -0.035538796 -0.0038321191 9207936
-0.0029898188 -0.034250412 -0.003697901 8617341
-0.0026940207 -0.032972723 -0.0036025124 8420219
-0.0019756944 -0.031669028 -0.0033893918 5855320
0.00041498666 -0.030263683 -0.0027102779 6709858
0.0047758678 -0.028747398 -0.0014822861 7564653
0.0090921866 -0.027248958 -0.00026686434 7563111
0.011160661 -0.02589385 0.0003221434 7697267
0.011788004 -0.024625698 0.00050960918 9142657
0.011960892 -0.023384104 0.0005704551 9339779
0.016462449 -0.021918751 0.0018370319 5261898
0.017785203 -0.020628342 0.0022180541 5985107
0.0181018 -0.019391213 0.0023188107 6182229
0.01816603 -0.01816697 0.0023492663 6247765
0.018229682 -0.016942998 0.0023795576 6510423
0.018293275 -0.015719267 0.0024098316 6838617
0.018356871 -0.014495779 0.0024401036 6641752
0.018223168 -0.013280353 0.0024154494 6313044
0.017464835 -0.012088151 0.0022168916 5918296
0.019360833 -0.010797366 0.0027572918 1447236
0.01926603 -0.0095817111 0.0027434407 197430
0.019171165 -0.0083657485 0.0027295849 4931684
0.019076359 -0.0071494724 0.0027157469 4339549
0.018981492 -0.0059328871 0.0027018967 4142427
0.018886568 -0.0047159949 0.0026880272 4273756
0.018791698 -0.0034987878 0.0026741829 5981799
0.018696712 -0.0022812744 0.0026603041 1842249
0.018601781 -0.0010634491 0.0026464504 1250114
0.018506791 0.00015468725 0.0026325774 4471392
0.018411743 0.0013731327 0.0026186923 2631260
0.018316692 0.0025918901 0.0026048101 64
0.018221581 0.0038109573 0.0025909159 64
0.018126529 0.0050303368 0.0025770394 64
0.018031357 0.0062500271 0.0025631359 197442
0.017936185 0.0074700285 0.0025492355 2960224
0.017841011 0.0086903414 0.0025353304 3815015
0.017745836 0.0099109653 0.0025214355 3749223
0.017650658 0.011131902 0.0025075432 197442
0.017555363 0.01235315 0.0024936171 329028
0.017168047 0.013574328 0.0023985053 4604494
0.017956365 0.014796324 0.0026302505 3421236
0.018134344 0.016016884 0.0026922943 2894892
0.0180675 0.017237762 0.0026862738 2894892
0.018000072 0.018458856 0.0026800928 3026478
0.017932586 0.019680165 0.0026739063 4079166
0.017865216 0.020901689 0.0026677439 4670789
0.017598294 0.0221256 0.0026061372 5525841
0.016439458 0.023361683 0.0022966804 7429983
0.011740908 0.024652643 0.001003708 8157818
0.011658216 0.025885588 0.00099340617 8552576
0.011139018 0.027126592 0.00086183473 8092282
0.0098539228 0.028384391 0.00051750679 6513250
0.0062303008 0.029696539 -0.00047640191 6381921
0.0023923707 0.031026235 -0.0015297208 8353912
-0.0011955462 0.032363072 -0.0025134475 9596783
-0.0025619557 0.033653382 -0.0028800517 9667202
-0.003013069 0.034922529 -0.0029924021 7368816
-0.0033531112 0.036189891 -0.0030738995 9143428
-0.003840761 0.037463102 -0.003196365 8420476
-0.0044917553 0.038743474 -0.0033641763 6447714
-0.0055577569 0.040040728 -0.003647187 5592405
-0.0070138071 0.041356105 -0.0040384508 7302509
-0.0087431427 0.042687126 -0.0045055281 9272701
-0.01048354 0.04402459 -0.0049756169 10125440
-0.01223517 0.045368575 -0.0054487674 9404801
-0.013995193 0.046719007 -0.0059241769 9076350
-0.01576372 0.048075937 -0.006401889 10453120
-0.017540699 0.0494394 -0.0068818806 9600124
-0.019497721 0.050817896 -0.0074117733 5394255
-0.021577826 0.052209448 -0.007975745 3355443
-0.033510789 0.054127257 -0.011273543 3749687
-0.048481587 -0.053375948 -0.017915446 6513250
-0.028307611 -0.050288826 -0.012238909 5131340
-0.024855325 -0.048692666 -0.011256507 3684408
-0.022798855 -0.047224712 -0.010665975 5460048
-0.015485073 -0.045335654 -0.0086000981 4604996
-0.012324042 -0.043803193 -0.0076998458 5984850
-0.010077569 -0.042353094 -0.0070563392 8810094
-0.0082470849 -0.040942561 -0.006529633 5789527
-0.0064258534 -0.039539117 -0.006005595 5131854
-0.0050237002 -0.038172536 -0.0055991891 5197390
-0.0040281592 -0.036839738 -0.0053069051 8483699
-0.0034319879 -0.035538092 -0.0051266835 10321277
-0.0029968268 -0.034249417 -0.0049916497 10846336
-0.0027010362 -0.032971445 -0.0048957262 10584449
-0.0019834479 -0.031667519 -0.004681509 7104102
0.00040027651 -0.030262332 -0.0040000631 6578529
0.0047656135 -0.028745499 -0.002763005 8155505
0.0090829739 -0.027246725 -0.0015395517 8743273
0.011154249 -0.025891187 -0.00094603916 8748413
0.011783544 -0.024622655 -0.00075689278 8617855
0.011955523 -0.023380836 -0.00069598516 8814977
0.016464872 -0.021914829 0.0005808475 6115408
0.017781476 -0.020624477 0.00096253096 5854292
0.018094813 -0.01938724 0.0010629427 6183000
0.018160129 -0.018162671 0.001093837 5854292
0.018224111 -0.016938409 0.0011243522 7692127
0.018287746 -0.015714407 0.0011547619 9720916
0.018351326 -0.014490647 0.001185162 8085600
0.018209238 -0.01327528 0.0011579172 6643551
0.01746029 -0.012082429 0.00096065365 5722458
0.019338235 -0.010792043 0.0014993973 1776456
0.019243449 -0.0095760841 0.0014854011 197429
0.019148545 -0.0083598197 0.001471378 3551834
0.019053699 -0.0071432423 0.0014573652 4340576
0.018958792 -0.005926358 0.0014433478 4340320
0.018863885 -0.0047091609 0.0014293331 4406113
0.018768918 -0.0034916543 0.0014152991 7949929
0.018673947 -0.0022738369 0.0014012753 3749213
0.018578921 -0.0010557094 0.0013872322 2894163
0.01848389 0.00016272909 0.0013731918 5195113
0.018388858 0.0013814786 0.0013591542 1644626
0.018293768 0.0026005381 0.0013451048 64
0.018198676 0.0038199096 0.001331058 64
0.018103523 0.0050395923 0.0013169993 64
0.01800843 0.0062595867 0.0013029582 65857
0.017913215 0.0074798912 0.0012888904 131650
0.017818002 0.0087005077 0.001274818 131650
0.017722845 0.0099214371 0.0012607705 131650
0.017627569 0.011142677 0.0012466889 65857
0.017532293 0.012364229 0.0012326175 197442
0.017201649 0.013585789 0.001152684 4867666
0.017971743 0.014807985 0.0013807525 3750201
0.018135868 0.016028807 0.0014392432 2960685
0.01807002 0.017249942 0.0014334017 2894892
0.018002838 0.018471295 0.001427186 2960685
0.017935364 0.019692862 0.001420891 3947580
0.017867947 0.020914646 0.0014146128 4605253
0.017586511 0.022138977 0.0013484787 4473667
0.016415847 0.023375515 0.001033658 4802375
0.011742338 0.024666512 -0.0002607113 6645093
0.011652346 0.025899837 -0.00027318648 6710886
0.01112902 0.027141202 -0.00040682242 6908265
0.0098273642 0.028399635 -0.00075806986 6512993
0.0061666132 0.029712964 -0.0017688326 8681849
0.002333336 0.031043012 -0.002827696 10581108
-0.0012662348 0.032380588 -0.0038210873 9988971
-0.002576509 0.033669829 -0.0041744257 9011071
-0.0030171366 0.034938987 -0.004284638 7565938
-0.0033580959 0.036206659 -0.0043669827 10192775
-0.003848894 0.037480265 -0.0044911876 9273729
-0.0045085172 0.038761225 -0.0046625594 6579300
-0.0055805035 0.040059011 -0.0049491404 5789527
-0.0070391456 0.041374832 -0.0053437185 6908008
-0.0087704929 0.042706288 -0.0058144354 6973801
-0.010514291 0.04404426 -0.0062885764 5855577
-0.012266421 0.045388635 -0.0067649763 5526612
-0.014136372 0.046744276 -0.0072742323 5197390
-0.016211292 0.048115786 -0.0078406781 3552822
-0.018183544 0.049489629 -0.0083783669 3092271
-0.026575899 0.051186334 -0.010709094 3158064
-0.030001679 0.052659132 -0.011652472 3750201
-0.048477497 0.054937068 -0.016798597 6710886
-0.051464606 -0.050954565 -0.020104418 7105387
-0.025580181 -0.047457151 -0.012779494 5658198
-0.022068987 -0.045872744 -0.011774431 5065290
-0.020559702 -0.044460207 -0.011334871 3158064
-0.019494869 -0.043087617 -0.011020866 4342081
-0.0090026073 -0.041000042 -0.0080448026 5262926
-0.0064781616 -0.03954263 -0.007318913 4079166
-0.0050321082 -0.038172495 -0.0068975883 4144959
-0.0040353914 -0.036839325 -0.00660318 7170152
-0.0034390609 -0.035537384 -0.0064218319 9994368
-0.0030038222 -0.034248427 -0.0062859822 11043715
-0.0027080982 -0.032970179 -0.0061895316 10780543
-0.0019910722 -0.031666003 -0.0059741805 8285806
0.00038558082 -0.03026098 -0.0052904477 6578272
0.0047553708 -0.028743599 -0.0040443004 7958640
0.0090737725 -0.027244495 -0.0028128156 9594470
0.011147848 -0.025888523 -0.002214791 8748413
0.011779153 -0.024619605 -0.0020239418 6513250
0.011950163 -0.023377564 -0.00196298 6579300
0.016448967 -0.021911856 -0.00068104232 4999240
0.017777817 -0.020620607 -0.00029353207 3684408
0.018087776 -0.019383267 -0.00019349447 3420979
0.018153135 -0.018158421 -0.00016246462 3487029
0.018218493 -0.016933823 -0.0001314296 6116693
0.018282171 -0.015709544 -0.00010088442 9655380
0.018345792 -0.014485512 -7.0348819e-05 6838617
0.018195316 -0.013270204 -0.00010019173 5394512
0.017455697 -0.012076707 -0.0002961611 5853016
0.019315654 -0.010786715 0.0002408891 1973578
0.019220829 -0.009570457 0.00022672552 197429
0.019125942 -0.008353889 0.00021254996 1184321
0.019031055 -0.0071370108 0.00019837719 1644614
0.018936109 -0.0059198234 0.00018418508 1644871
0.018841218 -0.0047023227 0.0001700179 1644871
0.018746153 -0.0034845152 0.00015580184 5654377
0.0186512 -0.0022663944 0.0001416255 2894420
0.018556191 -0.0010479639 0.0001274298 2499663
0.018461121 0.00017077773 0.00011322214 2762834
0.01836605 0.0013898294 9.901727e-05 526406
0.018270919 0.0026091919 8.4800442e-05 65857
0.018175727 0.0038288664 7.0571667e-05 65857
0.018080594 0.0050488519 5.6360437e-05 131649
0.017985458 0.0062691499 4.2152024e-05 65857
0.017890263 0.007489759 2.7924256e-05 65857
0.01779501 0.0087106796 1.3691933e-05 131649
0.017699754 0.0099319126 -5.4498065e-07 131649
0.017604496 0.011153457 -1.4771695e-05 65857
0.017509179 0.012375314 -2.9017749e-05 131650
0.01722323 0.013597239 -9.6945223e-05 5130324
0.017987121 0.014819651 0.00013076657 5985621
0.01813728 0.016040737 0.00018563769 5656656
0.018071502 0.017262133 0.00017970985 5722449
0.018005667 0.018483737 0.00017376174 5722449
0.017938206 0.019705566 0.00016735819 5131083
0.017870685 0.020927608 0.00016094923 3684151
0.017574798 0.022152362 9.025092e-05 2829099
0.016392253 0.023389356 -0.00022999274 2500134
0.011741567 0.024680419 -0.0015262824 6908265
0.011646369 0.025914097 -0.0015403704 6513507
0.011119092 0.027155818 -0.0016760489 8486012
0.0098007079 0.028414888 -0.0020343119 8877686
0.0061071385 0.029729309 -0.003060845 10776431
0.0022742758 0.031059802 -0.0041264328 10254456
-0.0013370014 0.03239812 -0.0051295473 7761004
-0.0025910479 0.033686288 -0.005469399 8025975
-0.0030211937 0.034955449 -0.0055774436 6776679
-0.0033631269 0.036223438 -0.0056606573 8026232
-0.003857072 0.037497435 -0.0057866164 8157304
-0.0045260172 0.038779005 -0.0059617697 7630960
-0.0056020706 0.040077269 -0.0062513975 7762289
-0.0070646969 0.041393582 -0.0066496949 7630960
-0.0088497689 0.042727478 -0.0071386057 5263183
-0.010912138 0.044078819 -0.0077054179 4275774
-0.012868032 0.045432825 -0.0082422299 4276288
-0.021837838 0.047102407 -0.010750849 3749944
-0.023525633 0.048469942 -0.011212018 3355186
-0.025526894 0.049858231 -0.011761249 5657427
-0.047734965 0.052248664 -0.017990237 5394512
-0.049668893 0.053682618 -0.018520037 5986906
-0.051961735 -0.045619555 -0.021570105 6973287
-0.019830434 -0.041825403 -0.012425482 5920856
-0.01841248 -0.040431254 -0.01200927 6644322
-0.0062030354 -0.038257021 -0.0085268877 5459534
-0.0045693056 -0.03687631 -0.0080496706 5787471
-0.003851658 -0.035564765 -0.0078327674 8284778
-0.0033761503 -0.034272097 -0.0076846792 8088684
-0.00286073 -0.032978479 -0.0075252722 8743530
-0.002146357 -0.031673938 -0.0073093693 8546922
0.00037269769 -0.030259514 -0.0065809204 6249050
0.0047451407 -0.028741695 -0.0053261803 7367017
0.0090645831 -0.02724226 -0.0040866565 8087656
0.011141458 -0.025885854 -0.0034841048 7236973
0.011774712 -0.024616554 -0.0032915601 6316128
0.011944754 -0.023374295 -0.0032305513 6447714
0.016428318 -0.021909123 -0.0019448686 3881273
0.017774051 -0.020616742 -0.0015501792 5393998
0.018080749 -0.019379288 -0.0014504935 5393998
0.018146148 -0.018154167 -0.0014193207 5328205
0.018211491 -0.016929295 -0.0013881649 6116950
0.018276604 -0.01570468 -0.0013570853 7364190
0.018340265 -0.014480374 -0.0013264067 5328205
0.018181294 -0.013265128 -0.0013589216 5197390
0.017451111 -0.01207098 -0.0015535229 5853273
0.019293033 -0.010781385 -0.0010182475 3222870
0.019198166 -0.0095648253 -0.0010325784 2236493
0.019103298 -0.0083479555 -0.0010469065 2236749
0.019008312 -0.0071307756 -0.0010612687 2433871
0.018913383 -0.0059132846 -0.001075606 2499664
0.018818395 -0.0046954849 -0.0010899627 526393
0.018723404 -0.0034773722 -0.0011043091 2039371
0.018628355 -0.0022589506 -0.0011186749 1249858
0.018533304 -0.0010402168 -0.0011330378 2302542
0.018438254 0.00017882802 -0.001147398 1907786
0.018343141 0.0013981838 -0.0011617702 263235
0.018248027 0.0026178504 -0.0011761396 657992
0.018152855 0.0038378281 -0.0011905209 2170967
0.01805768 0.0050581177 -0.0012048994 3091296
0.017962446 0.0062787188 -0.0012192973 3091552
0.017867211 0.0074996315 -0.0012336849 3157088
0.017771974 0.0087208562 -0.0012480698 3222881
0.017676737 0.0099423937 -0.0012624593 3288673
0.017581441 0.011164242 -0.0012768607 3222881
0.017486025 0.012386403 -0.0012912888 394820
0.017237382 0.013608684 -0.0013491357 7296864
0.018002557 0.01483132 -0.0011196851 6970717
0.018138755 0.016052671 -0.0010684853 6182743
0.018072933 0.017274328 -0.0010745365 6248279
0.018007109 0.018496195 -0.0010805858 6904924
0.017940994 0.019718274 -0.0010867069 7298397
0.017873487 0.020940576 -0.0010932318 6051157
0.017563097 0.022165751 -0.001168546 4407874
0.016368618 0.023403203 -0.0014942719 3026478
0.011740284 0.024694338 -0.0027925479 7303023
0.011640403 0.025928361 -0.0028081164 6447714
0.011108942 0.027170444 -0.0029459109 8419962
0.0097740721 0.028430151 -0.0033111968 9597811
0.0060494379 0.029745625 -0.0043531177 9665403
0.0022150765 0.031076603 -0.0054259826 8090740
-0.0014010557 0.032415491 -0.0064369184 5789270
-0.0025977963 0.033702541 -0.0067627737 8748670
-0.0030252992 0.034971923 -0.0068708253 5658198
-0.0033680892 0.036240224 -0.006954886 6447457
-0.003882705 0.037515167 -0.0070875599 8812150
-0.004669189 0.038801022 -0.0072971699 8546408
-0.005922582 0.040106095 -0.0076388954 7951187
-0.0079271197 0.04144337 -0.008193152 4603454
-0.019162465 0.043145981 -0.011359497 4933447
-0.020375039 0.044481143 -0.011689339 4473410
-0.02179445 0.045829259 -0.012077669 5657941
-0.023265067 0.047184553 -0.01248044 7630446
-0.0526288 0.049822267 -0.020774411 9013641
-0.054663774 -0.041781723 -0.023682311 7433324
-0.052154377 -0.040254027 -0.022950925 7892847
-0.050436005 -0.038789891 -0.02244577 6972002
-0.01500632 -0.035055816 -0.012303563 6249564
-0.013864368 -0.033700433 -0.011963918 6840930
-0.012711903 -0.032348383 -0.011621301 5131083
-0.0017865314 -0.030391721 -0.008485456 5525584
0.0047348659 -0.028739793 -0.0066086659 6972259
0.0090553472 -0.02724003 -0.0053610886 6051928
0.0111327 -0.025883323 -0.0047546676 7960182
0.011770223 -0.024613509 -0.0045597553 6513250
0.011939357 -0.023371024 -0.0044986922 6381921
0.016407685 -0.021906393 -0.0032093085 3486772
0.017768959 -0.020612938 -0.0028077576 6050900
0.018073734 -0.019375307 -0.0027080618 6313558
0.018139116 -0.018149912 -0.0026767608 6379351
0.018204499 -0.016924765 -0.0026454695 5591120
0.018269885 -0.015699865 -0.0026141731 4539460
0.01833469 -0.014475237 -0.0025830488 3618615
0.018167341 -0.013260049 -0.0026182209 3881787
0.017446535 -0.012065251 -0.0028114391 3486525
0.019270426 -0.010776054 -0.0022779978 5194084
0.01917552 -0.0095591908 -0.0022925034 5128291
0.019080611 -0.0083420193 -0.0023069987 4471392
0.018985702 -0.0071245343 -0.0023214913 5653605
0.018890675 -0.0059067444 -0.002336018 5522534
0.018795703 -0.0046886397 -0.0023505199 1578821
0.018700674 -0.0034702257 -0.0023650411 197429
0.018605584 -0.0022515007 -0.0023795741 329015
0.018510493 -0.001032464 -0.0023941044 4931684
0.018415343 0.00018688191 -0.0024086467 3880285
0.018320249 0.0014065418 -0.0024231714 2236760
0.018225094 0.0026265115 -0.002437708 2959967
0.018129939 0.0038467944 -0.002452242 5391471
0.018034726 0.0050673871 -0.002466795 6310256
0.01793951 0.0062882928 -0.0024813381 5128301
0.017844236 0.0075095096 -0.0024959005 5259885
0.0177489 0.0087310383 -0.0025104748 6572143
0.017653622 0.0099528795 -0.0025250241 5128044
0.017558342 0.011175034 -0.0025395779 4405608
0.017462945 0.012397499 -0.0025541587 657991
0.017251477 0.013620134 -0.0026018436 6181211
0.018017877 0.014842995 -0.0023706544 4933704
0.01814024 0.01606461 -0.0023231481 4538946
0.018074427 0.017286528 -0.0023292929 4473667
0.018008558 0.018508658 -0.0023354581 5328205
0.017942686 0.019730996 -0.0023416216 6773338
0.017876234 0.020953549 -0.0023479525 6773338
0.017551349 0.022179147 -0.0024279419 6050900
0.016317215 0.02341741 -0.0027671002 3815737
0.011739066 0.024708265 -0.0040593459 6710886
0.011634448 0.025942633 -0.0040764315 6316128
0.011098168 0.027185088 -0.0042165336 6710886
0.009747454 0.028445417 -0.0045887101 7499374
0.0059917709 0.02976195 -0.005646144 7170923
0.0021559685 0.031093407 -0.006726264 6513250
-0.0019993733 0.03244618 -0.0078972979 5065804
-0.003306611 0.033737514 -0.0082567558 5262412
-0.0037679113 0.035009369 -0.0083751678 3684408
-0.004333992 0.03628597 -0.0085234186 7102560
-0.005580191 0.037586205 -0.0088653769 5131597
-0.016977303 0.039232034 -0.012098553 5789013
-0.018672088 0.040574472 -0.012567994 6512222
-0.051542785 0.043079603 -0.021916011 8286320
-0.053678397 0.044505272 -0.022510318 11832974
-0.05424476 -0.036354333 -0.024892673 8484984
-0.052308049 -0.034881342 -0.024321685 8679279
-0.051012877 -0.033455092 -0.02393527 6578529
-0.011630167 -0.029727872 -0.012595233 5722706
0.009046182 -0.027237793 -0.0066360827 4605253
0.011118562 -0.025881095 -0.0060273521 8880256
0.011765801 -0.024610456 -0.00582849 7960439
0.011934026 -0.023367748 -0.0057673724 7763060
0.016238876 -0.021911336 -0.0045169741 3881787
0.017684501 -0.020613108 -0.0040887101 4407617
0.018058494 -0.019371726 -0.0039685564 4736325
0.01812125 -0.018146161 -0.003937881 5262412
0.018184066 -0.016920835 -0.003907193 5459791
0.018246826 -0.015695749 -0.0038765215 4407874
0.018309528 -0.014470905 -0.0038458747 3487029
0.018128121 -0.013255966 -0.0038853732 2960685
0.017354587 -0.012062827 -0.0040950258 3026233
0.019247837 -0.010770717 -0.003538369 6309735
0.019152889 -0.0095535545 -0.0035530345 5653092
0.019057941 -0.0083360793 -0.0035677045 3617113
0.018962933 -0.0071182954 -0.0035823793 6440549
0.018867983 -0.0059001986 -0.0035970437 5850727
0.018772971 -0.0046817926 -0.0036117129 2302542
0.018677901 -0.0034630755 -0.0036264013 263222
0.018582771 -0.0022440476 -0.0036411018 197430
0.018487697 -0.0010247075 -0.0036557845 6704492
0.018392507 0.00019494254 -0.0036705015 6376299
0.018297374 0.0014149046 -0.0036851936 5785971
0.01820218 0.0026351784 -0.0036998976 5982835
0.018106984 0.0038557642 -0.0037145987 6441586
0.018011788 0.0050766622 -0.0037293043 5391214
0.017916474 0.0062978701 -0.0037440369 3485795
0.017821217 0.0075193918 -0.0037587443 3420002
0.0177259 0.0087412251 -0.0037734711 6375793
0.017630523 0.0099633709 -0.00378821 4011622
0.017535204 0.01118583 -0.0038029312 2433882
0.017439825 0.0124086 -0.0038176642 460614
0.017169768 0.01363147 -0.0038825243 5196117
0.018022411 0.01485468 -0.0036252027 4868168
0.018129665 0.016076582 -0.0035817958 4210752
0.018058704 0.017298803 -0.0035895319 3947580
0.017987685 0.018521253 -0.0035972807 3684151
0.017916663 0.019743931 -0.0036050275 4407617
0.017845698 0.020966835 -0.0036127502 4867911
0.017516125 0.022192808 -0.0036946556 4473410
0.01611905 0.02343349 -0.0040827515 3158064
0.011737856 0.024722196 -0.0053266911 7566195
0.011628966 0.025956903 -0.0053451755 7697524
0.011087463 0.027199738 -0.0054877261 7894903
0.0097207977 0.028460693 -0.0058668819 6644836
0.0059340205 0.029778285 -0.0069399467 5986906
-0.011344153 0.031421844 -0.011881219 4605253
-0.012369354 0.032720484 -0.012161993 5789270
-0.049974408 0.034998294 -0.022929847 7234917
-0.051083229 0.036370188 -0.023233868 8352370
-0.052320603 0.037749801 -0.023574689 8551034
-0.053997364 0.039147723 -0.024041418 8815234
-0.054770745 -0.030986369 -0.02637554 6710115
0.011027401 -0.025883257 -0.0073229279 6644579
0.011726841 -0.024609312 -0.0071077794 8615799
0.011914331 -0.023365239 -0.0070407758 9404801
0.015571566 -0.021942098 -0.0059699914 5262412
0.017342361 -0.020626172 -0.0054450468 3618615
0.017753195 -0.019382151 -0.0053135501 3026478
0.017834598 -0.018154925 -0.0052773478 3815737
0.017914208 -0.016928082 -0.0052416725 6445401
0.017993817 -0.015701538 -0.0052060001 7102303
0.018073488 -0.014475289 -0.0051703155 5130826
0.017890204 -0.013259747 -0.0052106651 2565927
0.017054105 -0.01206829 -0.0054397704 2894388
0.019225206 -0.010765379 -0.0047993683 5588070
0.019130219 -0.0095479144 -0.004814209 2236492
0.019035229 -0.0083301384 -0.0048290389 131636
0.018940298 -0.007112049 -0.0048438585 2894163
0.018845249 -0.0058936509 -0.0048587052 1710663
0.01875014 -0.0046749436 -0.004873564 657979
0.018655086 -0.0034559215 -0.0048883972 657723
0.018559976 -0.0022365903 -0.0049032504 460601
0.018464804 -0.0010169483 -0.0049181227 2368078
0.018369632 0.00020300489 -0.0049329847 6048105
0.018274456 0.0014232718 -0.004947844 7164535
0.018179223 0.0026438488 -0.0049627228 6639477
0.018083988 0.0038647377 -0.0049775913 4142952
0.017988751 0.0050859395 -0.0049924641 1118540
0.017893514 0.0063074538 -0.0050073345 131649
0.017798157 0.0075292792 -0.0050222315 65857
0.017702859 0.0087514175 -0.0050371108 2894431
0.017607443 0.0099738678 -0.0050520166 1578833
0.017512083 0.011196631 -0.0050669052 65857
0.017416721 0.012419707 -0.005081791 131650
0.016899025 0.013642585 -0.0052186348 5524567
0.017725736 0.01486653 -0.0049672578 7693669
0.017920459 0.016089011 -0.0048983828 7233632
0.017838549 0.017311906 -0.0049093892 6773852
0.017756697 0.018535066 -0.0049203709 4802375
0.017674727 0.019758495 -0.004931387 3684151
0.017594844 0.020982167 -0.004941796 3618615
0.017216515 0.022209382 -0.0050383522 3684151
0.015527725 0.023454595 -0.0055131302 5393998
0.011736596 0.024736134 -0.0065945978 9536644
0.011623379 0.025971182 -0.0066145184 9799559
0.011044125 0.02721498 -0.0067689191 10192518
0.0093501266 0.028482759 -0.0072449627 6578015
-0.052030306 0.031037416 -0.024942718 6315357
-0.053271092 0.032410536 -0.025286796 6446429
-0.054515846 0.033788059 -0.025631987 5789270
-0.057430279 0.035214469 -0.026458802 5591891
0.010738854 -0.024660634 -0.0086640408 8810351
0.011106065 -0.023404952 -0.0085443463 9205880
0.011182467 -0.022165632 -0.0085093193 8220784
0.016671307 -0.020655697 -0.006898894 5195848
0.017168863 -0.019406052 -0.0067413948 5064519
0.017283451 -0.018175997 -0.0066953679 3289393
0.01737364 -0.016947458 -0.0066564456 5590349
0.017463718 -0.015719254 -0.0066175633 6969175
0.017553853 -0.014491385 -0.0065786615 5458763
0.017426299 -0.013272465 -0.0066031031 2368548
0.016423512 -0.012086236 -0.0068821879 1579044
0.019202592 -0.010760038 -0.0060609891 986943
0.019107506 -0.0095422724 -0.0060760113 394808
0.019012537 -0.0083241928 -0.0060910014 51
0.018917505 -0.0071058027 -0.0061059957 2697042
0.018822474 -0.0058871014 -0.0061209952 4209506
0.018727325 -0.004668091 -0.0061360211 4143713
0.018632231 -0.0034487657 -0.0061510294 4143713
0.01853708 -0.0022291315 -0.0061660567 2368335
0.018441927 -0.0010091853 -0.0061810743 2302286
0.018346772 0.00021107291 -0.0061960891 2302542
0.018251499 0.001431642 -0.0062111379 460613
0.018156283 0.002652524 -0.0062261615 657991
0.018061066 0.003873718 -0.0062411898 592199
0.017965732 0.005095223 -0.0062562451 460613
0.017870395 0.0063170404 -0.0062712971 460613
0.017775116 0.0075391713 -0.0062863319 657991
0.017679777 0.0087616146 -0.0063013784 789577
0.017584378 0.0099843703 -0.0063164444 920906
0.017488979 0.011207438 -0.0063315001 657991
0.01739352 0.012430819 -0.0063465755 592199
0.016202396 0.013653205 -0.006680002 5589844
0.017230306 0.014878505 -0.0063686599 7692641
0.017399123 0.016102171 -0.0063069379 7822942
0.017315023 0.017326247 -0.0063187084 8411738
0.017230805 0.018550601 -0.0063305064 7692384
0.017146643 0.019775225 -0.0063422793 6642266
0.017065555 0.021000097 -0.006353165 6642523
0.016555529 0.022229956 -0.0064886198 6970717
0.011280642 0.023522383 -0.0080078766 7890020
0.011256431 0.024757026 -0.0080021312 7891048
0.011105897 0.025993785 -0.0080330679 7628133
0.0099655762 0.027248859 -0.0083513996 8876144
0.015031805 -0.020733677 -0.0086393142 6182486
0.016115448 -0.019452602 -0.0083092423 5918543
0.016250512 -0.018219491 -0.0082569821 3947066
0.016385695 -0.016986869 -0.0082046967 1973790
0.016520998 -0.01575473 -0.0081523797 2039583
0.016656125 -0.014523094 -0.0081001101 2500134
0.016443526 -0.013305708 -0.0081496537 3815480
0.015252041 -0.012124628 -0.0084857428 3091267
0.019179879 -0.010754698 -0.0073232604 131637
0.019084869 -0.0095366267 -0.0073384205 65844
0.018989857 -0.0083182445 -0.0073535703 51
0.01889473 -0.0070995525 -0.0073687616 4340833
0.018799715 -0.0058805463 -0.0073839058 7623535
0.018704584 -0.0046612327 -0.0073990845 7688813
0.018609393 -0.0034416064 -0.0074142823 7754349
0.018514259 -0.0022216679 -0.0074294549 4406883
0.018419066 -0.0010014176 -0.0074446471 4011613
0.01832387 0.0002191446 -0.0074598291 4012127
0.018228617 0.0014400178 -0.0074750301 789577
0.018133361 0.002661204 -0.0074902289 4209515
0.018038103 0.003882702 -0.0075054243 4209772
0.017942728 0.0051045106 -0.0075206468 3617894
0.017847411 0.0063266335 -0.0075358516 3157345
0.017752033 0.0075490689 -0.0075510684 4341357
0.017656654 0.0087718163 -0.0075662895 4472686
0.017561274 0.0099948766 -0.0075815008 4538479
0.017465834 0.01121825 -0.0075967312 3157602
0.017370334 0.012441937 -0.0076119737 2565724
0.014978907 0.013663233 -0.0082984474 5064274
0.016285468 0.014890756 -0.0079037631 4407360
0.016534511 0.016116146 -0.0078182584 2631720
0.016429843 0.017342079 -0.0078361593 4144445
0.016319785 0.018568391 -0.0078556277 6641495
0.016209608 0.019795068 -0.0078751305 6575188
0.016099488 0.021022107 -0.0078946147 6509395
0.015166983 0.022258589 -0.0081544211 5326920
0.013462624 -0.019576378 -0.01035268 6709858
0.014126256 -0.018313769 -0.010144385 6972002
0.01434487 -0.017073434 -0.010067223 6051928
0.014564703 -0.01583383 -0.0099897059 4933961
0.014784482 -0.014595019 -0.009912218 4736839
0.014605802 -0.013372757 -0.0099521037 5393998
0.01915724 -0.010749349 -0.0085861301 65844
0.019062189 -0.0095309773 -0.0086014578 51
0.018967081 -0.0083122933 -0.0086167967 51
0.018872028 -0.0070932969 -0.0086321188 1973578
0.018776916 -0.0058739893 -0.008647453 3485785
0.018681746 -0.0046543726 -0.0086628059 3354456
0.018586572 -0.0034344431 -0.0086781485 3157334
0.018491456 -0.0022141987 -0.0086934743 1841992
0.018396165 -0.00099364633 -0.0087088477 1513029
0.018300988 0.00022722008 -0.0087241903 2894420
0.018205635 0.0014483962 -0.0087395729 5063279
0.018110396 0.0026698874 -0.0087549239 7687792
0.018015042 0.0038916883 -0.0087703019 7754356
0.017919742 0.0051138042 -0.0087856622 7623028
0.017824326 0.0063362308 -0.0088010561 7557235
0.017728968 0.0075589707 -0.0088164331 7950964
0.017633548 0.0087820236 -0.0088318139 8016499
0.017538127 0.010005389 -0.0088472003 8082035
0.017442647 0.011229068 -0.0088625979 7950706
0.017347166 0.01245306 -0.0088779926 7884914
0.014404033 0.014903592 -0.0097182821 6511451
0.014715875 0.016132377 -0.0096138204 4670275
0.014562829 0.01736195 -0.0096460916 4736068
0.014409723 0.018592035 -0.0096783731 4736325
0.014259279 0.019822616 -0.0097098602 4144445
0.013819392 0.021056397 -0.0098264609 5328462
0.019134503 -0.010744005 -0.0098496582 2762578
0.019039471 -0.0095253279 -0.0098651312 263222
0.018944379 -0.0083063385 -0.0098806303 131636
0.018849229 -0.0070870412 -0.009896134 263222
0.018754076 -0.0058674305 -0.009911635 2631249
0.018658923 -0.0046475087 -0.0099271405 3026005
0.018563768 -0.0034272741 -0.0099426359 855357
0.018468555 -0.0022067286 -0.0099581508 197430
0.018373281 -0.00098587119 -0.0099736778 2170700
0.018278005 0.00023529815 -0.0099892011 5654120
0.018182728 0.0014567805 -0.010004723 7688307
0.018087393 0.0026785745 -0.010020263 5850736
0.017992055 0.0039006816 -0.010035793 3551587
0.017896716 0.0051231007 -0.01005132 3354466
0.017801318 0.0063458327 -0.010066868 3222881
0.017705917 0.0075688781 -0.010082412 3091552
0.017610459 0.0087922355 -0.010097967 2959967
0.017514998 0.010015907 -0.010113521 2828382
0.017419536 0.011239891 -0.010129071 2762589
0.017323956 0.012464188 -0.010144647 2631260
0.01911184 -0.010738653 -0.011113778 7097191
0.019016767 -0.009519672 -0.011129425 2697041
0.018921636 -0.0083003826 -0.011145092 1710407
0.018826503 -0.0070807799 -0.011160748 263222
0.018731311 -0.005860866 -0.011176424 3223127
0.018636119 -0.0046406412 -0.011192096 3880542
0.018540923 -0.0034201033 -0.011207759 921150
0.018445669 -0.0021992531 -0.011223442 131637
0.018350413 -0.00097809138 -0.011239121 2236492
0.018255098 0.00024338203 -0.011254819 4996963
0.018159723 0.0014651673 -0.011270522 5062765
0.018064406 0.0026872666 -0.011286216 2302553
0.017969085 0.0039096787 -0.011301898 65857
0.017873649 0.0051324023 -0.011317615 64
0.017778268 0.0063554398 -0.011333315 64
0.017682828 0.0075787902 -0.011349025 64
0.017587328 0.0088024531 -0.011364749 64
0.017491829 0.01002643 -0.011380477 64
0.017396325 0.011250719 -0.011396194 2762589
0.017300824 0.012475323 -0.011411916 1842004
0.019089136 -0.0107333 -0.012378541 7621992
0.018994024 -0.0095140152 -0.012394355 7491692
0.01889891 -0.0082944203 -0.012410174 4734819
0.01880368 -0.0070745167 -0.01242602 329015
0.018708505 -0.0058542998 -0.012441841 1118272
0.018613273 -0.0046337699 -0.012457688 1907785
0.018518038 -0.0034129291 -0.012473525 1973578
0.018422743 -0.0021917755 -0.012489376 2105163
0.018327447 -0.00097030989 -0.012505222 2302285
0.01823215 0.00025146958 -0.012521073 1644614
0.018136792 0.0014735599 -0.012536929 526406
0.018041434 0.0026959642 -0.012552788 329028
0.017946018 0.003918679 -0.012568661 263235
0.017850598 0.005141709 -0.012584531 197442
0.017755177 0.0063650515 -0.012600397 197442
0.017659698 0.0075887064 -0.012616283 197442
0.017564217 0.0088126753 -0.012632159 131650
0.017468734 0.010036957 -0.012648039 131649
0.017373133 0.011261553 -0.012663946 2762845
0.017277591 0.012486462 -0.012679835 1973589
0.019066449 -0.010727942 -0.013643924 460600
0.01897124 -0.0095083583 -0.013659928 394808
0.018876143 -0.0082884589 -0.013675893 394808
0.018780872 -0.0070682517 -0.013691906 592186
0.018685659 -0.0058477297 -0.013707901 4340577
0.018590385 -0.0046268967 -0.013723916 8213100
0.018495169 -0.003405751 -0.013739906 8015722
0.018399833 -0.0021842932 -0.013755922 7884650
0.018304557 -0.00096252165 -0.013771929 7753321
0.018209161 0.00025955983 -0.013787962 5260391
0.018113822 0.0014819562 -0.013803978 1842004
0.018018425 0.0027046644 -0.013820006 1644626
0.017922966 0.0039276853 -0.013836045 1710419
0.017827565 0.0051510204 -0.013852066 1842004
0.017732104 0.0063746683 -0.013868108 1973589
0.017636586 0.0075986288 -0.013884162 2104918
0.017541064 0.008822903 -0.013900211 2170967
0.01744554 0.010047491 -0.013916251 1315919
0.017349958 0.011272392 -0.013932318 131649
0.017254375 0.012497608 -0.013948375 64
0.019043664 -0.010722584 -0.014909958 51
0.018948471 -0.0095026959 -0.014926115 1578822
0.018853279 -0.0082824947 -0.014942269 7294828
0.018758141 -0.0070619788 -0.014958397 7491693
0.018662829 -0.005841156 -0.014974582 5654634
0.018567573 -0.0046200179 -0.014990742 2170700
0.018472258 -0.0033985691 -0.015006922 1118528
0.018377 -0.0021768052 -0.015023083 1052479
0.018281566 -0.00095473265 -0.015039287 921150
0.018186189 0.00026765483 -0.015055473 5457512
0.018090811 0.0014903562 -0.015071656 8277357
0.017995372 0.0027133694 -0.015087858 8539500
0.017899932 0.0039366954 -0.01510405 8474736
0.017804492 0.0051603364 -0.015120246 8343921
0.017708991 0.0063842894 -0.015136455 8147057
0.017613431 0.0076085553 -0.015152675 8081521
0.01751787 0.0088331345 -0.015168893 8212849
0.017422307 0.01005803 -0.015185115 5588592
0.017326744 0.011283237 -0.015201327 1118541
0.01723112 0.012508758 -0.015217551 1184077
0.019020954 -0.010717223 -0.016176598 65844
0.018925779 -0.0094970297 -0.0161929 526393
0.018830545 -0.0082765259 -0.016209222 2565456
0.01873531 -0.0070557063 -0.016225539 2499663
0.018640015 -0.0058345785 -0.016241876 1710407
0.018544663 -0.0046131392 -0.016258234 526393
0.018449366 -0.0033913832 -0.016274566 329015
0.018354008 -0.0021693166 -0.016290903 460600
0.018258652 -0.0009469369 -0.016307252 3946077
0.018163234 0.0002757555 -0.016323604 7753065
0.018067816 0.001498761 -0.016339969 8668259
0.017972397 0.0027220801 -0.016356315 7032693
0.017876916 0.0039457111 -0.016372683 3157601
0.017781377 0.0051696561 -0.016389053 2894174
0.017685894 0.006393915 -0.016405415 1052748
0.017590296 0.0076184869 -0.016421817 1315662
0.017494751 0.0088433726 -0.016438181 4406122
0.017399149 0.010068573 -0.016454577 8539243
0.017303487 0.011294086 -0.016470978 8278128
0.017207881 0.012519915 -0.016487354 8343407
0.0189982 -0.010711858 -0.01744386 131637
0.018902987 -0.0094913617 -0.017460344 51
0.018807715 -0.0082705542 -0.017476847 51
0.018712496 -0.0070494302 -0.017493311 51
0.018617162 -0.0058279987 -0.017509816 51
0.018521769 -0.0046062549 -0.01752634 131636
0.018426431 -0.003384196 -0.017542839 2828627
0.018331094 -0.0021618232 -0.017559335 5523048
0.018235696 -0.00093913847 -0.017575851 5457513
0.01814024 0.00028385813 -0.017592385 5851755
0.018044837 0.0015071704 -0.017608881 5982836
0.01794932 0.0027307926 -0.017625432 2631260
0.017853802 0.0039547295 -0.017641967 855370
0.01775828 0.0051789815 -0.017658498 657992
0.017662758 0.0064035454 -0.017675025 131649
0.017567176 0.0076284241 -0.017691573 197442
0.017471593 0.0088536162 -0.017708119 1907797
0.017375952 0.010079122 -0.017724684 5523828
0.017280307 0.011304942 -0.017741229 4669550
0.017184604 0.012531077 -0.017757811 3551844
0.018975468 -0.010706491 -0.018711764 3420248
0.018880215 -0.0094856918 -0.018728416 3485785
0.018784899 -0.0082645789 -0.018745072 3617370
0.018689586 -0.007043154 -0.018761739 2762578
0.018594271 -0.0058214157 -0.018778404 51
0.018498894 -0.0045993668 -0.018795073 131636
0.018403517 -0.0033770027 -0.01881174 2762834
0.018308138 -0.0021543258 -0.018828418 5457513
0.018212702 -0.0009313362 -0.018845102 3486042
0.018117202 0.00029196517 -0.018861789 2433871
0.018021762 0.0015155815 -0.018878466 2368346
0.017926263 0.0027395107 -0.018895162 657992
0.017830761 0.0039637545 -0.018911857 329028
0.0177352 0.0051883105 -0.018928556 263235
0.017639579 0.0064131808 -0.018945273 263235
0.017544016 0.0076383655 -0.018961981 263235
0.017448394 0.0088638635 -0.018978693 723784
0.017352711 0.010089676 -0.018995425 1973590
0.017257027 0.011315803 -0.019012153 1710419
0.017161343 0.012542244 -0.019028878 1184077
0.018952634 -0.010701125 -0.019980313 7885678
0.018857399 -0.0094800182 -0.019997124 7754606
0.018762104 -0.0082586007 -0.02001394 7689070
0.01866675 -0.0070368717 -0.020030774 5917291
0.018571392 -0.0058148289 -0.020047592 65844
0.018475978 -0.0045924746 -0.020064443 131636
0.018380618 -0.0033698056 -0.020081269 1710407
0.018285142 -0.0021468259 -0.020098122 2894420
0.018189723 -0.0009235302 -0.020114966 986943
0.018094243 0.00030007726 -0.020131813 1250114
