# .PCD v0.7 - Point Cloud Data file format
VERSION 0.7
FIELDS x y z rgb
SIZE 4 4 4 4
TYPE F F F U
COUNT 1 1 1 1
WIDTH 1042
HEIGHT 1
VIEWPOINT 0 0 0 1 0 0 0
POINTS 1042
DATA ascii
-0.014071551 0.042336386 0.0092292167 10658466
-0.012521791 0.042325597 0.0092397342 10263708
-0.010977728 0.042352062 0.0090912357 10197915
-0.0094514107 0.042505078 0.0084026316 10197915
-0.084632114 0.03683893 0.027699111 10263708
-0.083115369 0.036831595 0.027695628 10329501
-0.081599236 0.036825486 0.027686903 10855588
-0.080083251 0.036819696 0.02767678 12298408
-0.078567237 0.036813904 0.027666716 13735317
-0.077051215 0.036808114 0.027656592 13735574
-0.075535163 0.03680231 0.027646527 13542307
-0.074019097 0.036796529 0.027636405 10461087
-0.072503 0.036790729 0.027626339 10329501
-0.070986889 0.036784925 0.027616274 13149348
-0.069470763 0.036779135 0.02760615 13735317
-0.067953944 0.036771819 0.027602609 13735574
-0.066437088 0.036764402 0.027599476 13670295
-0.064923383 0.036764473 0.027564188 13668753
-0.063413359 0.036773685 0.027489644 12689311
-0.061917171 0.036817584 0.02726616 11118503
-0.060428679 0.036882691 0.026951514 10395294
-0.058945801 0.036964916 0.026563358 10987174
-0.057472438 0.0370754 0.026053809 10921381
-0.056003135 0.037201315 0.025477909 10263708
-0.054537948 0.037343781 0.024830883 10329501
-0.053076081 0.037501585 0.024117911 10395294
-0.051617052 0.037674364 0.023340568 10395294
-0.050165083 0.037875235 0.022442466 10790052
-0.048713423 0.038086161 0.021501074 10987174
-0.047268704 0.038327828 0.020427562 10987174
-0.045824252 0.038581755 0.019301265 11052967
-0.044383325 0.038859107 0.018074241 11118760
-0.042932458 0.039117999 0.016926426 10987174
-0.041460332 0.039319605 0.016024714 10921638
-0.039983336 0.039515242 0.015148567 10987174
-0.038486298 0.039651562 0.014527264 10987174
-0.036978707 0.039757766 0.014035332 11052967
-0.035465617 0.03984997 0.013603511 11052967
-0.0339371 0.03988947 0.013398172 10987174
-0.032405853 0.039921083 0.013226737 10987174
-0.030865453 0.039918337 0.013202972 10987174
-0.029323636 0.039910007 0.013203207 10987174
-0.027781831 0.039901689 0.013203383 10658466
-0.026240041 0.039893351 0.013203616 10329501
-0.024698272 0.039885033 0.013203793 10329501
-0.023156516 0.039876722 0.013203972 10329501
-0.021614773 0.039868385 0.013204205 10263708
-0.020073619 0.039862972 0.013191917 10658466
-0.018547395 0.039936259 0.01284122 13475229
-0.017090371 0.040395208 0.010832207 10263708
-0.015610036 0.040760759 0.0092246803 13280163
-0.014060924 0.040749196 0.0092386436 11381418
-0.012512353 0.040740602 0.0092398506 10395294
-0.010963717 0.040731482 0.00924333 10197915
-0.0094156582 0.040726133 0.0092305532 10197915
-0.0078834249 0.040835869 0.0087228827 10263708
-0.084562175 0.035245836 0.02788086 10197915
-0.083046548 0.035238497 0.027877439 10197915
-0.081530929 0.035231169 0.027873959 10461087
-0.080015302 0.035223827 0.027870538 11052967
-0.078499682 0.035216488 0.027867116 11578283
-0.076984063 0.035209149 0.027863694 11578283
-0.075468458 0.035201833 0.027860155 11447211
-0.073952869 0.035194561 0.027856445 10197915
-0.072437309 0.035187326 0.027852556 12233386
-0.070921749 0.035180099 0.02784867 11709869
-0.069406196 0.035172895 0.027844666 11578540
-0.067890637 0.035165656 0.027840776 11512747
-0.066375084 0.035158429 0.027836891 11447211
-0.064860396 0.03515324 0.027824145 12429480
-0.063349508 0.035157252 0.027771594 13343129
-0.061844964 0.035177186 0.027650159 12625574
-0.060361471 0.035250559 0.027297413 12495787
-0.058877341 0.035325389 0.02693831 12757674
-0.057400577 0.035422456 0.026482988 12626859
-0.055934642 0.035552211 0.025886096 11250089
-0.054470912 0.035693433 0.025239548 11250089
-0.053014442 0.035860714 0.024480162 12300207
-0.051558882 0.036037888 0.023677874 11250089
-0.050108775 0.036238618 0.022773528 12233386
-0.048662044 0.036458347 0.021786882 12691367
-0.047219109 0.036699638 0.020706801 12756903
-0.04577776 0.036957201 0.019556191 12822439
-0.044338778 0.037234634 0.018319426 12822953
-0.04289059 0.037496239 0.017151132 12757417
-0.041423827 0.037710011 0.016189847 12691881
-0.039947767 0.037903603 0.015315858 12757417
-0.038454577 0.038048372 0.014653255 12757417
-0.036950834 0.038163744 0.014117878 12757417
-0.035438675 0.038255118 0.013686417 12757417
-0.033913907 0.03830472 0.013435803 12691881
-0.032384548 0.03833992 0.013247553 12757417
-0.030846249 0.038342085 0.01320239 12757417
-0.029305249 0.038333777 0.01320257 12757160
-0.027764264 0.038325459 0.013202811 12364715
-0.026223296 0.03831714 0.01320305 10987174
-0.024682349 0.038308844 0.013203172 10197915
-0.02314141 0.038300525 0.013203412 10197915
-0.021600489 0.038292218 0.013203593 10197915
-0.020059578 0.038283881 0.01320389 10395294
-0.018524274 0.038304739 0.013077706 11512747
-0.016999165 0.038383354 0.012701297 10197915
-0.015599336 0.03917956 0.009215435 11315625
-0.014051155 0.039168753 0.009226324 12429994
-0.012502785 0.039156456 0.0092436215 12495016
-0.010954513 0.039144296 0.0092603387 12429480
-0.0094068367 0.039135713 0.0092615495 11774891
-0.0078591788 0.039127126 0.0092628216 10658466
-0.0063238605 0.039212372 0.0088573508 10197915
-0.084492669 0.033655722 0.028059624 10197915
-0.082978219 0.03364851 0.028055683 10197915
-0.081463762 0.033641279 0.028051797 10197915
-0.079949312 0.033634055 0.028047914 10197915
-0.078434862 0.033626843 0.028043972 10329501
-0.076920405 0.033619612 0.028040087 10724002
-0.075405963 0.0336124 0.028036144 10987174
-0.073891513 0.03360517 0.028032258 10263708
-0.072377063 0.033597946 0.028028375 13537938
-0.070862621 0.033590734 0.028024433 10658466
-0.069348171 0.033583503 0.028020548 10197915
-0.067833722 0.03357628 0.028016664 10197915
-0.066319287 0.033569064 0.028012719 10197915
-0.064804837 0.033561841 0.028008835 11644076
-0.063295171 0.033565994 0.027955331 12889003
-0.061786819 0.033573769 0.027886024 12888232
-0.060298901 0.03363261 0.027593968 12888232
-0.058817428 0.033710208 0.027220106 12888232
-0.057339132 0.033799276 0.026796209 12757674
-0.055869333 0.033914384 0.026258657 11512747
-0.054407038 0.034054488 0.025612062 11513004
-0.052952927 0.034222953 0.024841664 12824495
-0.051500808 0.034404393 0.024014641 11513004
-0.050052874 0.034605823 0.023100315 12495787
-0.048610758 0.034833316 0.022072213 12887975
-0.047169801 0.035074804 0.02098299 13408408
-0.045731526 0.035335865 0.019808272 13278621
-0.044294294 0.035612799 0.018564207 12887975
-0.042848777 0.035876997 0.017375587 12888232
-0.041387428 0.03610291 0.016353965 12887975
-0.039911643 0.036292281 0.015491704 12887975
-0.038422897 0.036447331 0.014779127 12887975
-0.036921609 0.03656682 0.014221719 12887975
-0.035411764 0.036662247 0.013769272 12887975
-0.033890795 0.036722004 0.013472462 12887975
-0.032361936 0.036755424 0.013290591 12888232
-0.030826835 0.036766604 0.01320575 12888232
-0.029286882 0.036759205 0.01320203 13149091
-0.027746722 0.036750909 0.013202216 13278621
-0.026206572 0.036742602 0.01320246 12168364
-0.024666442 0.036734316 0.013202587 11052967
-0.023126325 0.03672602 0.013202772 11052967
-0.021586223 0.036717724 0.013202959 11052967
-0.020046137 0.036709417 0.013203203 10921381
-0.018506072 0.03670115 0.013203274 10197915
-0.016976193 0.036747787 0.012963598 10197915
-0.015463323 0.036894735 0.012285891 10987174
-0.014041125 0.037588347 0.009220968 12495530
-0.012493793 0.037577458 0.0092323339 13472659
-0.01094646 0.037566215 0.0092452131 13730948
-0.0093990378 0.037553966 0.0092625273 12362402
-0.0078516919 0.037541725 0.0092797829 10921381
-0.0063063176 0.037543826 0.0092344023 10197915
-0.0047803954 0.037703026 0.0085028261 10790052
0.01466033 0.012047643 0.120181 11118503
0.01601151 0.012156782 0.11967237 11578283
-0.084438026 0.032095846 0.028115576 10197915
-0.082924083 0.032087881 0.028114963 10197915
-0.081410147 0.032079913 0.028114347 10197915
-0.079896241 0.032071952 0.028113734 10197915
-0.078382336 0.032063983 0.028113117 10592673
-0.076868474 0.032056104 0.028112154 11972013
-0.075354688 0.032048319 0.028110722 13084840
-0.073840901 0.032040525 0.028109347 10329501
-0.07232713 0.032032762 0.028107859 13538966
-0.070813373 0.03202498 0.028106427 10592673
-0.069299616 0.032017201 0.028104996 10197915
-0.067785874 0.032009408 0.028103624 10197915
-0.06627214 0.032001633 0.028102193 10197915
-0.06475842 0.031993851 0.028100761 10329501
-0.063247971 0.03199381 0.028065316 10395294
-0.061740115 0.032000273 0.028001286 10395294
-0.060240131 0.032026555 0.027850151 10395294
-0.058760777 0.032105714 0.027466586 10395294
-0.057283502 0.03219353 0.027044917 10395294
-0.055809826 0.032294441 0.026565662 10329501
-0.054344777 0.032422621 0.02596651 10329501
-0.052891523 0.032588288 0.025202474 10461087
-0.051443595 0.032775968 0.024341645 10329501
-0.04999727 0.03297653 0.023424096 10395294
-0.048560295 0.033213194 0.022347728 10395294
-0.047120567 0.033452697 0.021258807 12561580
-0.045686025 0.03371916 0.020051263 11906477
-0.044249889 0.033993583 0.018808583 10395294
-0.042807143 0.034260664 0.017598098 10395294
-0.041351084 0.034498114 0.016517825 10395294
-0.039875578 0.034683309 0.015667247 10395294
-0.038391259 0.034848455 0.01490482 10460830
-0.036891773 0.034969702 0.014335393 10460830
-0.035384897 0.035071395 0.013851902 10461087
-0.033867709 0.035141103 0.013509081 10461087
-0.032339353 0.035172757 0.013333591 10395294
-0.030807275 0.035192169 0.013211954 10395294
-0.029268537 0.035186324 0.013201409 11381418
-0.027729193 0.035178028 0.013201658 13149605
-0.026189862 0.035169728 0.013201906 13604759
-0.02465055 0.035161462 0.01320204 13539994
-0.023111254 0.035153177 0.01320223 13540251
-0.021571968 0.035144892 0.01320242 13540508
-0.020032702 0.035136607 0.01320261 12954025
-0.018493449 0.03512831 0.01320286 10197915
-0.016954239 0.035120159 0.013202467 10329501
-0.015429376 0.035192095 0.012849646 13409950
-0.013944259 0.035502944 0.01144536 10658466
-0.012484605 0.035998862 0.0092264982 13017762
-0.010938108 0.035987798 0.0092387469 13731205
-0.0093917558 0.035977326 0.0092484318 12362402
-0.0078452583 0.035965476 0.0092641236 10855588
-0.0062987842 0.03595328 0.0092813922 10197915
-0.0047608642 0.036008563 0.0090015959 10855588
0.01460726 0.01210163 0.11385149 12822696
0.015968639 0.012211581 0.11333508 12366257
-0.084388323 0.030546987 0.028130936 12037549
-0.082875133 0.030538874 0.028131025 12364972
-0.081361942 0.030530749 0.028131174 12364972
-0.079848781 0.030522633 0.028131263 12364972
-0.078335628 0.030514508 0.028131412 12495787
-0.076822482 0.030506384 0.028131561 12627116
-0.075309373 0.030498281 0.028131591 11447211
-0.073796265 0.030490156 0.02813174 10263708
-0.072283171 0.030482024 0.028131887 11643819
-0.070770092 0.030473899 0.028132036 12234157
-0.069257036 0.030465785 0.028132126 12299693
-0.067743987 0.030457672 0.028132215 12365229
-0.066230953 0.030449547 0.028132366 10855588
-0.064717934 0.030441433 0.028132455 11513004
-0.063207015 0.030438205 0.028110888 11841455
-0.061701536 0.030448152 0.028031012 10724259
-0.060196649 0.030460158 0.027941966 10197915
-0.058704216 0.030503811 0.02771271 10197915
-0.057227969 0.030590406 0.027293216 10197915
-0.055754345 0.030687483 0.026827255 10197915
-0.05428306 0.030794926 0.02631535 10197915
-0.052832052 0.030961575 0.02554105 10197915
-0.051386651 0.031150945 0.02466605 10197915
-0.049945023 0.0313593 0.023706805 10197915
-0.048509993 0.031596027 0.022621816 10197915
-0.047072638 0.031836905 0.021518311 11118503
-0.045640588 0.032105047 0.020293901 10789795
-0.044205546 0.032376971 0.019052608 10197915
-0.042765595 0.032646906 0.01782006 10197915
-0.041314289 0.032893993 0.016688667 10197915
-0.039840296 0.033079106 0.015831864 10197915
-0.038359672 0.033251762 0.015030215 10197915
-0.036861975 0.033374682 0.01444893 10197915
-0.035357162 0.033479322 0.013948668 10197915
-0.033844654 0.033562008 0.013545656 10197915
-0.032316789 0.033591926 0.013376558 10197915
-0.03078666 0.033615232 0.013236765 10197915
-0.02925021 0.033615101 0.013200884 10658466
-0.02771168 0.033606824 0.013201078 11381418
-0.026173171 0.03359855 0.013201273 11643819
-0.024634678 0.033590287 0.013201409 11644076
-0.023096196 0.033582002 0.013201662 11644076
-0.021557735 0.033573747 0.0132018 11644076
-0.020019284 0.033565469 0.013201995 11381418
-0.018480847 0.033557184 0.013202249 10197915
-0.01694243 0.03354891 0.013202444 10329501
-0.015406686 0.033555392 0.013137194 11578540
-0.013883624 0.03363651 0.012740928 10329501
-0.012434679 0.034175001 0.01031592 13083812
-0.010929772 0.034411088 0.0092320805 13732747
-0.0093841478 0.034400083 0.009244225 13080728
-0.0078386003 0.034389224 0.0092557278 12495273
-0.0062931511 0.034378696 0.0092657711 12364972
-0.0047513265 0.034396395 0.0091505842 12234157
-0.0032439341 0.034706809 0.0077367355 11840941
0.01455338 0.012156445 0.10742542 13020075
0.015925115 0.012267197 0.10690118 11710126
-0.084340602 0.029003408 0.028130336 12495787
-0.082828216 0.028995315 0.028130371 12888232
-0.081315838 0.028987201 0.028130524 12888232
-0.079803467 0.028979085 0.028130678 13084069
-0.078291118 0.028970983 0.028130772 13474972
-0.076778784 0.028962862 0.028130922 13150633
-0.075266466 0.028954759 0.028131017 10921381
-0.073754162 0.028946644 0.02813117 10197915
-0.072241873 0.028938541 0.028131265 10263708
-0.070729606 0.028930439 0.02813136 12823210
-0.069217339 0.028922325 0.028131513 12953768
-0.067705095 0.028914222 0.028131608 12888232
-0.066192865 0.028906109 0.028131763 10855588
-0.064680643 0.028897988 0.028131913 11972527
-0.063168459 0.028889915 0.028131893 12235185
-0.061663002 0.028897757 0.028060794 10790052
-0.060158636 0.028908834 0.027975271 10197915
-0.058661953 0.028939523 0.027802138 10197915
-0.057176173 0.02899907 0.027500169 10329501
-0.055703878 0.029095799 0.027032154 10724002
-0.054230019 0.029192645 0.026563549 11052710
-0.052779872 0.029357014 0.0257934 11052710
-0.051331688 0.029533951 0.024967058 11052710
-0.049893662 0.029747047 0.023979159 10329501
-0.048459776 0.029981587 0.022895409 10197915
-0.04702539 0.030225523 0.021769594 10197915
-0.045595217 0.03049352 0.020536246 10197915
-0.044161279 0.030762982 0.019296227 10197915
-0.042723309 0.031033194 0.018052749 10197915
-0.041273758 0.031280112 0.016913224 10197915
-0.039805081 0.031477273 0.015995929 10197915
-0.038328115 0.031657182 0.015155603 10197915
-0.036832221 0.031781781 0.014562273 10197915
-0.035328384 0.03188546 0.014062392 10197915
-0.03382137 0.031983804 0.013586338 10197915
-0.032294262 0.032012958 0.013419375 10197915
-0.03076501 0.032035988 0.013279744 10197915
-0.029231898 0.032045543 0.013200333 10197915
-0.027694192 0.032037292 0.013200474 10197915
-0.0261565 0.032029029 0.013200673 10197915
-0.024618825 0.032020781 0.013200816 10197915
-0.023081159 0.032012518 0.013201015 10197915
-0.021543512 0.032004274 0.013201158 10461087
-0.020005878 0.031995993 0.013201413 10855588
-0.018468261 0.031987719 0.013201672 10197915
-0.016930655 0.031979442 0.01320193 10197915
-0.015393088 0.031971291 0.013201664 10197915
-0.013862465 0.032002967 0.013023298 10197915
-0.01234014 0.032088157 0.012605737 12562094
-0.01092142 0.032835864 0.0092261443 12887975
-0.0093766134 0.032824945 0.0092380662 12887718
-0.0078318715 0.032814078 0.0092497552 12887975
-0.0062871678 0.032803088 0.0092619676 12888232
-0.0047425907 0.032792646 0.0092717893 12365229
-0.0032127399 0.032904655 0.0087339794 10855845
0.014498675 0.01221204 0.1009009 12300464
0.01588092 0.01232368 0.10036828 10855588
-0.084292926 0.027461467 0.028129702 10395294
-0.082781337 0.027453374 0.028129801 10395294
-0.081269756 0.027445272 0.028129959 10395294
-0.079758197 0.027437178 0.028130058 11052967
-0.078246653 0.027429087 0.028130157 12823467
-0.076735124 0.027420994 0.028130256 13670038
-0.075223602 0.027412891 0.028130414 12889774
-0.073712111 0.027404798 0.028130513 10197915
-0.072200626 0.027396688 0.028130669 10197915
-0.070689149 0.027388586 0.028130826 10395294
-0.069177702 0.027380504 0.028130867 10461087
-0.067666262 0.027372412 0.028130965 10395294
-0.066154815 0.027364288 0.028131241 10263708
-0.064643413 0.027356207 0.028131282 10329501
-0.063132025 0.027348138 0.028131263 10329501
-0.061624508 0.02734915 0.028090401 10263708
-0.060120948 0.027359962 0.028005419 10197915
-0.058621023 0.027380345 0.027877372 10197915
-0.057134651 0.027435595 0.027592428 10592673
-0.055659588 0.027522078 0.027166825 12300207
-0.054186717 0.027618015 0.026698679 13539737
-0.052729864 0.027760612 0.026020452 13539480
-0.051282708 0.027935719 0.025195839 13542307
-0.049842391 0.028137514 0.024251012 10526880
-0.048409645 0.028369864 0.023168562 10197915
-0.046978824 0.028618513 0.022012644 10197915
-0.045549914 0.028884541 0.020778412 10197915
-0.044117086 0.029151587 0.019539494 10197915
-0.042680215 0.029419335 0.018297289 10197915
-0.041233417 0.029669167 0.017135659 10197915
-0.039769918 0.029877711 0.016159851 10197915
-0.038294647 0.030058216 0.0153102 10197915
-0.036802504 0.030190978 0.014675479 10197915
-0.03529964 0.03029369 0.014176038 10197915
-0.0337951 0.030396527 0.013676009 10197915
-0.032271754 0.030435782 0.013462269 10197915
-0.030743385 0.03045857 0.013322686 10197915
-0.029213615 0.030477667 0.013199699 10197915
-0.02767672 0.030469423 0.013199905 10197915
-0.02613984 0.03046117 0.013200109 10197915
-0.024602985 0.030452946 0.013200196 10197915
-0.023066139 0.030444695 0.0132004 10197915
-0.021529304 0.030436441 0.013200604 11381418
-0.019992489 0.030428188 0.013200808 12626859
-0.018455688 0.030419944 0.013201014 10197915
-0.016918898 0.030411679 0.013201277 10197915
-0.015382123 0.030403417 0.01320154 10197915
-0.013845402 0.030395361 0.013200868 10197915
-0.012319504 0.030451829 0.012909442 10395294
-0.010812494 0.030632725 0.012057249 10395294
-0.0093690865 0.031251449 0.0092319362 10395294
-0.0078251483 0.031240573 0.0092438115 10395294
-0.0062812646 0.031229688 0.0092557454 10395294
-0.0047374363 0.031218793 0.0092676766 10395037
-0.0031936781 0.031208023 0.0092790844 10263708
-0.0016576916 0.031265557 0.0089826044 10197915
-0.00012490606 0.031363115 0.0085057011 10197915
0.014443123 0.012268491 0.094275311 10329501
0.015836041 0.012381026 0.093734212 10263708
-0.084245302 0.025921162 0.028129097 10197915
-0.082734518 0.02591308 0.0281292 10197915
-0.081223734 0.025904987 0.028129362 10197915
-0.079712987 0.025896918 0.028129406 10526880
-0.07820224 0.025888825 0.028129568 11250089
-0.076691508 0.025880743 0.028129673 11643819
-0.075180791 0.025872644 0.028129833 11315882
-0.073670097 0.025864562 0.028129935 10197915
-0.07215941 0.025856482 0.02813004 10197915
-0.070648745 0.0258484 0.028130142 10197915
-0.069138087 0.025840309 0.028130306 10197915
-0.067627437 0.025832204 0.028130528 10197915
-0.066116817 0.025824135 0.028130572 10197915
-0.064606212 0.025816066 0.028130617 10197915
-0.063095629 0.025807997 0.028130662 10197915
-0.06158606 0.025802277 0.028120067 10658466
-0.060083311 0.025812855 0.028035512 11381418
-0.058580924 0.025824998 0.027943883 11118760
-0.057094209 0.025876667 0.027672941 11578540
-0.055617478 0.025955852 0.02727711 12037549
-0.054143477 0.026045563 0.02683351 12888489
-0.052684229 0.026177993 0.026196029 13731976
-0.05123388 0.0263402 0.025423428 13734032
-0.049795993 0.026543811 0.024462845 12496044
-0.048359599 0.026760863 0.023441214 12364972
-0.046932492 0.027014572 0.022253176 12365229
-0.045504671 0.027278161 0.021020163 12365229
-0.044072933 0.027542729 0.019782638 12365229
-0.042637181 0.027808044 0.018541591 12365229
-0.041196276 0.028070597 0.017312989 11446954
-0.039739247 0.028294781 0.016258435 10921381
-0.038267076 0.028480882 0.015376648 12300207
-0.03678203 0.028633529 0.01464664 12299693
-0.035283092 0.028746458 0.014096889 12299693
-0.033778057 0.028844254 0.013615776 12299693
-0.032263737 0.028913861 0.013262591 12364972
-0.030738346 0.028945945 0.013079729 11446954
-0.029208435 0.028962748 0.012966209 10395294
-0.027670803 0.028949864 0.012987527 10855845
-0.026133163 0.028936557 0.013010712 11972270
-0.024595618 0.028923267 0.013033842 12365486
-0.023058243 0.028910315 0.013055451 11315882
-0.021520982 0.028897464 0.013076592 11578026
-0.01998179 0.028874917 0.013141763 13344157
-0.018443123 0.028853808 0.013200447 12299950
-0.016907152 0.028845554 0.013200714 12365229
-0.015371193 0.028837303 0.013200982 12168621
-0.013835264 0.028829135 0.013200839 10263708
-0.012302534 0.02883981 0.013115151 12234671
-0.010785501 0.028949743 0.012578566 11513004
-0.0093615763 0.029679667 0.0092255455 10395294
-0.0078184502 0.029668845 0.0092373136 10855588
-0.0062753786 0.029658014 0.0092491405 11381418
-0.0047323289 0.029646933 0.0092620775 10658209
-0.0031893349 0.029635819 0.0092751924 10197915
-0.0016464044 0.029624728 0.009288189 10197915
-0.00010353157 0.029613627 0.0093012443 10197915
0.0014370196 0.029625548 0.009209686 10197915
0.0029753258 0.029665694 0.0089898882 10197915
0.0045098499 0.029760713 0.0085206823 10197915
0.014386703 0.012325815 0.087546363 10197915
0.015797049 0.012199432 0.088086747 10197915
-0.084197722 0.024382485 0.028128516 11052710
-0.082687743 0.024374427 0.028128564 10724259
-0.081177764 0.024366338 0.028128728 10395037
-0.079667814 0.024358286 0.028128779 10197915
-0.078157865 0.024350196 0.028128944 10395037
-0.076647937 0.024342125 0.028129052 10724259
-0.075138025 0.024334045 0.028129218 9539728
-0.073628128 0.024325974 0.028129326 9802900
-0.072118253 0.024317903 0.028129434 10987174
-0.070608377 0.024309821 0.028129602 10987174
-0.06909851 0.024301711 0.028129885 10987174
-0.067588679 0.02429367 0.028129876 10987174
-0.066078857 0.024285601 0.028129984 10987174
-0.064569063 0.024277553 0.028129974 10592416
-0.063059278 0.024269506 0.028129965 10263708
-0.061549515 0.024261465 0.028129958 10855588
-0.060045712 0.024267495 0.028065603 11906477
-0.058544166 0.02427947 0.027974047 11644333
-0.057053816 0.02431966 0.027753446 12168364
-0.055577993 0.024398118 0.02735782 11709355
-0.054100845 0.024476646 0.026961841 11972270
-0.052640647 0.024602886 0.0263476 13603474
-0.051185127 0.024747185 0.025650699 13732233
-0.049749494 0.024952089 0.024676569 12951455
-0.048326999 0.025202816 0.023492711 13603731
-0.046910003 0.025480732 0.022184417 13475743
-0.045479596 0.02573275 0.020994451 13345442
-0.044054378 0.026012387 0.01967806 13345442
-0.042632047 0.02631462 0.018258169 13345699
-0.041196015 0.02658934 0.016964041 12299693
-0.039750274 0.026847232 0.015746767 11972270
-0.038282111 0.027045252 0.014803381 13670809
-0.036799911 0.027206877 0.014026419 13541022
-0.035304014 0.027330298 0.013424254 13345185
-0.03379833 0.027426235 0.012947801 13410721
-0.032274168 0.027460445 0.012753788 13539737
-0.030741673 0.027465668 0.012692396 12561323
-0.029205529 0.027457474 0.012692431 11184296
-0.027669402 0.027449291 0.012692408 11710126
-0.026133286 0.027441097 0.012692444 12889003
-0.02459719 0.02743292 0.012692423 13150119
-0.023061104 0.027424727 0.012692458 11644333
-0.021527698 0.027428774 0.012636447 11446954
-0.01999153 0.027420515 0.012636775 13082784
-0.018447049 0.027370963 0.012826128 13017762
-0.016905541 0.027333315 0.012961017 13149605
-0.015366483 0.027306253 0.013047466 12887718
-0.013828899 0.027285697 0.013104137 10329501
-0.012302392 0.027329024 0.012868282 12691367
-0.010792667 0.02748069 0.012136299 12300721
-0.0093540614 0.028109444 0.0092195319 11184296
-0.0078117023 0.028098373 0.0092325984 11840684
-0.0062694047 0.028087314 0.0092456061 12561066
-0.0047271652 0.02807625 0.0092586745 11512747
-0.0031849889 0.028065192 0.0092716822 10987174
-0.0016428703 0.028054133 0.009284691 10987174
-0.00010080936 0.028043061 0.0092977574 10987174
0.00144119 0.028032005 0.0093107661 11052710
0.002983128 0.028020954 0.0093237767 11052710
0.0045250091 0.028009884 0.0093368441 10987174
0.0060650646 0.028022286 0.0092423726 10987174
0.0076032076 0.028067727 0.0089965379 10987174
0.01013097 0.011462035 0.08503972 10987174
0.011541384 0.011460204 0.08501365 10987174
0.012951875 0.011458373 0.084987588 10987174
0.014362441 0.011456559 0.084961466 10987174
0.015773086 0.011454716 0.084935457 10987174
-0.08415021 0.022845455 0.028127838 13475486
-0.08264102 0.022837395 0.02812795 12496301
-0.081131846 0.022829322 0.028128121 10789795
-0.079622686 0.022821262 0.028128233 10197915
-0.078113548 0.022813203 0.028128345 7829367
-0.076604418 0.022805143 0.028128458 8092539
-0.075095311 0.022797083 0.02812857 8487297
-0.073586211 0.022789026 0.028128682 8487297
-0.072077118 0.022780936 0.028128911 11770265
-0.070568033 0.022772843 0.0281292 11769494
-0.069058985 0.022764795 0.028129254 11375507
-0.067549959 0.022756759 0.028129248 11440272
-0.066040941 0.022748711 0.028129302 11833488
-0.064531937 0.022740662 0.028129356 11644076
-0.063022956 0.022732634 0.028129352 10461087
-0.061513994 0.022724597 0.028129347 10263708
-0.060008161 0.022723887 0.028095571 10855588
-0.058507636 0.022736115 0.028002158 11381418
-0.05701774 0.022774994 0.027785894 12168364
-0.055530798 0.022823043 0.027527312 11381161
-0.054061931 0.02291912 0.027047254 10724259
-0.05261007 0.023063481 0.026344551 13086896
-0.051179122 0.023269469 0.025357625 13669524
-0.049745236 0.023476655 0.024365067 11249832
-0.04834437 0.023784313 0.022909125 13408408
-0.04692553 0.024055431 0.021621559 12497329
-0.045515984 0.024366127 0.020151367 12169906
-0.044116613 0.024721788 0.018473672 12169906
-0.042708978 0.02506992 0.016830551 12169906
-0.041280191 0.025370061 0.015408662 12825009
-0.039841209 0.025653342 0.014064431 13606044
-0.038375609 0.025864948 0.013050653 13539737
-0.036856811 0.025910249 0.012803984 12760244
-0.035328686 0.025926379 0.012691878 12235442
-0.033793297 0.025918134 0.012692211 12235442
-0.032257956 0.025910012 0.012691958 13019818
-0.030722592 0.025901766 0.01269229 13603731
-0.029187258 0.025893571 0.01269239 13475229
-0.027651947 0.025885399 0.012692371 13019561
-0.026116652 0.025877239 0.012692293 11644333
-0.024581371 0.025869066 0.012692275 11447468
-0.023046106 0.025860913 0.012692199 10658466
-0.021516206 0.025877154 0.012579501 10789795
-0.020054927 0.026219882 0.01096006 11250089
-0.018495336 0.026106602 0.011445053 11118760
-0.01694035 0.026008239 0.011861274 11381675
-0.015391236 0.025933459 0.012168681 11841712
-0.013848 0.025885439 0.01235258 10263708
-0.012316626 0.025902806 0.012234669 11052967
-0.010819154 0.026129873 0.01114868 12627116
-0.0093464684 0.026540307 0.0092161242 13410978
-0.0078049237 0.026529297 0.0092290863 13604502
-0.0062634381 0.02651827 0.0092421044 13603474
-0.0047220103 0.026507232 0.0092551829 13540508
-0.0031806442 0.026496205 0.0092682019 13475743
-0.0016393376 0.026485179 0.0092812208 13475743
-9.8090553e-05 0.026474159 0.0092942426 13475743
0.0014430968 0.026463134 0.0093072625 13475229
0.0029842267 0.026452096 0.0093203411 13475229
0.0045252927 0.026441082 0.0093333023 13475743
0.0060663023 0.026430046 0.0093463818 13475486
0.0076072505 0.026419029 0.0093594035 13475229
0.0101289 0.010028129 0.085028656 13475486
0.011538585 0.010026265 0.085002586 13475743
0.012948345 0.010024402 0.084976509 13475743
0.014358184 0.010022538 0.084950432 13475486
0.0157681 0.010020674 0.084924355 13475486
-0.084102727 0.021310039 0.028127244 12824238
-0.082594335 0.021301979 0.028127419 12038063
-0.081085965 0.021293923 0.028127534 10592673
-0.079577617 0.021285892 0.028127594 6645093
-0.07806927 0.021277843 0.028127709 9210506
-0.076560944 0.021269795 0.028127827 10590874
-0.075052626 0.021261727 0.028128 10525338
-0.073544316 0.021253657 0.028128235 8684676
-0.072036013 0.021245567 0.028128527 9736850
-0.070527755 0.021237548 0.028128529 9342349
-0.069019511 0.021229511 0.028128587 9013641
-0.067511275 0.021221474 0.028128644 8684676
-0.066003062 0.021213448 0.028128644 8487297
-0.064494863 0.021205412 0.028128702 8421504
-0.062986687 0.021197394 0.028128704 8421247
-0.061478484 0.021189304 0.028128995 9474192
-0.059973057 0.02118763 0.028099481 8815748
-0.05848432 0.021225758 0.027884981 9342349
-0.056994863 0.021263914 0.027670363 11709869
-0.055536624 0.021380838 0.027089572 10987174
-0.054082319 0.02151267 0.026439441 10395294
-0.052642256 0.021686789 0.025592659 11447211
-0.051242393 0.021973921 0.02422047 12234414
-0.049845021 0.022280367 0.02275838 10526880
-0.048476182 0.022678645 0.020869192 12627887
-0.047056403 0.022952585 0.019557983 11118760
-0.045805886 0.0237239 0.015934065 10855845
-0.044444736 0.024207687 0.013646777 10855845
-0.043079555 0.024703 0.011305708 10855845
-0.041752066 0.025338942 0.0083104791 11841455
-0.040279724 0.025550861 0.0072868345 12890031
-0.038388103 0.024418442 0.012514959 12431279
-0.036841828 0.024372492 0.012690691 11118760
-0.035307214 0.024364192 0.012691321 10855845
-0.033772625 0.024355933 0.012691776 10987174
-0.032238118 0.024347886 0.012691235 12365229
-0.030703589 0.024339737 0.012691162 13279135
-0.029169071 0.024331564 0.012691206 12889517
-0.027634531 0.024323244 0.012691954 12169135
-0.026100032 0.024315029 0.012692174 10855588
-0.024565572 0.024306891 0.012692042 10526880
-0.023031117 0.024298737 0.01269203 10329501
-0.02150845 0.024343858 0.012444107 10329501
-0.020341121 0.026061237 0.004415364 10526880
-0.018765926 0.025923759 0.0050167264 10526880
-0.017044086 0.025031026 0.0091325445 10592673
-0.015502979 0.025019776 0.0091467444 10724259
-0.01393606 0.024865476 0.009826676 10263708
-0.012405883 0.024910074 0.0095810182 10526880
-0.010880052 0.024986099 0.0091890553 11709869
-0.0093392013 0.02497487 0.0092031993 12759216
-0.0077984356 0.024963776 0.0092166997 12889517
-0.0062577594 0.024952866 0.0092293192 12889517
-0.0047171386 0.024941964 0.0092419405 12889774
-0.0031765797 0.024931073 0.009254504 12890031
-0.0016360765 0.024920175 0.0092670647 12890031
-9.563291e-05 0.024909286 0.0092796274 13020589
0.0014447529 0.024898395 0.0092921909 13477028
0.0029850809 0.024887506 0.0093047544 13540508
0.0045253513 0.024876598 0.0093173757 12824495
0.0060655624 0.024865709 0.0093299393 12889517
0.0076057161 0.02485482 0.0093425037 13734546
0.010126833 0.0085957032 0.085017636 12954796
0.011535789 0.0085938089 0.084991552 12889774
0.012944821 0.0085919136 0.084965467 12889774
0.014353931 0.0085899998 0.084939443 13476000
0.015763117 0.0085881036 0.084913358 13733261
0.017337866 0.00038512546 0.12308516 13539737
-0.084055297 0.019776238 0.02812667 10723745
-0.082547709 0.019768201 0.028126791 10526366
-0.081040144 0.019760173 0.028126853 7500402
-0.079532586 0.019752124 0.028127033 9539728
-0.07802505 0.019744098 0.028127095 11705757
-0.076517515 0.019736059 0.028127216 12947600
-0.075009987 0.019727988 0.028127514 11050654
-0.073502466 0.01971991 0.02812781 8553090
-0.07199499 0.019711884 0.028127873 8553090
-0.070487522 0.019703858 0.028127935 8487297
-0.068980075 0.019695831 0.028127998 8487297
-0.067472644 0.019687822 0.028128004 8487297
-0.065965235 0.019679807 0.028128007 8487297
-0.064457826 0.019671783 0.028128071 8487297
-0.062959746 0.019684494 0.028030993 9802386
-0.061470527 0.019718029 0.027836306 11835801
-0.059980653 0.019751579 0.027641559 11312798
-0.058488145 0.019780459 0.027468663 9210763
-0.057042122 0.019922297 0.026766406 8618626
-0.055593796 0.020064389 0.026062911 9473678
-0.054216325 0.020389378 0.024502173 9605007
-0.052891158 0.020861326 0.022252571 8420733
-0.051549491 0.021310458 0.020109698 10789795
-0.050078422 0.021435317 0.019486545 10197915
-0.048573192 0.02147321 0.019271011 11315882
-0.047608793 0.023014737 0.012007049 10395294
-0.046268731 0.023560354 0.0094110537 10197915
-0.044903271 0.024058124 0.0070391484 10197915
-0.043520167 0.02452766 0.0047994065 10197915
-0.042177115 0.025142854 0.0018765659 10855588
-0.040800061 0.025683183 -0.00069550384 11447468
-0.038486805 0.023248296 0.010682405 10987174
-0.036853988 0.022925328 0.01215848 10197915
-0.035304073 0.022865621 0.012400228 10197915
-0.033769388 0.022855954 0.012407306 10395294
-0.032234702 0.022846127 0.012415146 11906477
-0.030700041 0.022836255 0.012423222 12430765
-0.029165419 0.022826364 0.012431355 11513004
-0.027619997 0.022773962 0.01263889 11184553
-0.026083512 0.022754792 0.012690561 10987174
-0.024549801 0.022746429 0.012691547 10921381
-0.023016144 0.022738222 0.012691832 10921381
-0.021508018 0.02284454 0.012154843 10921381
-0.020639878 0.025940603 -0.0024077189 10921381
-0.019090977 0.025984399 -0.0026520926 10921381
-0.017033562 0.023470577 0.0091029378 10987174
-0.015493523 0.023460947 0.0091097075 10921638
-0.013953233 0.023449747 0.0091238627 10789795
-0.012413011 0.02343856 0.0091379583 10395294
-0.010872851 0.02342736 0.0091521135 11118760
-0.0093327528 0.023416162 0.0091662686 11644590
-0.0077927238 0.023404986 0.0091803065 11513261
-0.0062527522 0.023393789 0.0091944616 11447468
-0.0047128457 0.023382602 0.0092085591 11447468
-0.003173003 0.023371406 0.0092227152 11447468
-0.0016332234 0.023360219 0.0092368117 11447468
-9.3506977e-05 0.023349022 0.0092509687 11644590
0.0014461479 0.023337819 0.0092651229 12759216
0.0029857354 0.023326652 0.0092791636 12954282
0.0045245807 0.023323454 0.0092557557 11381675
0.006063161 0.023324542 0.009212249 11578797
0.0076018791 0.023325618 0.0091688009 13344928
0.010124766 0.0071647586 0.085006595 11513004
0.011532995 0.0071628317 0.084980503 11447211
0.0129413 0.0071609044 0.084954403 11447468
0.014349681 0.0071589584 0.084928371 12758702
0.01575814 0.0071570193 0.084902331 13343386
0.017316338 -0.00018939725 0.11936648 12953768
-0.084007941 0.01824409 0.028126001 10520712
-0.082501143 0.01823605 0.028126186 7103331
-0.080994368 0.018228035 0.028126253 7105644
-0.079487607 0.018220007 0.028126378 9408142
-0.077980854 0.018211963 0.02812656 10984861
-0.0764741 0.018203901 0.028126864 11181983
-0.074967369 0.018195834 0.028127164 9473935
-0.073460676 0.018187819 0.028127231 8553090
-0.071953997 0.018179821 0.028127242 8553090
-0.070447333 0.018171806 0.028127309 8553090
-0.068940684 0.018163802 0.028127316 8487297
-0.06743405 0.018155785 0.028127383 8750469
-0.065938838 0.018172117 0.02801244 8487297
-0.064450815 0.018204877 0.027819881 8618883
-0.062962152 0.018237663 0.027627207 10327959
-0.061480902 0.018288596 0.027348768 12358033
-0.060048908 0.018454587 0.02652668 11901337
-0.058631647 0.018661583 0.025510786 11246491
-0.057289999 0.019056905 0.023604956 10722203
-0.055998094 0.019588923 0.021053044 10525595
-0.054601759 0.019883992 0.019620603 11313312
-0.053105574 0.019939091 0.019322071 10131351
-0.051588207 0.019942107 0.01926963 8355711
-0.050066426 0.019933905 0.019270182 7763574
-0.049418028 0.02227892 0.0081488537 8947848
-0.048078366 0.0228251 0.0055286763 7631988
-0.046730716 0.023374187 0.002894521 9079177
-0.04536688 0.023902697 0.0003574224 10197915
-0.043974649 0.024373133 -0.0019054022 10197915
-0.042597182 0.024911769 -0.0044907951 10263708
-0.041249286 0.025569754 -0.0076406486 10395037
-0.038451981 0.021648558 0.010858233 10329501
-0.036840413 0.021393856 0.012023856 10197915
-0.035293143 0.021341497 0.012232904 10197915
-0.033753354 0.021312423 0.012331856 10329501
-0.032218445 0.021299426 0.012354832 11250089
-0.030684186 0.021288432 0.012368309 11250089
-0.029150279 0.021278566 0.012376451 10395294
-0.027616423 0.021268712 0.012384535 11578797
-0.026082594 0.021258814 0.012392854 13151147
-0.024561394 0.021301161 0.012154059 13411492
-0.023072602 0.021486266 0.011240052 13411492
-0.021623868 0.021863731 0.0094160745 13411492
-0.020880021 0.025527721 -0.0079538142 13411492
-0.017353706 0.023564257 0.0012556922 13477028
-0.015427015 0.021606337 0.010479167 13411235
-0.013877334 0.021526786 0.010816913 12887461
-0.012339866 0.021510048 0.010857531 10921381
-0.010802566 0.021493407 0.010897678 11906220
-0.009265421 0.021476777 0.010937768 11775148
-0.0077284304 0.021460149 0.010977858 10592673
-0.0061915927 0.021443522 0.011017948 10395294
-0.0046549058 0.021426884 0.011058098 10395294
-0.0031183735 0.02141027 0.01109813 10395037
-0.0015819938 0.021393653 0.011138224 10395294
-4.5768735e-05 0.021377027 0.011178316 10395294
0.0014903054 0.021360405 0.011218408 11052967
0.0030261839 0.021344239 0.011256332 11710126
0.0045616478 0.021331199 0.011279481 10329501
0.0060970192 0.021318128 0.011302746 10592416
0.0076322951 0.021305077 0.011325954 12104113
0.010059781 0.0067600352 0.08014439 10395294
0.011530204 0.0057333298 0.084969483 10395037
0.012937782 0.0057313521 0.084943436 10395037
0.014345436 0.0057293926 0.084917337 10987174
0.015753169 0.0057274033 0.084891342 11972527
0.017294627 -0.00076884514 0.11561622 11775662
-0.083960608 0.016713535 0.028125411 12294039
-0.082454614 0.01670552 0.028125539 9471879
-0.080948636 0.016697504 0.02812567 8618883
-0.079442665 0.016689476 0.02812586 8553090
-0.077936694 0.016681425 0.028126167 9605521
-0.076430745 0.016673381 0.028126413 10065815
-0.074924819 0.016665353 0.028126603 9736850
-0.07341893 0.01665736 0.028126614 9868436
-0.071913049 0.016649365 0.028126627 10262423
-0.070411265 0.016649593 0.028087523 10590874
-0.068914391 0.016660096 0.027999442 10984604
-0.067428775 0.016694624 0.027796937 10131094
-0.065952688 0.016750768 0.027491439 8487297
-0.064494833 0.016848411 0.026988227 8816262
-0.063050121 0.016978623 0.026329819 10131094
-0.061670486 0.017259166 0.024955217 12031124
-0.060387466 0.017770186 0.02248247 12879494
-0.059098851 0.018287931 0.019977501 12685456
-0.057599586 0.018328348 0.019746503 10722203
-0.056084279 0.018332012 0.01969064 10328730
-0.05460009 0.01841256 0.019268373 10919325
-0.053079106 0.018404461 0.01926852 9276556
-0.051558092 0.018396225 0.019269314 8487297
-0.050278053 0.019018313 0.01626629 8487297
-0.049902227 0.02208508 0.0016122743 8421504
-0.048554659 0.022633817 -0.0010422232 9671057
-0.047199186 0.023185974 -0.0037132269 12294553
-0.045833137 0.023734134 -0.0063654287 12355977
-0.044436786 0.024220232 -0.0087220352 11175815
-0.04304184 0.024734851 -0.011214802 10388098
-0.04167936 0.025375785 -0.014309924 10197915
-0.038539331 0.02043682 0.0091951881 10197915
-0.036886338 0.020056425 0.010969806 10197915
-0.035327353 0.019968744 0.01134901 10197915
-0.033783853 0.019929573 0.011496933 10263708
-0.032240883 0.019890413 0.01164486 10526880
-0.030697916 0.019849373 0.011801763 10526880
-0.029152729 0.019797947 0.012008172 10197915
-0.027614141 0.019769186 0.012106537 11315882
-0.026076471 0.019742662 0.012194226 12693423
-0.024553183 0.019774089 0.01200558 12889774
-0.023067158 0.019967098 0.011046276 12889774
-0.021975841 0.02191852 0.0017001193 12889774
-0.016969629 0.020141536 0.010058829 12824238
-0.015388508 0.019902673 0.01115939 12824238
-0.013847472 0.01985966 0.011325743 12431279
-0.012312696 0.019848671 0.011339346 10790052
-0.010777975 0.019837651 0.011353064 12953511
-0.0092433225 0.019826662 0.011366667 11906477
-0.0077087274 0.019815661 0.01138033 10395294
-0.0061741974 0.019804671 0.011393933 10197915
-0.0046397266 0.019793671 0.011407596 10197915
-0.0031053156 0.019782664 0.011421256 10197915
-0.0015709699 0.019771677 0.011434861 10197915
-3.6685698e-05 0.019760689 0.011448464 10197915
0.0014975391 0.01974969 0.011462128 10461087
0.0030317004 0.019738702 0.011475732 10658209
0.0045658024 0.019727703 0.011489395 10197915
0.0060997708 0.019717595 0.011498774 10329501
0.0076334998 0.019710258 0.011494956 10790052
0.0099879 0.0064507895 0.074752279 10197915
0.011527417 0.0043052966 0.084958501 10197915
0.012934268 0.0043032868 0.084932446 10197915
0.014341197 0.004301277 0.084906392 10461087
0.015748203 0.0042992625 0.084880397 10789795
0.017272728 -0.0013532408 0.11183374 10658466
-0.083913334 0.015184605 0.028124841 8814463
-0.082408138 0.01517661 0.028124917 8158075
-0.080902942 0.015168582 0.028125169 8421504
-0.079397753 0.015160535 0.028125478 8750469
-0.077892587 0.015152508 0.028125731 10328473
-0.076387435 0.015144492 0.028125925 12098716
-0.074882329 0.015136508 0.028125942 12097945
-0.073385924 0.015145318 0.028045334 12424854
-0.071891807 0.01515913 0.027940663 12750992
-0.070416845 0.015211889 0.02764898 12946572
-0.068948269 0.015279589 0.027285466 12750992
-0.067503534 0.015399068 0.026673261 10065301
-0.066078991 0.015565321 0.025836298 8553090
-0.064722568 0.015883269 0.02427062 8816262
-0.063215837 0.015885927 0.02421933 9736850
-0.06175302 0.015986232 0.023698995 11115676
-0.060332604 0.016186211 0.022699747 11706014
-0.059053343 0.016718587 0.020103436 11247519
-0.057565775 0.016783657 0.019752139 9868436
-0.056051344 0.01678738 0.019695546 9802900
-0.054568432 0.016868388 0.019267604 9802643
-0.053048231 0.016860249 0.019267989 8618883
-0.051718462 0.017335854 0.016943779 8816262
-0.051739711 0.021338135 -0.0023285788 9079434
-0.050392766 0.021887861 -0.0050101262 9276813
-0.04903771 0.02244054 -0.0077061378 11508892
-0.047673881 0.022994602 -0.010409041 12555412
-0.046302952 0.023554863 -0.013141958 11836058
-0.044900864 0.024051838 -0.015570908 11573657
-0.037233174 0.019684834 0.0052626142 7105644
-0.035684381 0.019661235 0.0053367033 10197915
-0.03411575 0.019569334 0.0057392092 10197915
-0.032542549 0.019456567 0.0062420755 10197915
-0.030938825 0.019227669 0.0073034237 10197915
-0.029310586 0.018894197 0.008867681 10197915
-0.027686924 0.018557576 0.010447212 10789795
-0.026115574 0.018406196 0.011136096 11315882
-0.024579508 0.018389231 0.011178583 11381675
-0.023092635 0.01857963 0.010223761 11447211
-0.022157006 0.021200338 -0.0024200699 11447211
-0.016952811 0.018556321 0.010179302 11381675
-0.015375269 0.018332453 0.011217066 11381675
-0.013835631 0.018292336 0.011370951 11118760
-0.012301746 0.018281378 0.011384565 10592673
-0.010767918 0.01827042 0.01139818 13084583
-0.0092341509 0.018259453 0.011411854 11775662
-0.0077004498 0.018248506 0.011425409 10329501
-0.006166806 0.018237539 0.011439084 10197915
-0.0046332274 0.018226583 0.011452699 10329501
-0.0030997086 0.018215626 0.011466314 10526623
-0.0015662512 0.01820467 0.01147993 10592416
-3.3062865e-05 0.01819557 0.011484624 10592416
0.0014999111 0.018188225 0.011480867 10658466
0.003032885 0.018180881 0.01147711 10789795
0.004565855 0.018173547 0.011473293 10724002
0.0060988246 0.018166203 0.011469536 10592673
0.0076317927 0.018158859 0.011465779 10526880
0.0099151451 0.0061378018 0.069294631 10197915
0.011524633 0.0028787313 0.084947556 10197915
0.012930758 0.0028766897 0.084921494 10197915
0.014336961 0.0028746477 0.084895425 10197915
0.015743241 0.0028725942 0.084869422 10461087
0.017250642 -0.0019426669 0.10801876 10658466
-0.083866112 0.013657291 0.02812423 9275528
-0.082361698 0.013649274 0.028124487 8618883
-0.080857292 0.013641249 0.028124742 8816262
-0.0793529 0.013633221 0.028125059 9408142
-0.077851608 0.013630854 0.028097957 10984604
-0.076354988 0.013637287 0.028028231 12881293
-0.074874066 0.013673767 0.027812958 12163995
-0.073401876 0.013728386 0.027509853 12033437
-0.071948938 0.013822508 0.027015407 11837343
-0.070508622 0.013944946 0.026383745 11706528
-0.069159895 0.014256123 0.024837874 11575456
-0.06770701 0.014364875 0.024272364 9144970
-0.066196278 0.014357151 0.024271017 8553090
-0.064685546 0.014349417 0.02426973 8618883
-0.063174829 0.014341683 0.024268443 9210763
-0.061707176 0.014428563 0.023808781 10065815
-0.060284454 0.014619524 0.022844823 10328730
-0.05896768 0.015059637 0.020673582 9868436
-0.057532053 0.015240768 0.019757044 9211020
-0.056018434 0.015244399 0.019700482 9145227
-0.054536805 0.01532584 0.019266857 9013641
-0.053155165 0.015657756 0.017619412 9210763
-0.053589784 0.020581316 -0.0062800553 11378334
-0.052244309 0.0211339 -0.0089981947 10984347
-0.050890349 0.021688702 -0.01172734 11180698
-0.049526945 0.022243321 -0.014455866 12618378
-0.04807787 0.022587996 -0.016166979 11508635
-0.046713725 0.023188351 -0.01911762 10459802
-0.037730481 0.019775817 -0.0027761173 8552833
-0.036141917 0.019664645 -0.0022770769 9473678
-0.03457189 0.019610096 -0.0020525411 10197915
-0.032990016 0.019511752 -0.0016156165 10197915
-0.031369355 0.019269507 -0.00048087115 10197915
-0.029748587 0.01901244 0.00072587642 10197915
-0.02811541 0.018692447 0.0022378583 10263708
-0.026448717 0.018220592 0.004486498 10329501
-0.024800595 0.017792596 0.0065226513 10329501
-0.023353595 0.018178882 0.0046094558 10329501
-0.022313971 0.020364709 -0.0060324846 10329501
-0.016938273 0.016984232 0.010246144 10329501
-0.015362047 0.016764101 0.011274655 10329501
-0.013823809 0.016726848 0.011416001 10263708
-0.012290809 0.01671591 0.011429686 10395294
-0.01075787 0.016704986 0.011443312 11381418
-0.0092249932 0.016694069 0.01145694 11118760
-0.0076921801 0.016683156 0.011470508 10263708
-0.0061598402 0.016675051 0.011470452 10197915
-0.0046276171 0.016667699 0.011466756 10789795
-0.0030953994 0.01666037 0.011462942 11578026
-0.0015631834 0.016653029 0.011459187 11774891
-3.096756e-05 0.016645689 0.011455432 11774891
0.0015012483 0.016638346 0.011451676 12168364
0.0030334585 0.016631017 0.011447862 12692909
0.0045656697 0.016623676 0.011444107 12496301
0.0060978802 0.016616335 0.011440352 11774891
0.0076300884 0.016608983 0.011436655 11512490
0.0098415036 0.0058209789 0.063770369 10197915
0.011521851 0.0014536385 0.084936582 10197915
0.012927252 0.0014515648 0.084910512 10197915
0.01433273 0.0014494796 0.084884495 10197915
0.015738284 0.0014474052 0.084858418 11447211
0.017228365 -0.0025371942 0.10417081 12496558
-0.08381892 0.012131562 0.028123755 8024176
-0.082315288 0.012123546 0.028124077 11508892
-0.080817237 0.012125329 0.028076522 11181212
-0.079331554 0.012149472 0.027919767 10394009
-0.077854104 0.012189516 0.027685357 11509406
-0.076394454 0.012263816 0.027283587 12424597
-0.074948579 0.012366458 0.026743421 10788510
-0.07353431 0.0125327 0.025892502 10591645
-0.072198696 0.012856543 0.024271758 10394523
-0.070688568 0.01284851 0.024271941 10262937
-0.069178447 0.012840484 0.024272125 10065558
-0.067668431 0.012832623 0.024271486 8618883
-0.066158496 0.012824911 0.024270145 8553090
-0.064648569 0.012817198 0.024268802 8553090
-0.063138641 0.012809468 0.024267517 8882055
-0.061667152 0.012885481 0.023857078 9210763
-0.060241811 0.013067068 0.022930741 9145227
-0.058898669 0.013441814 0.021060484 8882055
-0.057497609 0.01369775 0.019770609 8684676
-0.055984493 0.013700553 0.019717665 8553090
-0.05459819 0.014007993 0.01817593 8816262
-0.055454154 0.019818658 -0.010262082 10394009
-0.054109138 0.020371264 -0.013003575 12359832
-0.052756086 0.020927388 -0.01576248 11573914
-0.051209014 0.021001913 -0.016167605 11508378
-0.049629509 0.020993581 -0.01616773 11966102
-0.048214469 0.021434048 -0.018361775 9802386
-0.035030119 0.019633416 -0.0098840501 9472907
-0.033442106 0.019558158 -0.0095566157 8750469
-0.031812567 0.019331813 -0.008490216 10724259
-0.030187199 0.019107239 -0.007432384 11118503
-0.028536577 0.018773831 -0.0058421427 11118503
-0.026866956 0.018345207 -0.0037860509 11118503
-0.025190823 0.017861925 -0.0014623839 11118503
-0.0236625 0.017960379 -0.0019842109 10395294
-0.016923251 0.015411606 0.010324836 10658209
-0.01534906 0.015198702 0.011326809 10789795
-0.013812035 0.015163367 0.01146007 10197915
-0.012280564 0.015156018 0.011456376 10461087
-0.010749097 0.015148681 0.011452623 11447211
-0.0092176339 0.015141355 0.01144881 11381418
-0.0076861689 0.015134017 0.011445058 10658466
-0.0061547072 0.015126687 0.011441306 10263708
-0.0046232454 0.01511935 0.011437553 10921381
-0.0030917861 0.015112013 0.0114338 11972013
-0.0015603282 0.015104676 0.011430047 12168364
-2.8872306e-05 0.015097338 0.011426294 12168364
0.0015025818 0.015090001 0.011422541 12365229
0.0030340338 0.015082675 0.011418729 12496301
0.0045654862 0.015075338 0.011414976 12365229
0.0060969363 0.015067989 0.011411281 12168621
0.007628385 0.015060659 0.011407531 12037549
0.0097669559 0.0055002617 0.058178209 10987174
0.011519073 3.0013987e-05 0.084925652 10197915
0.012923749 2.789706e-05 0.084899619 10197915
0.014328503 2.5790983e-05 0.084873535 10197915
0.015733333 2.3684546e-05 0.08484745 11906734
0.017205894 -0.0031368826 0.10028951 12430765
