# .PCD v0.7 - Point Cloud Data file format
VERSION 0.7
FIELDS x y z rgb
SIZE 4 4 4 4
TYPE F F F U
COUNT 1 1 1 1
WIDTH 1047
HEIGHT 1
VIEWPOINT 0 0 0 1 0 0 0
POINTS 1047
DATA ascii
-0.020178055 -0.02716274 0.012471852 3420248
-0.020628853 -0.028784869 0.012940928 5785192
-0.020847121 -0.030261582 0.012940435 6638699
-0.021065136 -0.031736661 0.012939915 5457255
-0.021282922 -0.033210125 0.012939419 1973578
-0.021500481 -0.034681976 0.012938945 1315907
-0.021717811 -0.036152221 0.012938493 5195113
-0.02193499 -0.037620902 0.012938217 7294828
-0.02215199 -0.039088007 0.012938066 394808
-0.022368765 -0.04055351 0.012937936 10263708
-0.022585282 -0.042017397 0.012937773 10197915
-0.022795815 -0.043476358 0.01292591 10197915
-0.022925993 -0.044887792 0.012750882 10197915
-0.02298783 -0.046259459 0.012436871 10263708
-0.022471033 -0.047303185 0.0109432 10197915
-0.021678405 -0.048195835 0.0088854656 10197915
-0.021889376 -0.049655326 0.0088744024 10197915
-0.02203843 -0.051079035 0.0087373406 10197915
-0.021789555 -0.052282475 0.0077872877 10197915
-0.01014361 0.040936776 0.0089789005 9537929
-0.010375521 0.039375138 0.0089828484 10784141
-0.010599307 0.037821405 0.0089712385 11045257
-0.01082042 0.036271263 0.0089548323 9274243
-0.01104278 0.03472165 0.0089413915 8157304
-0.013116944 0.031749737 0.012598566 7763574
-0.013510479 0.030079124 0.012927876 8881798
-0.013737222 0.028538289 0.012927124 8421247
-0.013886785 0.027057458 0.012773626 8553090
-0.013715562 0.025819406 0.011983084 8224125
-0.013049109 0.024951335 0.010207482 5789784
-0.012580072 0.023930751 0.008822904 5789784
-0.013541945 0.021843977 0.01028547 6973030
-0.014122578 0.020045921 0.010991001 9534074
-0.014367125 0.018499089 0.011028064 9404544
-0.014611363 0.016954152 0.011065066 8287348
-0.014855319 0.015411095 0.011102054 6973287
-0.014893667 0.014018496 0.010729037 5066061
-0.014570429 0.012886335 0.0096335895 4408131
-0.013245087 0.012469222 0.0065338002 3289650
-0.011249963 0.01251909 0.0020907382 4013116
-0.009232291 0.012569722 -0.002402463 3618615
-0.0071919775 0.012620926 -0.0069460869 3223857
-0.017816002 -0.013848569 0.0080813197 131688
-0.017983116 -0.015313973 0.0079721371 131688
-0.017947497 -0.016647626 0.0074532004 460651
-0.017911909 -0.017981742 0.0069341855 986992
-0.017876254 -0.01931625 0.0064148861 1513332
-0.017670782 -0.020543685 0.0055512879 2104907
-0.017044937 -0.021508286 0.0038346553 1776200
-0.021452954 -0.025626764 0.012330752 2105163
-0.021747001 -0.027154105 0.012484877 4931427
-0.02219039 -0.028771685 0.012943095 7950443
-0.022407616 -0.030247165 0.012942594 8802665
-0.022624636 -0.031721048 0.012942171 5391462
-0.022841381 -0.033193287 0.012941664 1184321
-0.023057899 -0.034663912 0.01294118 1644614
-0.023274289 -0.036132995 0.012940924 4932198
-0.023490503 -0.037600502 0.012940791 4471905
-0.023706438 -0.039066378 0.012940576 6183282
-0.023922145 -0.040530648 0.012940379 12365229
-0.024137601 -0.041993309 0.012940149 12365229
-0.02435283 -0.043454371 0.012939936 12365229
-0.024568034 -0.044913959 0.012940156 12365229
-0.024710611 -0.046330497 0.01279222 12430765
-0.024787579 -0.047708806 0.012510233 12430765
-0.024407173 -0.048828274 0.011291185 12431022
-0.023448991 -0.049626529 0.0088865142 12431022
-0.023658717 -0.051083248 0.0088754324 12431022
-0.023766195 -0.052481934 0.0086549297 12431279
-0.023463205 -0.053654276 0.0075915041 10855845
-0.011514334 0.042464871 0.0089490786 6447200
-0.011757797 0.040892947 0.0089776311 6250335
-0.011989964 0.039331578 0.0089842966 7960182
-0.012207788 0.037783034 0.0089629879 10519427
-0.012429801 0.036232695 0.0089504933 10782342
-0.014542715 0.033216622 0.012700308 9668230
-0.014885562 0.031583127 0.012931698 7434095
-0.015111485 0.030041888 0.012930981 7105387
-0.015337002 0.0285025 0.012929963 7105387
-0.015445195 0.027053902 0.012695451 7565938
-0.015224256 0.025855128 0.011804325 6315871
-0.014530628 0.02501058 0.0099686794 5855577
-0.014179613 0.023903836 0.0088158445 4737096
-0.015121163 0.021830363 0.01024641 6513250
-0.015633721 0.020082124 0.010821013 8812407
-0.015844036 0.018560696 0.01079178 8615028
-0.016053032 0.017041652 0.010760377 8352113
-0.016245725 0.015535933 0.010696759 8942194
-0.016296363 0.014134746 0.010348652 5526355
-0.016004341 0.01298153 0.0093129501 4144959
-0.014834723 0.012457155 0.0065141516 2434341
-0.012849766 0.01250712 0.0020740691 5262155
-0.010842673 0.01255765 -0.0024155234 5985364
-0.0088130943 0.012608736 -0.0069554159 5985364
-0.01793051 -0.014248953 0.0046630744 2302587
-0.01798263 -0.015644278 0.004320228 2894463
-0.017945275 -0.016981801 0.0037955504 3420546
-0.017909549 -0.018320819 0.0032740349 4012166
-0.022633249 -0.022686968 0.012440535 4603491
-0.022850608 -0.024168804 0.012440168 3157591
-0.023067741 -0.025649017 0.012439826 2499663
-0.023292368 -0.027132431 0.012455255 4537442
-0.023730826 -0.028747046 0.012907528 7164784
-0.023965562 -0.030232815 0.012944885 8607343
-0.024181519 -0.031705454 0.012944398 3748698
-0.024397248 -0.033176482 0.012943933 657979
-0.024612827 -0.034645949 0.012943644 1513285
-0.024828229 -0.036113843 0.012943478 4077919
-0.025043404 -0.037580129 0.012943332 1644870
-0.025258277 -0.039044771 0.01294305 12954025
-0.025472922 -0.040507816 0.012942785 13345442
-0.025687369 -0.041969281 0.01294259 13345442
-0.025901536 -0.043429121 0.012942307 13345442
-0.026115503 -0.044887383 0.012942092 13345442
-0.026330432 -0.046344742 0.012944336 13280163
-0.026489817 -0.047768898 0.012832819 13280163
-0.026513871 -0.049115196 0.012443122 13280163
-0.026227914 -0.050286695 0.011415005 13280163
-0.025214808 -0.051053349 0.0088877529 13345442
-0.025423242 -0.05250727 0.0088765454 13670552
-0.025490202 -0.05388163 0.0085739316 11709612
-0.025080701 -0.05499427 0.0072878385 11052710
-0.012818666 0.044044893 0.0087884665 10321020
-0.013147088 0.042403672 0.0089879539 8683134
-0.013374317 0.040845152 0.0089864964 6052699
-0.013596156 0.03929244 0.0089748027 5657941
-0.01551569 0.036405403 0.012351776 6841958
-0.015967241 0.034682259 0.012801928 8943993
-0.01625987 0.03308621 0.012935593 10516343
-0.016484847 0.03154467 0.01293466 9076350
-0.016709547 0.030004878 0.012933675 9340036
-0.016926333 0.028472694 0.012917351 9406343
-0.016947052 0.027091796 0.012508742 9604236
-0.016670818 0.025936672 0.011504891 8880770
-0.015728554 0.02528315 0.0091644069 7565681
-0.015776426 0.023876999 0.0088087041 5526612
-0.016234908 0.022163503 0.0092776734 5329233
-0.016850824 0.020336006 0.010064093 6052699
-0.017032951 0.018834604 0.0099797584 5592405
-0.017211419 0.01733711 0.0098884609 5592148
-0.017379029 0.015848769 0.0097756879 8417392
-0.01743263 0.014444749 0.0094336169 8088684
-0.017124383 0.013303739 0.0083622225 6577501
-0.016145814 0.01264445 0.0059379577 3815480
-0.014446924 0.012495182 0.0020573994 4998983
-0.012450362 0.012545618 -0.0024286245 6050386
-0.010431492 0.01259658 -0.0069647743 6181972
-0.018019289 -0.014634771 0.0011680424 5326476
-0.017985381 -0.015979089 0.00064830168 5917581
-0.023498598 -0.020888302 0.011462971 6508141
-0.024194622 -0.022678629 0.01244231 6703978
-0.024410963 -0.024159243 0.01244199 4997990
-0.024627484 -0.025638491 0.012442519 2434127
-0.024843473 -0.027115926 0.012442453 2894420
-0.025274724 -0.028726114 0.012884075 6574962
-0.025520844 -0.030218448 0.012947042 6836848
-0.025735836 -0.031689908 0.0129467 2236492
-0.025950577 -0.033159744 0.012946326 131636
-0.026165195 -0.034628037 0.012946179 789565
-0.026379509 -0.03609468 0.012945895 1381700
-0.026593648 -0.037559751 0.012945734 5789295
-0.026807487 -0.03902318 0.012945434 11775662
-0.027021099 -0.040485013 0.012945152 12169649
-0.02723451 -0.041945267 0.012944938 12169649
-0.027447671 -0.043403916 0.012944687 12169392
-0.02766058 -0.044860959 0.012944399 12169649
-0.027873289 -0.04631643 0.012944178 12104113
-0.028087964 -0.047771577 0.0129485 12104113
-0.028254203 -0.049197637 0.012853177 12104113
-0.02820378 -0.050499883 0.01231006 12104113
-0.027617238 -0.051501088 0.010657155 12169392
-0.026978917 -0.052478004 0.0088954866 13408151
-0.027173793 -0.053922322 0.0088587245 13539994
-0.0271223 -0.055229545 0.0083115594 13476257
-0.014052962 0.04568122 0.0084882872 7827054
-0.014535572 0.043913439 0.0089983549 10512745
-0.014756228 0.042359129 0.0089854384 9988457
-0.014984269 0.040800445 0.0089878067 7104359
-0.016980181 0.037839565 0.012532377 5000268
-0.017390545 0.03614663 0.012903479 5066061
-0.017633304 0.03458846 0.012939359 6776165
-0.017857438 0.033046536 0.012938409 9533817
-0.01808127 0.031506382 0.012937359 9075322
-0.018304875 0.02996793 0.012936355 9403773
-0.018488497 0.028461847 0.012855454 9796732
-0.018447131 0.027129648 0.012322252 10255484
-0.018057309 0.026063047 0.011087307 10452092
-0.017168012 0.025372816 0.0088450601 9729911
-0.017376708 0.023845553 0.0088139726 6447200
-0.016718326 0.022971924 0.0070343167 5921113
-0.017685255 0.020876739 0.0085335122 6775908
-0.01788928 0.019356789 0.0084942533 4934475
-0.018008294 0.017901197 0.0082836524 4671303
-0.018106924 0.016461357 0.008032077 7367017
-0.01811775 0.015086477 0.0076030232 7953757
-0.017725982 0.014005139 0.0063588037 7888992
-0.017005907 0.013158842 0.0044484134 6970203
-0.015883835 0.012597027 0.0017212181 5919828
-0.014055436 0.012533578 -0.0024416139 3947066
-0.012047203 0.012584448 -0.0069741122 5722192
-0.017540753 -0.01328158 -0.0030627612 7886476
-0.025091536 -0.019556979 0.011971881 8476554
-0.025379935 -0.021087373 0.012120316 8474472
-0.025753425 -0.022670329 0.012444166 7688042
-0.025968801 -0.024149755 0.012443993 5589098
-0.026184503 -0.025627913 0.012444981 3288920
-0.026399402 -0.027104085 0.012444803 4275041
-0.026803685 -0.028697403 0.012834989 4866406
-0.027073612 -0.030204162 0.012949377 3026006
-0.027287595 -0.031674411 0.012949073 1644871
-0.027501376 -0.033143073 0.012948841 65844
-0.027714932 -0.03461013 0.012948627 65844
-0.027928213 -0.036075555 0.012948327 65844
-0.028141268 -0.037539382 0.012948046 10790052
-0.028354123 -0.039001629 0.01294783 10658466
-0.028566729 -0.040462267 0.012947581 11052967
-0.02877911 -0.04192131 0.012947346 11315625
-0.028991215 -0.043378737 0.012947022 11447211
-0.029203145 -0.04483461 0.012946816 11906991
-0.029414825 -0.046288881 0.012946569 11184296
-0.029626256 -0.047741555 0.012946284 10855845
-0.029834248 -0.049190812 0.012939338 11315882
-0.029988129 -0.050607853 0.01282044 12366257
-0.029854653 -0.051861491 0.012104502 11052967
-0.027130775 -0.051662296 0.0059997654 12496301
-0.028733995 -0.053896409 0.0088945245 12823981
-0.028806934 -0.055271167 0.0086062178 12824238
-0.028394623 -0.056378737 0.0073068123 12824238
-0.015921444 0.04542372 0.0090052038 5789527
-0.016143605 0.043867175 0.0089969654 9139316
-0.016366169 0.042311825 0.0089900382 9597811
-0.018400103 0.039306618 0.012626333 9597811
-0.018782346 0.037633885 0.012944011 6578786
-0.019005913 0.03608983 0.012943097 4868682
-0.019229179 0.034547545 0.012942081 5526612
-0.019452222 0.03300697 0.012941114 7104873
-0.019674961 0.031468164 0.012940045 6381407
-0.019897472 0.029931057 0.012939022 5657941
-0.020032926 0.028462904 0.012762656 5460819
-0.019905951 0.027197884 0.012056175 5395026
-0.019394882 0.026226293 0.010572544 5855320
-0.018074019 0.025868587 0.007448846 9598839
-0.017807608 0.02469999 0.0064569088 7564910
-0.017483339 0.023572886 0.0053470102 5263440
-0.016420774 0.02299808 0.0027394081 6512736
-0.017964544 0.020465879 0.0054164636 5263183
-0.018013334 0.019057583 0.0050626528 4210752
-0.018057255 0.017653089 0.0046990141 4144959
-0.018101148 0.016248779 0.0043353718 5065290
-0.018061878 0.014905552 0.0038026543 6838360
-0.01761858 0.013856277 0.0024475935 8412766
-0.016828017 0.013055169 0.00038424498 8151650
-0.015619554 0.012549181 -0.0025326333 4933704
-0.013660233 0.01257233 -0.0069834362 6510680
-0.0266841 -0.019572863 0.012042289 4537698
-0.026954236 -0.021090932 0.012155917 5456742
-0.027309584 -0.022662021 0.012445947 7622764
-0.027524572 -0.02414063 0.012447109 5720426
-0.027738882 -0.025617331 0.012447365 4340577
-0.027952746 -0.027092271 0.012447176 3814748
-0.028330291 -0.028668728 0.01278594 3091542
-0.028623825 -0.030189922 0.012951783 3157335
-0.028836798 -0.031658966 0.012951516 1710407
-0.029049521 -0.033126388 0.012951216 65844
-0.029262045 -0.034592226 0.012950986 65844
-0.029474318 -0.036056451 0.01295072 2236474
-0.029686367 -0.037519082 0.012950471 5197647
-0.029898195 -0.038980115 0.012950236 5263440
-0.030109771 -0.040439542 0.012949965 7697267
-0.030321121 -0.041897383 0.012949709 11578283
-0.030532248 -0.043353636 0.012949466 11315625
-0.030743126 -0.044808291 0.012949183 11775405
-0.030953806 -0.046261378 0.012948964 10855588
-0.03116421 -0.047712855 0.012948652 10329501
-0.031374414 -0.049162772 0.012948404 11315882
-0.031564206 -0.050599571 0.01290603 12758959
-0.031571899 -0.051931694 0.012483835 10395294
-0.031190487 -0.053044513 0.011248627 11118760
-0.030234642 -0.053838715 0.0088114543 11315882
-0.030292574 -0.05520431 0.0084925387 11315882
-0.029939363 -0.056342531 0.007313116 11578797
-0.027625853 -0.056408357 0.0020269805 11184296
-0.017294807 0.046942666 0.0089885257 4934475
-0.017529601 0.045374725 0.0090074111 6249821
-0.017748272 0.043821502 0.0089943111 5920856
-0.019818854 0.040772408 0.012720262 5460562
-0.020155024 0.039134718 0.012947838 5329233
-0.020377724 0.037590303 0.012946858 5263440
-0.020600149 0.036047637 0.012945825 4737096
-0.0208223 0.034506723 0.01294474 5066061
-0.021044249 0.032967493 0.012943754 6775651
-0.021265922 0.031430013 0.012942716 7367017
-0.021487396 0.029894209 0.012941772 6578529
-0.021578375 0.028461436 0.012676576 4934218
-0.021654265 0.027040876 0.012380919 4671303
-0.02187353 0.025510289 0.012376649 5131854
-0.022090442 0.023983005 0.012368099 8351856
-0.022291252 0.022469498 0.012327286 7367274
-0.017807743 0.024511652 0.0027534133 5131854
-0.017344134 0.023484511 0.0013545101 5000268
-0.01612035 0.023024609 -0.0015946535 4934475
-0.017973851 0.020255597 0.0017275941 4473924
-0.018010031 0.018851677 0.0013466644 3947323
-0.018051283 0.017444111 0.00097612612 3026478
-0.018095335 0.016034627 0.00061134732 4210495
-0.018006587 0.014722501 -2.4820798e-05 6773595
-0.017519698 0.013699401 -0.0014756001 2828842
-0.016633619 0.012961504 -0.0037446511 2434341
-0.015255868 0.012570842 -0.0070228856 2697256
-0.028186135 -0.019531356 0.011931367 329015
-0.028505309 -0.02108117 0.012149117 3551577
-0.028863553 -0.022653993 0.01244858 6376556
-0.029077604 -0.024131432 0.01244994 3617627
-0.029290654 -0.025606757 0.012449718 1973578
-0.029503431 -0.027080437 0.012449413 1315650
-0.029925188 -0.028684728 0.012883656 3486298
-0.03022486 -0.030209253 0.013065178 4340320
-0.030418858 -0.031665668 0.01302765 1315907
-0.030622439 -0.033126704 0.013010501 592186
-0.030825824 -0.034586217 0.012993403 263223
-0.031032527 -0.036046371 0.012983681 5328719
-0.031241201 -0.037506305 0.01297854 5789527
-0.031449627 -0.038964648 0.012973355 5986392
-0.031657882 -0.040421452 0.012968284 3158064
-0.031865861 -0.041876655 0.012963117 9798274
-0.032073643 -0.043330308 0.012958007 11446954
-0.032281179 -0.044782385 0.012952853 11250089
-0.032490235 -0.046233922 0.012951356 10789795
-0.032699641 -0.047684219 0.012951068 10329501
-0.032908849 -0.049132954 0.012950843 11250089
-0.033117808 -0.050580107 0.012950574 12038320
-0.033248398 -0.051981114 0.012786405 10329501
-0.033021934 -0.053179007 0.011873176 10263708
-0.031514574 -0.053658113 0.0082694795 10263708
-0.031694397 -0.055091813 0.0082070502 10263708
-0.031130705 -0.05611169 0.0065817786 11315625
-0.029475465 -0.056534555 0.0026586372 11906220
-0.01859653 0.048519466 0.0088284267 9337980
-0.018914616 0.046881467 0.0090175802 5592405
-0.020459693 0.044239927 0.011692462 9534331
-0.021236392 0.042236999 0.012814065 7957612
-0.021526828 0.040634722 0.012951537 5394512
-0.021748664 0.039089948 0.012950489 6906980
-0.021970274 0.037546881 0.01294949 6512222
-0.022191657 0.036005531 0.012948542 7891048
-0.022412768 0.03446592 0.012947537 7562340
-0.022633655 0.032928012 0.012946581 6643808
-0.022854289 0.031391829 0.012945619 6709344
-0.023074651 0.029857386 0.012944603 7958126
-0.023149988 0.028437769 0.012648533 5657941
-0.023266312 0.02698669 0.01243618 4802889
-0.023486041 0.025456345 0.012435065 4934475
-0.023705522 0.023927696 0.012433938 7169895
-0.02392485 0.022400687 0.012433007 9336181
-0.023637587 0.021261252 0.011396945 7170152
-0.023764521 0.019805379 0.011207367 5000268
-0.023493204 0.018650744 0.010202897 6446943
-0.017280286 0.021953272 -0.0029714566 6446429
-0.017973056 0.020051369 -0.0020091841 4276031
-0.01800937 0.018642271 -0.0023913789 2960685
-0.018045682 0.017233275 -0.0027735431 3157807
-0.018089488 0.015818873 -0.0031402863 3947066
-0.017948942 0.014539451 -0.0038857248 3420979
-0.017371412 0.013576651 -0.0055299099 3618358
-0.016430289 0.01287232 -0.0079235528 2828842
-0.029686103 -0.019489888 0.011820542 657979
-0.030053653 -0.021071307 0.012141963 1644870
-0.030290995 -0.022565382 0.012193275 2762834
-0.030627802 -0.024122098 0.012452275 2039371
-0.030839646 -0.02559608 0.012451677 131637
-0.031051166 -0.02706839 0.012450891 394808
-0.031599227 -0.028752901 0.01315272 2499920
-0.031876359 -0.030262386 0.013290305 3091542
-0.032068096 -0.031716343 0.01325015 1644614
-0.032259658 -0.033168882 0.013210071 1842249
-0.032451 -0.034619976 0.013169966 3945292
-0.032649878 -0.036074396 0.013146058 7892076
-0.032851789 -0.037529305 0.013128957 8811379
-0.03305348 -0.038982689 0.013111849 7037538
-0.033254948 -0.04043455 0.013094737 5920342
-0.033456217 -0.041884903 0.013077671 8939110
-0.033657264 -0.043333739 0.013060597 2105376
-0.033858169 -0.0447811 0.013043671 7039594
-0.034064464 -0.046230253 0.013038537 10460830
-0.034270536 -0.047677848 0.013033408 10263708
-0.034476362 -0.049123876 0.01302823 10526880
-0.034681991 -0.050568365 0.013023105 10790052
-0.034851409 -0.05199068 0.012942162 10263708
-0.034752708 -0.053259261 0.012296391 10197915
-0.034090444 -0.054210205 0.010461564 10197915
-0.032965891 -0.05490692 0.0076492745 10197915
-0.032060347 -0.055734612 0.0052965628 11447211
-0.030647857 -0.056288823 0.0018702234 12168621
-0.028697491 -0.05655843 -0.0026971058 12168621
-0.01984998 0.050136194 0.0085707102 7105644
-0.02029801 0.048387934 0.0090261605 7565938
-0.022190005 0.045448598 0.012418413 7039851
-0.022652764 0.043700326 0.01290784 8420990
-0.022897838 0.042133819 0.012955256 8421247
-0.02311888 0.040588629 0.012954294 7763574
-0.02333965 0.039045192 0.01295328 8816005
-0.023560196 0.037503455 0.012952312 8091768
-0.023780493 0.03596345 0.012951341 9865095
-0.02400054 0.034425169 0.012950368 9076093
-0.02422034 0.032888602 0.012949388 7171180
-0.024439892 0.031353764 0.012948404 6645093
-0.024659194 0.029820634 0.012947412 8158332
-0.024719073 0.028414126 0.012620564 8618626
-0.024849838 0.026952555 0.012439015 7631988
-0.02506846 0.025423557 0.01243782 5723991
-0.025286881 0.023896221 0.012436715 5197647
-0.025354661 0.02248629 0.012126957 6249821
-0.025551917 0.020977601 0.012083197 8418163
-0.025660733 0.019537617 0.011858157 8351856
-0.02541941 0.018363599 0.010913435 7892333
-0.024269151 0.017872743 0.0080980724 6248279
-0.01755948 0.021542288 -0.0061648716 6575702
-0.017972274 0.019845616 -0.0057736421 4078652
-0.018008746 0.018431276 -0.0061570625 2960428
-0.018045193 0.017017066 -0.0065405024 5787985
-0.018083574 0.015601535 -0.0069199195 7560541
-0.017844325 0.014388977 -0.0078725899 7888478
-0.030998243 -0.019325666 0.011321939 723772
-0.031599596 -0.021061558 0.012135128 1447492
-0.031835891 -0.02255448 0.01218662 3288663
-0.03217525 -0.024112673 0.012454266 2170957
-0.032386042 -0.025585411 0.0124536 131636
-0.03264628 -0.027088415 0.012556985 263222
-0.03328852 -0.028833201 0.01346154 855357
-0.033524122 -0.030315418 0.013514981 3223127
-0.033714816 -0.031767681 0.01347474 4077663
-0.033905342 -0.033218533 0.013434572 4669027
-0.034095675 -0.034667958 0.013394428 7628647
-0.03428581 -0.036115952 0.013354306 9598068
-0.034475777 -0.037562542 0.013314257 10184808
-0.034668788 -0.039009687 0.013281057 6249050
-0.034869209 -0.040459998 0.013263891 7497061
-0.035069432 -0.041908804 0.013246769 7168610
-0.035269435 -0.043356095 0.01322964 3355443
-0.035469566 -0.044802081 0.013213232 5394512
-0.035672173 -0.046248142 0.013202512 9865866
-0.035874579 -0.04769269 0.013191841 10197915
-0.036076769 -0.049135704 0.013181165 10197915
-0.03627871 -0.050577175 0.013170432 10197915
-0.036459222 -0.052004911 0.013114814 10197915
-0.036478601 -0.05333928 0.012718399 10197915
-0.036050223 -0.054419383 0.011373278 10197915
-0.034043226 -0.05461261 0.0066802148 10197915
-0.032953609 -0.055335466 0.0039280304 10921381
-0.031619944 -0.055931211 0.00065495312 11315882
-0.030129442 -0.056450866 -0.0029547084 11381418
-0.021673499 0.049899422 0.0090203239 7697781
-0.023537662 0.046969764 0.012370634 7697524
-0.024028083 0.045195542 0.01292013 7697781
-0.024268072 0.043632016 0.01295905 7631988
-0.02448825 0.042086463 0.012958021 7763574
-0.024708232 0.040542603 0.01295709 8092282
-0.024927966 0.03900047 0.012956155 7434352
-0.025147425 0.037460089 0.012955168 6381664
-0.025366636 0.035921428 0.012954175 8092539
-0.025585597 0.034384489 0.012953178 7565938
-0.025804341 0.032849248 0.012952224 7895160
-0.026022807 0.031315744 0.012951215 7697781
-0.026241077 0.029783918 0.012950299 9997195
-0.026285609 0.028390534 0.01259262 10260367
-0.026430635 0.026918506 0.012441771 10983576
-0.026648199 0.025390819 0.012440598 10458774
-0.026865643 0.023864737 0.012439667 6118749
-0.026955351 0.022438858 0.012175915 8811636
-0.027145991 0.020935908 0.012120529 8746357
-0.027190141 0.019546311 0.011763224 9860469
-0.026785133 0.018498717 0.010478314 7101018
-0.025607906 0.018032506 0.0075964667 3552565
-0.023768233 0.018056011 0.0033416899 4341824
-0.032417085 -0.01923259 0.011048054 1118528
-0.033143092 -0.021051887 0.012128504 2959956
-0.033378318 -0.022543641 0.012180123 4011870
-0.033720281 -0.024103368 0.012456583 2236749
-0.033930019 -0.025574861 0.012455849 1842249
-0.034467299 -0.027256021 0.013144699 2105163
-0.034984894 -0.028920559 0.013793429 4603234
-0.035182323 -0.030377366 0.013769044 6967148
-0.035382569 -0.031834587 0.013751043 7819628
-0.035582568 -0.033290271 0.013732985 6835545
-0.035782401 -0.034744456 0.013715022 6249050
-0.035981983 -0.036197111 0.013697003 6315100
-0.036181375 -0.037648257 0.013679028 10119786
-0.036380544 -0.039097887 0.013661043 4671303
-0.036576189 -0.040543988 0.013636055 8219242
-0.036771119 -0.041988306 0.013610008 4934218
-0.036965854 -0.043431155 0.013583994 5460305
-0.037160397 -0.044872541 0.01355801 9398890
-0.037354741 -0.04631247 0.013532059 9464940
-0.037548844 -0.047750905 0.013506035 10197915
-0.037742727 -0.049187873 0.013479988 10197915
-0.037938066 -0.050624348 0.013457482 10197915
-0.038138706 -0.052062538 0.013446697 10197915
-0.038176239 -0.053405631 0.013089428 10197915
-0.037753493 -0.054485984 0.011752597 10197915
-0.035649505 -0.054617114 0.0068342541 10197915
-0.033699781 -0.054851636 0.0022391379 10263708
-0.032513961 -0.055528458 -0.00073228544 10263708
-0.031151827 -0.05611686 -0.0040829857 10263708
-0.023042891 0.051414553 0.0090035899 9469823
-0.024651326 0.048686787 0.011844685 9075579
-0.02539034 0.046700086 0.012907361 8879485
-0.025637463 0.045129351 0.012962763 8551291
-0.025856826 0.043583401 0.012961768 8025975
-0.026075942 0.042039182 0.012960769 7171180
-0.02629484 0.040496677 0.012959817 8025975
-0.026513489 0.038955901 0.012958864 8880256
-0.02673189 0.037416842 0.012957904 7236973
-0.026950041 0.035879508 0.012956939 7368816
-0.02716795 0.034343887 0.012955965 7434609
-0.027385633 0.032809973 0.012955039 7303023
-0.027603047 0.031277779 0.01295405 6513507
-0.027810471 0.029755056 0.012932953 9537929
-0.02784973 0.028366886 0.012564949 10062731
-0.028008757 0.026884509 0.012444548 10194060
-0.028225273 0.025358127 0.012443393 9012099
-0.02844191 0.023833157 0.01244299 7500402
-0.028526472 0.022412194 0.012169592 5460819
-0.028716058 0.020910621 0.012113969 7038566
-0.028710039 0.019560624 0.011653217 9074037
-0.028107407 0.018666469 0.0099546425 7625306
-0.026723336 0.018361751 0.0066322596 4538689
-0.025424175 0.017981844 0.0034826279 3749944
-0.034681294 -0.021040404 0.012116074 2039114
-0.034918204 -0.022532817 0.012173629 1644614
-0.035262715 -0.024094066 0.012458863 4800869
-0.035471451 -0.025564352 0.012458162 4340576
-0.036483463 -0.027553305 0.014155515 4209248
-0.036859196 -0.029125018 0.014509949 6442091
-0.037047286 -0.030573936 0.014468273 6179177
-0.037235234 -0.032021463 0.01442672 5063013
-0.037422966 -0.033467557 0.014385134 4473667
-0.037610527 -0.034912251 0.014343619 3815994
-0.03780077 -0.036357325 0.014308223 4868425
-0.037991092 -0.037801128 0.014273424 7168867
-0.038181219 -0.039243497 0.014238649 3750201
-0.038368125 -0.04068258 0.014197474 5328976
-0.038554102 -0.042119808 0.014154748 3552822
-0.038741931 -0.043556869 0.014116374 8941680
-0.038934059 -0.044995215 0.014087589 9855586
-0.039125968 -0.0464321 0.014058783 10454405
-0.039317712 -0.047867555 0.014030053 11184553
-0.039509233 -0.04930155 0.014001299 11184553
-0.03970059 -0.050734121 0.01397262 11184553
-0.03989172 -0.052165236 0.013943917 11184296
-0.039893862 -0.053485952 0.013511848 10263708
-0.039477605 -0.054566979 0.012185239 10197915
-0.037654724 -0.054850612 0.0078484602 10987174
-0.034452967 -0.054369066 0.00055545097 11184553
-0.033343937 -0.055087805 -0.0022637702 11184553
-0.032074105 -0.05572575 -0.0054305177 11184553
-0.024354028 0.052977983 0.0088686086 7827825
-0.024660962 0.051344194 0.0090453606 7104873
-0.026751956 0.048203729 0.012894806 8747385
-0.02700608 0.046625774 0.01296655 9991798
-0.027224582 0.045079466 0.012965485 10122613
-0.027442889 0.043534856 0.012964522 9271416
-0.027660945 0.041991971 0.012963553 7893104
-0.027878784 0.040450796 0.012962631 5789784
-0.028096324 0.038911384 0.012961602 8156276
-0.028313668 0.037373655 0.012960668 9534074
-0.028530743 0.035837661 0.012959676 9271930
-0.028747618 0.034303345 0.012958778 9010043
-0.028964225 0.032770764 0.012957823 8156790
-0.02918056 0.031239914 0.012956806 6315871
-0.02937459 0.029728392 0.01291004 5987163
-0.0294147 0.028340597 0.012544331 6118749
-0.029584186 0.026850577 0.012447293 6381921
-0.029799752 0.025325421 0.012446355 6184542
-0.030015238 0.023801832 0.012445766 5066061
-0.030094791 0.022385713 0.012162909 4539717
-0.03026754 0.020897757 0.012074184 5131854
-0.030160358 0.019626997 0.011402822 8151907
-0.029298576 0.018934609 0.009158521 7953243
-0.027884025 0.018657569 0.0057592462 5722192
-0.026556045 0.018303521 0.0025368854 3157807
-0.025237493 0.017931798 -0.00066928321 4210238
-0.036128383 -0.020969911 0.011916011 921150
-0.036362801 -0.022460578 0.011970577 2894163
-0.036802594 -0.024084784 0.012461153 5457769
-0.037078645 -0.025598569 0.012605424 2302285
-0.038586747 -0.027911771 0.015365821 1907785
-0.038813531 -0.029384889 0.015408353 2302542
-0.038991924 -0.030825306 0.01534857 1250114
-0.039170153 -0.032264389 0.015288836 2565695
-0.039348215 -0.033702139 0.015229153 4473924
-0.039526109 -0.035138562 0.015169518 4342338
-0.039703861 -0.036573671 0.015109985 3815994
-0.039883573 -0.038008779 0.015055044 3618615
-0.040064592 -0.039443456 0.015003288 4802632
-0.04023692 -0.040871538 0.014933399 5460048
-0.040408373 -0.042297903 0.014862028 3947580
-0.04058098 -0.043723799 0.014793517 5854806
-0.040765394 -0.045155633 0.014750644 9332840
-0.040949613 -0.046586078 0.01470778 7169895
-0.041133687 -0.048015159 0.014665035 12431022
-0.041317549 -0.049442839 0.014622243 12365486
-0.041506454 -0.05087221 0.014590692 12234414
-0.041696366 -0.052300859 0.014561731 12366000
-0.041689783 -0.053614244 0.014111477 10724259
-0.04121184 -0.054656386 0.01264889 10658466
-0.039480142 -0.054985303 0.0084908586 12299950
-0.036806218 -0.054792747 0.0023023479 12627116
-0.034085743 -0.054595117 -0.0039933384 12496558
-0.032973319 -0.055319894 -0.0068344115 12299950
-0.025625749 0.054574788 0.008652891 6644836
-0.026039263 0.05284746 0.0090520093 6644579
-0.02811259 0.049706753 0.012881757 5329233
-0.028374907 0.04812045 0.012972436 6250078
-0.028591519 0.046574663 0.012969176 8287348
-0.028808989 0.045029681 0.012968196 9205623
-0.029026238 0.043486401 0.012967258 7104873
-0.029243214 0.041944869 0.012966267 6447457
-0.029459972 0.040405042 0.012965321 5000268
-0.029676482 0.038866933 0.012964367 4868682
-0.029892746 0.037330553 0.012963409 6250078
-0.030108768 0.035795879 0.012962439 6973287
-0.030325765 0.034261927 0.012964008 8156276
-0.030556323 0.032718502 0.012994288 8550006
-0.03080401 0.031162901 0.013060769 7893104
-0.031011753 0.029641116 0.013044626 6841701
-0.031046441 0.028258989 0.012668245 6250078
-0.031156953 0.026816692 0.01245005 5921113
-0.031371567 0.025292767 0.012449334 5789784
-0.031585936 0.023770543 0.012448608 6315357
-0.031660415 0.022359343 0.012156068 8547436
-0.031815518 0.020885743 0.012032238 6446943
-0.031578273 0.019717308 0.011087881 6707545
-0.030490378 0.019202869 0.0083620353 8739675
-0.029080391 0.018926863 0.0049585975 8412252
-0.027686663 0.01862723 0.0015855106 6575702
-0.026374526 0.018254524 -0.0016201206 3289393
-0.025025126 0.017899511 -0.0049074241 2039583
-0.03742652 -0.020800889 0.011402708 5259620
-0.0376602 -0.02229155 0.011457799 6375527
-0.038339891 -0.024075508 0.0124634 3091541
-0.040381406 -0.026749544 0.016373022 460600
-0.040766627 -0.028325373 0.016755862 263222
-0.040923096 -0.02974977 0.016651545 263223
-0.04107948 -0.031173047 0.016547386 263222
-0.041235697 -0.032595161 0.016443228 7036767
-0.04139182 -0.034016162 0.016339226 6249564
-0.041569937 -0.035450045 0.016282622 3618615
-0.041749921 -0.036883868 0.016230403 3421236
-0.041926924 -0.038314585 0.01617223 5855063
-0.042097375 -0.03974 0.016100405 9399661
-0.042267654 -0.041164141 0.016028611 7299939
-0.042440183 -0.042588498 0.015962034 3421236
-0.04261411 -0.044012517 0.015898844 4276288
-0.042787895 -0.045435254 0.015835747 4802375
-0.042961512 -0.04685669 0.015772689 9933715
-0.043134987 -0.048276845 0.015709722 9536901
-0.043308277 -0.049695689 0.015646743 12756646
-0.043478616 -0.051111601 0.015577815 12102057
-0.043634355 -0.052517779 0.015477813 12823467
-0.043505985 -0.053757381 0.014765631 11644076
-0.043131988 -0.05485604 0.013523171 11841455
-0.041169915 -0.05504515 0.0088516809 13408408
-0.038678721 -0.054947905 0.0030321593 13666183
-0.035760522 -0.05462845 -0.0037167654 13213085
-0.027405478 0.054359563 0.0090353088 5000268
-0.029255534 0.051395755 0.012418674 5066061
-0.029735368 0.04962071 0.01296264 4934475
-0.029957663 0.04806897 0.012972889 5066061
-0.030174298 0.046523608 0.012971887 5723991
-0.03039071 0.04497996 0.012970935 7564653
-0.030606875 0.043438032 0.012969976 6841701
-0.030822802 0.04189783 0.012969009 5921370
-0.031038478 0.040359352 0.012968038 5460562
-0.031254794 0.038821861 0.012968887 5000268
-0.031475566 0.03728221 0.012979553 5066061
-0.031708512 0.035734117 0.013016133 5197647
-0.031955499 0.034176186 0.013082594 5723991
-0.032202162 0.032620274 0.013148965 6250078
-0.032448508 0.031066393 0.013215248 7958897
-0.032647859 0.029552149 0.013183787 9402231
-0.032695375 0.028161092 0.01283485 9664118
-0.032727111 0.026782824 0.012452923 9268846
-0.032940634 0.025260242 0.01245212 9598068
-0.033153929 0.02373933 0.012451353 8351342
-0.033223569 0.022332907 0.012149526 9138802
-0.033318132 0.020907346 0.011900176 7036510
-0.033087872 0.019735256 0.01096833 4999240
-0.031770803 0.01940308 0.0077502457 6182229
-0.030312071 0.019169556 0.0042305496 6510937
-0.028860275 0.018919056 0.0007216123 7626334
-0.027512588 0.018577546 -0.0025718249 7297369
-0.026193902 0.018203242 -0.0058076982 5524556
-0.024745032 0.017916668 -0.0093216933 4341567
-0.038488157 -0.020473128 0.010384801 8080229
-0.038550366 -0.021850616 0.010075038 7228007
-0.042407278 -0.025748836 0.017884437 4208734
-0.042962942 -0.027436597 0.018636273 1447236
-0.043113705 -0.028854338 0.01852213 329015
-0.043264303 -0.030270956 0.018407974 329015
-0.043414813 -0.0316865 0.018293964 3157318
-0.043565184 -0.033100937 0.018179992 7102560
-0.043715462 -0.034514304 0.018066166 6117978
-0.043865584 -0.035926547 0.017952325 3355443
-0.044015635 -0.037337739 0.017838681 3355443
-0.044165552 -0.038747828 0.017725073 5657427
-0.044320334 -0.040159948 0.017622286 6577244
-0.044477288 -0.041572362 0.01752452 4407874
-0.044631284 -0.042981885 0.017420733 3355443
-0.044781767 -0.044388205 0.017309707 3026478
-0.044932127 -0.045793436 0.017198771 7167582
-0.045082379 -0.047197584 0.017087929 12553613
-0.04523633 -0.048602939 0.016985418 11244949
-0.045404963 -0.050016012 0.016914997 10066072
-0.045534875 -0.051404957 0.016761197 10790052
-0.045642983 -0.052780189 0.01656048 11250089
-0.04545154 -0.053979408 0.01571125 12887204
-0.044875529 -0.05495673 0.014028046 13150119
-0.042856701 -0.055105675 0.0092147002 13669781
-0.040396389 -0.055017598 0.0034381007 13731462
-0.037831798 -0.054889783 -0.0025714003 12298151
-0.034561358 -0.054383263 -0.01012102 11249832
-0.028547712 0.05606569 0.0085539669 5328976
-0.029008849 0.054293886 0.0090595922 5131854
-0.031059267 0.051151104 0.012878226 5066061
-0.03132299 0.049562413 0.012976571 4868682
-0.031538811 0.048016656 0.012975604 4802889
-0.031754389 0.046472628 0.012974631 4737096
-0.031969752 0.044930313 0.012973704 6381664
-0.032185353 0.043389305 0.012973786 8745586
-0.032405764 0.041845772 0.012984438 8089455
-0.032626081 0.040303878 0.012995397 7826797
-0.03286751 0.038745951 0.013051099 7957869
-0.033115156 0.037184592 0.013120401 7629418
-0.033362459 0.035625286 0.013189563 7300967
-0.033609465 0.034068007 0.013258695 6972773
-0.033856124 0.032512769 0.013327686 6775651
-0.034145847 0.030924266 0.013487742 6972773
-0.034419801 0.02935064 0.013615331 8024176
-0.034396481 0.028018516 0.013118284 7104102
-0.034303319 0.02674203 0.012474105 7366503
-0.034506876 0.025227897 0.012454554 7367788
-0.034597609 0.023804765 0.012197704 7691613
-0.034783695 0.022306848 0.0121421 8813949
-0.034813698 0.020932905 0.011757595 5656656
-0.034578849 0.019766152 0.010813923 6576216
-0.03310883 0.019558484 0.0072601172 8413537
-0.031595789 0.019372333 0.0036114675 5984850
-0.030141359 0.019128924 8.2768958e-05 5919057
-0.028676827 0.018881587 -0.0034711722 8149851
-0.027317397 0.018542392 -0.0068064202 7757663
-0.02598674 0.018170459 -0.010084317 7101532
-0.044382736 -0.024725523 0.019301079 8799839
-0.045219213 -0.026601464 0.020661986 5588070
-0.045368709 -0.028015163 0.020547571 2959956
-0.045518018 -0.029427728 0.020433091 3485785
-0.04566719 -0.030839192 0.02031865 4537185
-0.04581625 -0.03224957 0.020204298 3421236
-0.045965169 -0.033658851 0.020089984 3421236
-0.046100385 -0.035058305 0.019946443 3421236
-0.046234567 -0.036456198 0.019800972 3158064
-0.046368666 -0.03785314 0.01965561 3158064
-0.046502676 -0.039249137 0.019510351 3223857
-0.046634614 -0.040642943 0.019360906 3289650
-0.046741594 -0.042020306 0.019157747 3289650
-0.046861343 -0.043404907 0.018982472 3026478
-0.046981011 -0.044788681 0.018807268 2960685
-0.047098774 -0.04617051 0.018628201 12032666
-0.047210187 -0.047547713 0.018435601 11442585
-0.047321562 -0.048924182 0.018243158 8618369
-0.047432877 -0.050299902 0.018050821 7829367
-0.047551271 -0.051679131 0.017874107 10395294
-0.047649223 -0.053045489 0.017653205 10461087
-0.047453664 -0.054238625 0.016793918 12691881
-0.046700295 -0.055107653 0.014719744 12693166
-0.044539042 -0.05516604 0.0095767528 12693166
-0.042091977 -0.055077095 0.0038050739 13538452
-0.039602801 -0.054983664 -0.0020649629 12625060
-0.036842536 -0.05475615 -0.0085331872 11184296
-0.030135714 0.056011595 0.0085474104 7958640
-0.032133624 0.052898325 0.01227273 7958640
-0.032683015 0.051058874 0.012970843 7827311
-0.032902535 0.049508814 0.012979342 5789784
-0.033117428 0.047964286 0.012978653 5000268
-0.033338301 0.046416156 0.012991016 4868682
-0.033564717 0.044864871 0.013015535 5394769
-0.033792611 0.043313939 0.01304368 7827054
-0.034042336 0.041746184 0.013118258 7827054
-0.034291722 0.040180515 0.013192704 7695982
-0.034539018 0.038618382 0.013263354 10056306
-0.034785271 0.037058905 0.013332391 9139059
-0.03507027 0.035469063 0.013483646 9006959
-0.035367463 0.033871248 0.013661284 8744815
-0.035689667 0.032255057 0.013892406 8613486
-0.036011305 0.030641703 0.014123106 7826283
-0.03628508 0.029069647 0.01425352 7760490
-0.036327399 0.0276869 0.013895512 6512222
-0.035960458 0.026633911 0.012672203 5131597
-0.03607082 0.025195334 0.01245771 9669258
-0.036108293 0.023815576 0.012089145 11570059
-0.036290508 0.022321083 0.012027243 8813435
-0.036316525 0.020951178 0.011634664 5393227
-0.036020383 0.019834388 0.010558791 4933704
-0.034529906 0.019648574 0.0069473484 5262155
-0.032904081 0.019556023 0.0030445098 4933447
-0.031430554 0.019332588 -0.00053905119 4144445
-0.029967546 0.019089198 -0.0041041705 5261898
-0.028532159 0.018812884 -0.0076144398 5393484
-0.046382196 -0.023729157 0.02078232 5587813
-0.047463059 -0.025772575 0.02267853 7622507
-0.047607962 -0.027180012 0.022556644 7424358
-0.04773042 -0.028571509 0.022386594 7294314
-0.047858227 -0.029965745 0.022228366 8343400
-0.047989301 -0.031361293 0.022077488 5587020
-0.048120264 -0.032755893 0.021926658 3421236
-0.048251141 -0.034149572 0.021775931 6577244
-0.048381135 -0.035541806 0.021623578 6051928
-0.048474457 -0.036909614 0.02139199 3092271
-0.048567794 -0.038276859 0.021160623 3158064
-0.048661049 -0.039643481 0.020929269 3223857
-0.048754271 -0.041009512 0.020698031 3421236
-0.048847456 -0.04237495 0.020466909 3750201
-0.048950717 -0.043746095 0.02025789 4670789
-0.049051967 -0.045115344 0.020044705 9207165
-0.049153134 -0.046483904 0.019831549 10591131
-0.049254242 -0.047851797 0.019618476 9539214
-0.049339708 -0.049209565 0.019371517 6710886
-0.049411688 -0.050558694 0.019095296 7960696
-0.049470566 -0.051899575 0.018790608 10790052
-0.049516708 -0.05323258 0.018458199 10329501
-0.049297053 -0.054408334 0.017544944 10987174
-0.048465703 -0.055227 0.015293316 10263708
-0.046216972 -0.055226255 0.009937888 10263708
-0.043782167 -0.055135887 0.0041690296 13215655
-0.04131107 -0.055044249 -0.0016858426 13735574
-0.038805854 -0.054953013 -0.0076221041 11775148
-0.031354371 0.056280401 0.0077707041 7761775
-0.033996213 0.05259487 0.012868298 8221298
-0.034278814 0.050988432 0.013011163 9729911
-0.034504864 0.049433179 0.013035715 8681078
-0.03473065 0.047879763 0.013060233 6907751
-0.03496806 0.046317957 0.013109787 6381664
-0.035217047 0.044747937 0.013184314 4934475
-0.035465714 0.043179989 0.013258765 5329233
-0.0357158 0.041612633 0.013336803 5921113
-0.03600134 0.040017128 0.013490327 6644579
-0.036296152 0.038415916 0.013664149 8352884
-0.036590498 0.036817264 0.013837696 7958383
-0.036910273 0.035199586 0.014065778 9072495
-0.037230857 0.033583608 0.014296349 8482671
-0.037550867 0.03197046 0.014526498 7432553
-0.037905775 0.03033103 0.014831427 6249821
-0.038242899 0.028708769 0.015099489 7171180
-0.038291488 0.027323576 0.014755886 8617084
-0.037798114 0.026377013 0.013261144 7368816
-0.037631467 0.025163347 0.012459487 10653583
-0.037416685 0.023986736 0.011554958 9930631
-0.037577286 0.022509038 0.011448653 4736582
-0.03773088 0.021037996 0.011327792 4276288
-0.037419844 0.019934643 0.010217267 6116693
-0.035971325 0.019721702 0.0066807051 3420979
-0.034331489 0.019646516 0.0027320904 2763049
-0.032728564 0.019529423 -0.0011421071 3092271
-0.03126391 0.019292489 -0.004725256 4604482
-0.029750904 0.01908092 -0.0084156673 5064519
-0.048973795 -0.023149861 0.023558963 1052735
-0.049522266 -0.024832454 0.02431269 2894163
-0.049692832 -0.026254775 0.024248615 7163500
-0.049863208 -0.027675781 0.024184525 7555943
-0.049992919 -0.029068369 0.024032565 5259877
-0.050117109 -0.03045642 0.0238689 4077149
-0.050208915 -0.031822223 0.023635136 3026242
-0.050287917 -0.033179048 0.023373721 4144702
-0.050366867 -0.034535378 0.023112338 7167582
-0.050445762 -0.035891213 0.022850985 8675167
-0.050524671 -0.0372466 0.02258982 8151907
-0.05060352 -0.038601495 0.022328686 8349286
-0.050682344 -0.03995591 0.022067634 8545894
-0.05076116 -0.041309863 0.021806719 8808038
-0.050838858 -0.042662662 0.021543525 9396320
-0.05090975 -0.044010747 0.021265602 8019036
-0.05098138 -0.045358896 0.020989424 9671314
-0.051052958 -0.046706613 0.020713257 8947848
-0.051124554 -0.048053943 0.020437263 7434609
-0.051190373 -0.049397349 0.020148758 5460562
-0.051238239 -0.050729528 0.019821022 8944507
-0.051286098 -0.052061494 0.019493347 11906734
-0.051340062 -0.053396892 0.019179124 10592673
-0.051103305 -0.054559436 0.018226692 12495016
-0.050178047 -0.055318031 0.015760977 10197915
-0.047890462 -0.055286292 0.010297991 10197915
-0.045467887 -0.055194512 0.0045319651 11250089
-0.043015093 -0.055104841 -0.001307079 11381675
-0.040529367 -0.055016089 -0.0072252266 10724259
-0.035647664 0.052472807 0.013029216 5723991
-0.035897072 0.050895911 0.013104965 7236459
-0.036143929 0.049323052 0.013175914 8812150
-0.036400467 0.047743563 0.013267933 9598582
-0.036656734 0.046166185 0.013360003 9533046
-0.036923785 0.04458138 0.013475533 7039080
-0.037221953 0.042971868 0.013657655 6315871
-0.037519678 0.041364938 0.013839563 6118492
-0.037815444 0.039761856 0.014018042 6578786
-0.038134143 0.03814159 0.014245949 6973030
-0.038481951 0.036499217 0.014536481 6644322
-0.038826115 0.034862485 0.01482012 7826540
-0.039209083 0.03319601 0.015187162 7629161
-0.039622869 0.031506877 0.015620773 5986906
-0.040032089 0.02982462 0.016045686 5329233
-0.040379651 0.028196055 0.016340204 5263183
-0.040503502 0.026752753 0.016158508 7236202
-0.039801948 0.02598099 0.014215721 6118749
-0.03922119 0.02510578 0.012528949 9339522
-0.038455077 0.024374902 0.010444555 6250335
-0.038654052 0.022865048 0.010421331 2434341
-0.038765099 0.021426646 0.010210481 4407874
-0.038453884 0.020323666 0.0090959957 6708316
-0.037458837 0.019757338 0.0065159346 9140858
-0.035773486 0.019724561 0.0024537228 9009272
-0.034131307 0.019644447 -0.0015204402 4078652
-0.032558668 0.019497035 -0.005349793 6312530
-0.031033402 0.019300278 -0.0090816589 6836818
-0.05142292 -0.023795262 0.02561664 197430
-0.05161063 -0.025227617 0.02559207 3486041
-0.051754221 -0.02662861 0.02547187 6310506
-0.05189772 -0.028028565 0.025351804 3617370
-0.051994119 -0.029395858 0.025129363 197430
-0.052080613 -0.030755926 0.024885511 3419976
-0.052157853 -0.03210932 0.024621624 5130826
-0.052235082 -0.033462264 0.02435787 7496290
-0.052312262 -0.034814727 0.024094142 8152935
-0.052389406 -0.03616672 0.023830496 7890020
-0.052466542 -0.037518267 0.02356698 7890020
-0.05254367 -0.038869359 0.023303596 8871004
-0.052597657 -0.040205177 0.022989657 10115160
-0.052647118 -0.041537855 0.022665869 7954528
-0.052696567 -0.042870305 0.022342151 6707802
-0.052752655 -0.044206697 0.022033056 7039080
-0.052825373 -0.045553204 0.02176059 8487297
-0.052897315 -0.04689882 0.021486565 8289918
-0.052947946 -0.048230886 0.021165805 8026232
-0.052998554 -0.049562708 0.020845061 6446686
-0.053047452 -0.050893255 0.020520646 10785940
-0.053095084 -0.052222814 0.0201935 11446954
-0.053149339 -0.053556141 0.019881031 10724002
-0.052897219 -0.054706443 0.018892881 13538452
-0.051885366 -0.055408791 0.016227243 11249832
-0.049559612 -0.055346198 0.01065727 11184296
-0.047151957 -0.055254601 0.0049000583 10329501
-0.044715196 -0.055165622 -0.00092799007 10197915
-0.042244691 -0.055076957 -0.0068372488 10197915
-0.036654402 0.054277115 0.012281452 6118749
-0.037343312 0.052308805 0.013291038 5723991
-0.03759912 0.05072704 0.013383137 5921370
-0.037855595 0.049146552 0.013477264 6710629
-0.038144898 0.047539297 0.013641774 9075065
-0.038442113 0.045927305 0.013823825 10450293
-0.038742837 0.044314478 0.01401407 9270645
-0.039058059 0.042691406 0.014235922 8614771
-0.039400227 0.041047599 0.014515954 8221041
-0.039743811 0.039405145 0.01479986 7761261
-0.040125005 0.03773335 0.015164858 7695468
-0.040548336 0.036028851 0.015620734 6973030
-0.04095684 0.03434002 0.016046021 5460819
-0.041373987 0.032647047 0.016490791 5197390
-0.041900452 0.030866252 0.017170394 6184285
-0.042436734 0.029081358 0.017872343 7236202
-0.042950548 0.027319092 0.018527554 6710372
-0.043010142 0.025933348 0.018210916 5855320
-0.042222962 0.025239088 0.016079081 4473924
-0.040281028 0.025476305 0.011467996 7301481
-0.03964005 0.024646297 0.0096441302 2960428
-0.039002009 0.023808621 0.0078248037 2631720
-0.039174568 0.022316966 0.0077457977 4999754
-0.03894243 0.02114876 0.0067969044 5853778
-0.038452569 0.020182688 0.005292776 10263708
-0.037293855 0.019739725 0.0023471778 10263708
-0.035584923 0.019718798 -0.0017869883 7105387
-0.033929396 0.019642325 -0.0058106217 6315100
-0.032373253 0.019475266 -0.0096243508 7955813
-0.053058993 -0.0225839 0.026354808 65844
-0.053229243 -0.024003649 0.026294123 131637
-0.053439517 -0.025449734 0.026321337 3157078
-0.0536495 -0.026894107 0.026348423 4274527
-0.05380097 -0.02829718 0.026247922 657979
-0.053908836 -0.029669736 0.026052253 131636
-0.053998642 -0.031029468 0.025817238 4538454
-0.054086488 -0.032387335 0.025578091 6707288
-0.054166082 -0.033739198 0.025321035 8807010
-0.05424279 -0.035088684 0.025057776 6051157
-0.054293521 -0.036420695 0.024737604 4342081
-0.054342773 -0.037751503 0.024414249 4671046
-0.054391995 -0.039082069 0.024090908 6576730
-0.054441217 -0.040412407 0.023767633 7690328
-0.054490406 -0.041742507 0.023444371 4867654
-0.054539621 -0.043072399 0.023121228 5526355
-0.054588802 -0.044402048 0.0227981 9539728
-0.054634452 -0.045729253 0.022467248 9605007
-0.054679383 -0.047055818 0.022134874 9603722
-0.054724291 -0.048382178 0.021802502 6708830
-0.054769192 -0.049708348 0.021470187 7630703
-0.054814115 -0.051034339 0.021137979 10263708
-0.054858986 -0.05236011 0.020805724 10263708
-0.054854043 -0.053655639 0.020363225 10789795
-0.054570265 -0.054784246 0.01930278 13731719
-0.053572491 -0.055490229 0.01665844 13667468
-0.05122263 -0.055404913 0.011011699 13666183
-0.048832227 -0.055314906 0.0052686119 10592673
-0.046410758 -0.055226233 -0.00054995413 10197915
-0.043955438 -0.055137664 -0.0064503057 10197915
-0.038617555 0.053872179 0.013113987 6776679
-0.039072763 0.052111529 0.013633011 6052956
-0.039372213 0.050492048 0.013821058 5987163
-0.039687399 0.048860949 0.014043418 5987163
-0.040002067 0.047232643 0.014265453 6710629
-0.040320061 0.045603782 0.014495375 7565424
-0.04066309 0.043955564 0.014779596 7499374
-0.041042522 0.042278457 0.015142546 7630703
-0.041466892 0.040565565 0.015602633 7827568
-0.041883122 0.038862858 0.016046358 7301738
-0.042289976 0.037171312 0.016471043 8745843
-0.042811509 0.03538559 0.017142665 8614000
-0.043343898 0.033594716 0.017838912 5723991
-0.043926835 0.031765476 0.018645063 4408131
-0.04450782 0.029942375 0.019448504 6250078
-0.045086939 0.028125305 0.020249434 8548978
-0.045613635 0.026356116 0.020939076 8877429
-0.045590106 0.025044344 0.020445779 6315614
-0.044858031 0.024313182 0.018426329 3881787
-0.042033747 0.025283052 0.011896029 5459791
-0.040248968 0.025386063 0.0075997072 4210495
-0.03950958 0.024629988 0.0055542476 2697513
-0.039026685 0.023661604 0.0040605268 3223600
-0.039199971 0.022164304 0.0039830734 5000011
-0.039056007 0.020920699 0.003220211 10587533
-0.038382523 0.020095032 0.0013115165 12559524
-0.03711364 0.019732824 -0.0018877392 12625317
-0.035394691 0.019712979 -0.0060651759 12625317
-0.033729766 0.019637005 -0.010130208 12625317
-0.054348212 -0.021134866 0.026340043 51
-0.054802541 -0.02275398 0.026903994 51
-0.055037085 -0.02421682 0.026986644 329015
-0.055233996 -0.025651932 0.026987202 1118528
-0.055413213 -0.027073469 0.02694934 657979
-0.055572886 -0.028480383 0.026868911 131637
-0.055680126 -0.029850578 0.026673477 1776179
-0.055785734 -0.031218981 0.026474686 3749944
-0.055887867 -0.032584369 0.026268447 5853264
