# .PCD v0.7 - Point Cloud Data file format
VERSION 0.7
FIELDS x y z rgb
SIZE 4 4 4 4
TYPE F F F U
COUNT 1 1 1 1
WIDTH 1037
HEIGHT 1
VIEWPOINT 0 0 0 1 0 0 0
POINTS 1037
DATA ascii
0.0035966991 0.0219907 -0.010704312 4276288
0.005110343 0.021998074 -0.010698155 2500134
0.0066239582 0.02200651 -0.010691803 2434341
0.0081375232 0.022014946 -0.01068545 2434341
0.0096510397 0.022023443 -0.010679096 6901151
0.011159135 0.021556472 -0.010755535 7098014
0.012589863 0.012852469 -0.012266384 7294621
0.014119806 0.012970783 -0.012240857 6113955
0.015649324 0.013089096 -0.012215323 2565788
0.017178416 0.013207355 -0.012189806 987027
0.01865986 -0.0038854231 -0.015161072 1973399
-0.084414132 0.056656234 -0.0034869579 9473678
-0.082964256 0.056616597 -0.0034891281 9867922
-0.081514284 0.056576777 -0.0034913279 9867922
-0.080064185 0.056537021 -0.0034935174 9933715
-0.078613974 0.056497261 -0.0034957067 9868179
-0.077163644 0.056457557 -0.0034978786 9342349
-0.07571321 0.056417737 -0.0035000772 8684676
-0.074262641 0.056378037 -0.0035022555 8553090
-0.072811969 0.056338277 -0.0035044437 8553090
-0.071361177 0.056298513 -0.0035066316 8618883
-0.06991028 0.056258693 -0.003508829 8684676
-0.068459257 0.05621893 -0.0035110163 11311770
-0.067008078 0.056179579 -0.0035131262 11377563
-0.065556817 0.056139875 -0.0035153027 11312027
-0.064105459 0.056100052 -0.003517499 11377563
-0.062653974 0.056060228 -0.0035196953 11639450
-0.06120237 0.056020461 -0.0035218808 12553870
-0.059750658 0.055980697 -0.0035240664 11508635
-0.058298837 0.055940811 -0.0035262716 10918811
-0.056846887 0.055901047 -0.0035284564 10459288
-0.055394825 0.055861279 -0.0035306411 9408142
-0.053942643 0.055821508 -0.0035328183 9999508
-0.05249035 0.055781681 -0.0035350122 10196630
-0.051037941 0.055741854 -0.003537206 10525081
-0.049585417 0.055702087 -0.0035393895 12161682
-0.048132781 0.0556622 -0.0035415925 11834259
-0.046680029 0.055622309 -0.0035437953 10720404
-0.045227163 0.055582423 -0.0035459979 8680821
-0.043774176 0.055542532 -0.0035482002 9394007
-0.042321082 0.055502586 -0.0035504121 9394007
-0.040867854 0.055462871 -0.0035525837 9132120
-0.03941451 0.0554231 -0.0035547651 8870233
-0.037963759 0.055344343 -0.0035636721 8608346
-0.036518294 0.055183899 -0.0035866806 8411738
-0.035078511 0.054929338 -0.0036259328 8215130
-0.03358284 0.055530731 -0.0035174442 8804697
-0.032078251 0.056307819 -0.0033786425 3815480
-0.030588469 0.05688563 -0.0032742473 2763306
-0.029122511 0.057094611 -0.0032335047 2763306
-0.027680019 0.056907907 -0.0032610493 4539460
-0.026259914 0.056308467 -0.0033598121 5065547
-0.024850372 0.055476062 -0.0034987764 3487029
-0.023451425 0.054387141 -0.0036819894 4999754
-0.02204892 0.053295366 -0.0038656874 6116950
-0.020642838 0.052200802 -0.0040498604 5788756
-0.019233158 0.051103551 -0.0042344737 6379865
-0.017819878 0.050003391 -0.0044195815 6378580
-0.016402978 0.048900437 -0.0046051643 9790564
-0.014982447 0.047794625 -0.0047912244 10248545
-0.013558265 0.046686076 -0.0049777417 4471868
-0.01213043 0.045574553 -0.0051647569 2697513
-0.010698916 0.044460237 -0.0053522461 2697513
-0.0092637138 0.043343067 -0.0055402201 7233889
-0.0078248223 0.042222567 -0.0057287514 9398376
-0.0063826153 0.041086491 -0.0059199589 5722963
-0.0049496982 0.039513428 -0.006186523 8416364
-0.0035408272 0.036904588 -0.0066317292 6972002
-0.0021554104 0.033083107 -0.007286049 6117207
-0.00068630098 0.03209082 -0.0074523794 6051414
0.00079618383 0.031528585 -0.0075445329 3158064
0.0022804835 0.030962378 -0.0076373653 3026478
0.0037666077 0.030391548 -0.0077309939 3026478
0.0052545741 0.029815856 -0.0078254445 2829099
0.0067435983 0.029185964 -0.0079292422 2894892
0.0082347468 0.028555471 -0.008033135 2894892
0.00972482 0.027678186 -0.0081795752 65933
0.011176411 0.023130136 -0.0089589367 65933
0.01268451 0.022857312 -0.0090011181 197518
0.014188651 0.021966122 -0.0091499034 394895
0.015646482 0.013075139 -0.010677918 1973657
0.017174847 0.013193342 -0.010652624 5982370
0.018656671 -0.0034676706 -0.013520028 4734369
-0.084367678 0.056654647 -0.0020230568 11572629
-0.082918517 0.056614932 -0.0020251817 11899281
-0.081469253 0.05657516 -0.0020273163 11965588
-0.080019861 0.056535445 -0.0020294406 12097174
-0.078570351 0.056495734 -0.0020315645 12030867
-0.077120736 0.056456018 -0.0020336881 10328216
-0.075671002 0.056416243 -0.0020358216 8750469
-0.074221157 0.056376468 -0.0020379547 8750469
-0.072771192 0.056336753 -0.0020400847 8684676
-0.071321107 0.056296978 -0.0020422172 8684676
-0.069870912 0.056257259 -0.0020443394 8882055
-0.068420596 0.056217484 -0.0020464712 9342606
-0.06697017 0.056177706 -0.002048603 9342349
-0.065519594 0.056138285 -0.0020506743 9276813
-0.064068936 0.056098506 -0.0020528054 9276813
-0.062618166 0.056058727 -0.002054936 10853532
-0.061167266 0.056019008 -0.0020570566 11575199
-0.059716269 0.055979166 -0.0020591968 9408142
-0.058265146 0.055939447 -0.0020613167 8553090
-0.056813907 0.055899668 -0.0020634534 8553090
-0.055362552 0.055859886 -0.0020655827 9210763
-0.053911086 0.055820104 -0.0020677117 10131094
-0.052459508 0.055780206 -0.0020698605 9802386
-0.051007815 0.055740364 -0.0020719988 9671057
-0.049556006 0.055700522 -0.0020741369 9999251
-0.04810407 0.055660736 -0.0020762647 9210763
-0.046652019 0.055621013 -0.0020783823 8224125
-0.04519986 0.055581227 -0.0020805097 7829367
-0.043747567 0.055541564 -0.0020826238 6774880
-0.042295173 0.055501778 -0.0020847504 5984593
-0.040842656 0.055462051 -0.0020868666 5656399
-0.039390031 0.055422265 -0.0020889929 5393227
-0.037940148 0.055341229 -0.0020981673 5130312
-0.036495447 0.055179883 -0.0021210678 5261898
-0.035056435 0.054924253 -0.0021600751 4736068
-0.033560526 0.055540625 -0.0020500789 6902097
-0.03205714 0.056310467 -0.0019138606 7691870
-0.030568369 0.056883771 -0.0018112407 6708059
-0.029103715 0.057082742 -0.0017725808 4999754
-0.027662208 0.056890924 -0.0018006912 3158064
-0.02624329 0.05628226 -0.0019000164 4736839
-0.024834799 0.055442467 -0.0020388204 4473667
-0.023436466 0.054353964 -0.0022200984 4736839
-0.022034574 0.053262666 -0.0024018511 6248536
-0.020629108 0.052168567 -0.0025840644 7496033
-0.019220054 0.051071733 -0.0027667354 9331298
-0.017807402 0.049972046 -0.0029498837 9265505
-0.016391128 0.048869558 -0.0031334925 9202025
-0.014971231 0.047764216 -0.0033175789 9331812
-0.013547685 0.046656135 -0.0035021228 7166811
-0.012120484 0.045545138 -0.003687154 5131083
-0.010689612 0.044431288 -0.0038726556 2763306
-0.009255127 0.043312564 -0.0040589813 4802375
-0.0078169396 0.042190813 -0.0042458144 6905952
-0.0063754101 0.041054182 -0.0044351681 4473667
-0.0049431711 0.039480474 -0.004699152 5394255
-0.0035357585 0.036843188 -0.0051447367 4407874
-0.0021465686 0.033185631 -0.0057644998 4802632
-0.0006772051 0.032239687 -0.0059212223 4078909
0.00080511824 0.031712875 -0.0060063745 2960685
0.0022892046 0.031185286 -0.0060916524 2829099
0.0037750625 0.030657219 -0.0061770128 2894892
0.005262692 0.030128431 -0.0062624812 2894892
0.0067520957 0.029598983 -0.0063480553 2894892
0.0082432805 0.029068939 -0.0064337319 2894892
0.0097356765 0.028494373 -0.0065270034 140
0.011218422 0.026893463 -0.0067954655 140
0.012688697 0.023423357 -0.0073829796 140
0.014197486 0.023339361 -0.0073924726 140
0.015701015 0.022359418 -0.0075548869 460687
0.017171282 0.013179335 -0.0091169095 1644951
0.018653486 -0.0030508451 -0.011882119 3288735
-0.084321283 0.05665293 -0.00056060194 12682886
-0.08287283 0.056613266 -0.0005626686 11246491
-0.081424266 0.056573536 -0.00056473789 11246748
-0.079975575 0.056533869 -0.00056679681 11443099
-0.07852678 0.056494143 -0.00056887261 11900566
-0.077077866 0.056454413 -0.00057094102 11246748
-0.075628847 0.056414682 -0.00057300908 10328216
-0.074179702 0.056374956 -0.00057508401 10327959
-0.072730444 0.056335226 -0.00057715154 10262423
-0.071281068 0.056295492 -0.00057921873 9539728
-0.069831587 0.056255765 -0.00058129278 8882055
-0.068381973 0.056216031 -0.00058335939 9736850
-0.066932254 0.056176301 -0.00058542576 9276813
-0.0654824 0.056136746 -0.00058746891 8618883
-0.06403245 0.056097012 -0.0005895347 8684676
-0.062582389 0.056057278 -0.00059160014 10262680
-0.061132204 0.056017488 -0.00059368246 9802643
-0.059681907 0.055977754 -0.00059574732 8750469
-0.058231492 0.055938017 -0.00059781189 8553090
-0.056780975 0.055898167 -0.00059990335 8553090
-0.055330336 0.05585831 -0.00060198735 8882055
-0.05387957 0.055818636 -0.00060404104 8882055
-0.052428685 0.055778958 -0.00060610159 8553090
-0.050977692 0.05573928 -0.00060815475 8289918
-0.049526583 0.055699483 -0.00061022758 8224125
-0.048075356 0.055659804 -0.00061228726 8158332
-0.046624009 0.055620126 -0.00061433949 8026746
-0.045172554 0.055580385 -0.00061640143 7960953
-0.043720979 0.055540707 -0.00061846024 7829367
-0.042269286 0.055501025 -0.00062051165 6249564
-0.040817488 0.055461228 -0.00062258274 3814966
-0.039365571 0.055421486 -0.00062465068 2302755
-0.03791647 0.055339471 -0.00063386554 2894635
-0.03647263 0.0551758 -0.00065689109 6247251
-0.035034396 0.054919045 -0.00069566333 3025964
-0.033538245 0.055550352 -0.00058421242 3552308
-0.032036059 0.056313056 -0.00045053606 7233375
-0.030548459 0.056879066 -0.0003501469 8612201
-0.029084941 0.057070859 -0.00031305404 6379865
-0.027644414 0.056873918 -0.00034171648 2763306
-0.026226604 0.056257438 -0.00044132824 4802632
-0.02481924 0.055408951 -0.00058017072 5788756
-0.023421517 0.054320864 -0.00075952051 5262669
-0.022020239 0.053230044 -0.00093932799 7824741
-0.020615391 0.052136421 -0.0011195889 9200997
-0.019206963 0.051040005 -0.0013003174 8282208
-0.017794931 0.049940787 -0.0014815064 6576473
-0.016379287 0.048838772 -0.0016631557 5854035
-0.014960023 0.047733899 -0.0018452755 6051928
-0.013537114 0.046626225 -0.0020278555 6443345
-0.012110606 0.045514274 -0.0022111458 8414308
-0.010680451 0.044398759 -0.0023950334 4539203
-0.0092466082 0.043280382 -0.0025793843 3158064
-0.0078090606 0.042159148 -0.0027642122 4013373
-0.0063682124 0.04102191 -0.0029517291 3289650
-0.0049366471 0.039447606 -0.0032131155 3223857
-0.003530696 0.036781792 -0.0036590032 2894892
-0.0021412107 0.03315774 -0.0042668241 3289650
-0.00067233597 0.032219455 -0.0044206446 2960685
0.00080929464 0.031692803 -0.0045048725 4276288
0.0022926908 0.031165551 -0.0045891958 6182743
0.0037778527 0.030637585 -0.0046736416 6379865
0.005264787 0.030109076 -0.0047581657 6445658
0.0067534959 0.02957991 -0.0048428024 6445658
0.0082439845 0.02905032 -0.0049274974 6445401
0.0097356439 0.028473169 -0.0050202329 140
0.011217781 0.02688054 -0.0052845557 140
0.012688796 0.02356272 -0.0058403783 140
0.014198983 0.023780327 -0.0057987822 140
0.015704012 0.02328586 -0.0058774995 65932
0.017167721 0.01316533 -0.007582657 131725
0.018650308 -0.002634712 -0.010247295 1447317
-0.084274925 0.056651331 0.00090043282 11769237
-0.082827173 0.05661165 0.00089842855 9013641
-0.081379317 0.056571968 0.00089641748 9013641
-0.079931349 0.056532227 0.00089439668 9802643
-0.078483254 0.056492545 0.00089239335 11770265
-0.077035047 0.056452863 0.00089038315 12685713
-0.075586721 0.056413177 0.00088838034 12619920
-0.074138291 0.056373436 0.00088636071 12619149
-0.072689742 0.05633375 0.00088435854 12556697
-0.071241073 0.056294005 0.00088233949 10000022
-0.069792293 0.05625426 0.00088032789 9408399
-0.068343401 0.056214575 0.00087831938 11836315
-0.066894382 0.05617483 0.00087630126 9539728
-0.065445252 0.056135144 0.00087430049 8684676
-0.063996002 0.056095455 0.00087229291 8684676
-0.062546641 0.056055769 0.00087029277 8750469
-0.061097175 0.056015961 0.00086826575 8684676
-0.059647571 0.055976391 0.00086628617 8618883
-0.058197863 0.055936702 0.00086427975 8553090
-0.056748036 0.055897012 0.00086227362 8553090
-0.05529809 0.055857383 0.00086028496 8553090
-0.053848036 0.055817693 0.00085827941 8421504
-0.052397866 0.055778001 0.00085628126 8421504
-0.050947577 0.055738311 0.0008542763 8355711
-0.049497176 0.055698618 0.00085227162 8289918
-0.048046652 0.055658985 0.00085028441 8158332
-0.04659602 0.055619292 0.00084828032 8158332
-0.045145277 0.055579539 0.00084627362 9013384
-0.04369441 0.055539846 0.00084427011 9998994
-0.042243436 0.05550015 0.00084227405 11048341
-0.040792339 0.055460457 0.00084027112 7626077
-0.039341129 0.055420764 0.00083826849 1644825
-0.03789274 0.055338711 0.00082918024 2368548
-0.036449831 0.055171765 0.00080587697 5195848
-0.035012368 0.054913886 0.00076733972 2697256
-0.03351599 0.055560078 0.0008801925 1513239
-0.032014992 0.056315701 0.0010113511 4736582
-0.030528573 0.056874353 0.001109528 5854549
-0.029066186 0.05705896 0.0011450682 5328462
-0.027626641 0.056856945 0.0011158924 3355443
-0.02620979 0.056235254 0.0010164552 4078909
-0.024803692 0.055375457 0.00087716314 4868168
-0.023406584 0.054287791 0.00069973432 4671046
-0.022005925 0.053197388 0.00052186206 5460048
-0.020601694 0.052104242 0.00034354642 6249050
-0.019193882 0.051008299 0.00016477026 5328462
-0.017782476 0.049909495 -1.446919e-05 2697513
-0.016367462 0.048807953 -0.00019415907 4407874
-0.014948859 0.047702778 -0.00037444217 6182486
-0.013526668 0.046593387 -0.00055542547 5459277
-0.012100819 0.04548125 -0.00073684484 8480101
-0.010671302 0.044366196 -0.00091875158 5656913
-0.009238096 0.043248285 -0.0011011214 2631720
-0.0078011891 0.042127512 -0.0012839542 3420979
-0.0063610184 0.040989723 -0.0014696246 4342081
-0.0049301311 0.039414715 -0.0017284408 4604996
-0.0035256355 0.036720458 -0.0021745113 4933961
-0.0021358568 0.03312989 -0.0027705217 5131083
-0.00066746876 0.032199264 -0.0029214546 5130826
0.00081347127 0.031672835 -0.0030047623 6511708
0.0022961749 0.031145805 -0.0030881581 8940138
0.0037806425 0.030618057 -0.0031716623 9987943
0.0052668815 0.03008977 -0.003255259 9202282
0.0067548933 0.029560823 -0.0033389612 9005674
0.0082447091 0.029033173 -0.0034224389 9070953
0.0097356103 0.028452011 -0.0035148633 140
0.011216969 0.026852444 -0.0037776225 140
0.012687463 0.023552734 -0.0043247319 140
0.014197255 0.023811635 -0.0042766151 140
0.015703166 0.023588851 -0.0043090512 140
0.017204599 0.022198679 -0.0045367386 140
0.018647136 -0.0022193897 -0.0086155757 460431
-0.084228605 0.056649663 0.0023600317 10918554
-0.082781576 0.056609966 0.0023580827 8816262
-0.081334427 0.056570273 0.0023561269 8816262
-0.079887144 0.056530636 0.0023541814 9408142
-0.078439765 0.056490939 0.0023522263 10328216
-0.076992266 0.056451302 0.0023502812 10656667
-0.075544648 0.056411605 0.0023483266 11443356
-0.074096926 0.056371905 0.0023463794 12162967
-0.072649069 0.056332268 0.0023444355 10919325
-0.071201116 0.056292512 0.0023424719 8947848
-0.069753036 0.056252871 0.0023405284 9671314
-0.068304852 0.056213114 0.0023385652 12683914
-0.066856548 0.05617341 0.0023366194 10853275
-0.065408126 0.05613371 0.0023346669 8750469
-0.063959584 0.056094009 0.0023327146 8750469
-0.06251093 0.056054309 0.0023307626 8684676
-0.061062168 0.056014549 0.002328801 8684676
-0.059613291 0.055974849 0.0023268494 8618883
-0.058164291 0.055935141 0.0023249055 8618883
-0.056715164 0.055895559 0.0023229746 8618883
-0.055265937 0.055855855 0.0023210242 8553090
-0.053816579 0.055816211 0.0023190838 8421504
-0.052367117 0.055776566 0.0023171438 8487297
-0.050917536 0.055736862 0.0023151943 8882055
-0.049467847 0.055697214 0.0023132621 9473678
-0.048018035 0.055657506 0.0023113131 9999251
-0.046568111 0.055617861 0.002309374 10786711
-0.045118071 0.055578154 0.0023074257 11703701
-0.043667912 0.055538505 0.0023054874 12618121
-0.042217642 0.055498797 0.0023035395 11833745
-0.040767252 0.055459145 0.0023016091 10654611
-0.039316755 0.055419438 0.0022996617 5921113
-0.037868947 0.055339191 0.0022909958 1644825
-0.036427062 0.055167664 0.0022672019 2631463
-0.034990363 0.054908834 0.0022289441 1644825
-0.033493754 0.055569753 0.0023431117 986895
-0.031993948 0.056318343 0.0024717981 3092014
-0.030508706 0.05686957 0.0025677742 3618615
-0.029047446 0.057047099 0.0026018173 6313815
-0.027608877 0.056840017 0.0025721281 6248022
-0.026192987 0.056213107 0.0024728801 6248279
-0.02478816 0.055341922 0.002333171 6248022
-0.023391666 0.054254737 0.0021576802 5196876
-0.021991616 0.05316481 0.0019817462 3881787
-0.020588005 0.052072085 0.0018053586 3487029
-0.019180814 0.050976619 0.0016285277 3289650
-0.017770045 0.049877994 0.0014511906 3026478
-0.016355745 0.048774846 0.0012731175 5657170
-0.014937825 0.047668781 0.0010945711 6773852
-0.013516258 0.046559975 0.00091558154 4998726
-0.012091043 0.045448247 0.00073611882 5525841
-0.010662159 0.044333663 0.00055619294 4604996
-0.0092295902 0.043216214 0.00037581116 3223857
-0.0077933255 0.042095907 0.00019495914 5065290
-0.0063538328 0.040957503 1.1132616e-05 7758177
-0.0049236189 0.039381906 -0.0002450934 8414308
-0.0035205812 0.036659189 -0.0006912683 9070696
-0.0021305087 0.033102073 -0.0012755849 9595498
-0.00066261127 0.032178998 -0.0014236863 9595498
0.00081763993 0.031652793 -0.0015060592 8350057
0.0022996529 0.031125985 -0.0015885276 7759205
0.0037834293 0.030598519 -0.0016711015 9004646
0.0052689752 0.03007051 -0.0017537537 6905695
0.0067563145 0.029543208 -0.0018362886 6380379
0.0082454337 0.029016076 -0.0019187891 6445915
0.0097355768 0.028430838 -0.0020108987 2894237
0.011216157 0.026824329 -0.0022720797 2697116
0.012686132 0.023542691 -0.0028105499 2565532
0.014195168 0.023797395 -0.002763578 2368411
0.015700707 0.023630178 -0.0027864566 2236826
0.017202437 0.02248838 -0.0029706485 2039449
0.01864397 -0.0018048843 -0.0069869421 1973656
-0.085628569 0.056687634 0.0038201027 11639193
-0.084182352 0.056647986 0.0038182116 10393752
-0.082736008 0.056608398 0.0038163308 9211020
-0.081289567 0.05656869 0.0038144232 9210763
-0.079843 0.056529038 0.0038125331 9013641
-0.07839632 0.056489389 0.0038106432 8750469
-0.076949522 0.056449737 0.0038087536 8684676
-0.075502612 0.056410085 0.0038068641 10459545
-0.074055582 0.056370433 0.0038049752 11443613
-0.072608449 0.056330778 0.0038030865 8684676
-0.071161188 0.056291066 0.003801188 8750469
-0.069713823 0.056251355 0.0037992899 10131351
-0.06826634 0.056211699 0.0037974021 12812673
-0.066818736 0.056171987 0.0037954974 12097431
-0.065371022 0.056132391 0.00379362 9211020
-0.063923195 0.056092676 0.0037917232 9211020
-0.062475245 0.05605302 0.0037898365 9276556
-0.061027192 0.056013245 0.0037879301 9342606
-0.059579015 0.05597353 0.003786034 9473935
-0.05813073 0.055933755 0.0037841282 9671057
-0.056682326 0.055894036 0.0037822325 9999765
-0.055233806 0.055854321 0.0037803373 10262423
-0.053785171 0.055814542 0.0037784325 10590617
-0.052336417 0.055774882 0.0037765477 11049626
-0.050887547 0.055735223 0.0037746634 11508378
-0.049438555 0.055695564 0.0037727722 12031638
-0.047989458 0.055655904 0.0037708883 12618892
-0.046540238 0.055616245 0.003769005 12292497
-0.045090903 0.055576582 0.0037671218 11310485
-0.043641455 0.055536918 0.0037652389 10195859
-0.042191893 0.055497259 0.0037633562 9078920
-0.040742218 0.055457536 0.0037614638 7960953
-0.039292421 0.055417873 0.0037595818 7829367
-0.037845183 0.055339664 0.0037513785 5987163
-0.036404304 0.055163674 0.0037271352 2368548
-0.034968372 0.054903831 0.0036891396 986895
-0.03347154 0.055579491 0.0038045791 921102
-0.031972922 0.05632098 0.0039308053 2697513
-0.030488858 0.056864891 0.0040246216 3355443
-0.02902873 0.057035223 0.004057169 6314072
-0.027591329 0.056819681 0.0040264395 6313815
-0.026176209 0.056190927 0.0039279503 6314072
-0.024772644 0.055308469 0.0037878728 6773338
-0.023376755 0.054221768 0.003614313 7429726
-0.021977324 0.053132202 0.00344029 6050900
-0.020574329 0.052039951 0.0032658477 4999497
-0.019167842 0.050943125 0.0030906592 4802375
-0.017757775 0.049843192 0.0029149817 5327948
-0.0163441 0.048740402 0.0027388409 7562597
-0.014926801 0.04763487 0.0025622642 4933704
-0.013505864 0.046526533 0.0023852412 4539203
-0.012081278 0.045415215 0.0022077423 5985621
-0.010653025 0.044301156 0.0020298001 4144959
-0.0092210947 0.043184172 0.0018513992 6183257
-0.0077854693 0.042064331 0.0016725352 5065033
-0.0063466523 0.040925376 0.0014905552 6313558
-0.0049171615 0.039347529 0.0012366539 5523785
-0.0035155287 0.036597978 0.00079073285 4538689
-0.0021251664 0.033074237 0.00021796879 4341824
-0.00065775547 0.03215884 7.2697803e-05 4407617
0.00082180701 0.031632856 -8.754897e-06 4144702
0.0023031293 0.031106269 -9.0288784e-05 3947580
0.0037862144 0.030579085 -0.00017192526 4802632
0.0052710832 0.030052189 -0.00025350729 7430497
0.0067577371 0.029525878 -0.00033498491 7693412
0.0082461582 0.028999029 -0.00041654802 7758948
0.0097355423 0.028409654 -0.00050834537 8217461
0.011215347 0.026796313 -0.00076789962 7823474
0.012684803 0.023532644 -0.0012978151 8544387
0.014193084 0.02378309 -0.0012519911 8806531
0.015697915 0.023616925 -0.0012744247 8540566
0.017198887 0.022466686 -0.001458056 8606357
0.018640811 -0.0013910757 -0.0053613791 7687320
-0.085581645 0.056685966 0.0052767941 12683914
-0.084136121 0.056646362 0.0052749682 11705243
-0.0826905 0.056606699 0.0052731331 11509149
-0.081244752 0.056567095 0.0052713007 11443613
-0.079798892 0.056527432 0.005269466 10065815
-0.078352913 0.056487828 0.0052676341 8684676
-0.07690683 0.056448162 0.0052657998 8750469
-0.07546062 0.056408495 0.0052639656 9473935
-0.074014299 0.056368891 0.0052621351 9539728
-0.072567865 0.056329224 0.0052603018 8684676
-0.071121305 0.056289617 0.0052584712 9013641
-0.069674656 0.05624989 0.0052566286 10787739
-0.06822788 0.056210224 0.0052547958 12878466
-0.066780962 0.056170672 0.0052529764 12358033
-0.065333955 0.056131005 0.0052511445 11508892
-0.063886836 0.056091335 0.0052493131 11508892
-0.062439602 0.056051608 0.0052474644 11574428
-0.060992241 0.056011938 0.0052456334 11705500
-0.059544768 0.055972267 0.0052437955 11901594
-0.058097195 0.055932477 0.0052419449 12031895
-0.056649499 0.055892807 0.0052401144 12358804
-0.055201687 0.055853076 0.0052382676 12619920
-0.05375376 0.055813342 0.0052364278 12881036
-0.052305717 0.055773608 0.0052345884 12424083
-0.050857559 0.055733878 0.0052327495 12031895
-0.049409281 0.055694144 0.0052309036 11245977
-0.047960889 0.05565447 0.005229075 10458774
-0.046512388 0.055614676 0.0052272268 9605007
-0.045063771 0.055574942 0.0052253818 8618883
-0.043615021 0.055535387 0.0052235741 7895160
-0.042166166 0.055495709 0.0052217399 7829367
-0.040717196 0.055456035 0.0052199131 7895160
-0.039268106 0.055416416 0.0052180961 7960953
-0.037822109 0.055330463 0.0052087549 7960953
-0.036381576 0.055159613 0.005185633 7960953
-0.034946404 0.054898757 0.0051479135 6313815
-0.033449348 0.055589169 0.0052645751 3289136
-0.031951923 0.056323554 0.0053883619 3026478
-0.030469028 0.056860145 0.0054800473 3158064
-0.029010024 0.057023384 0.0055111405 5657170
-0.027574049 0.05679499 0.0054786806 5920085
-0.026159439 0.05616878 0.0053816689 6905181
-0.024757141 0.055274982 0.0052412488 8544866
-0.023361864 0.054188758 0.00506962 8742759
-0.021963103 0.053098485 0.0048973421 9136746
-0.020560827 0.052004579 0.0047244853 8086628
-0.019154966 0.050907932 0.0045511918 7232090
-0.017745517 0.049808417 0.0043774499 6444373
-0.016332464 0.048706099 0.0042032683 4933704
-0.014915786 0.047600977 0.0040286412 3552565
-0.013495474 0.046493113 0.0038535777 4210495
-0.01207152 0.045382269 0.0036780452 5394512
-0.010643902 0.044268616 0.0035020669 3881787
-0.0092126057 0.043152101 0.0033256398 4342338
-0.007777621 0.042032722 0.0031487639 3947580
-0.0063394816 0.040893156 0.0029686205 4144959
-0.0049107219 0.039312821 0.0027170039 3750201
-0.0035105294 0.036535166 0.0022712268 4276545
-0.0021198296 0.033046436 0.0017101566 4605253
-0.00065290363 0.032138668 0.0015676774 4671046
0.00082597008 0.031612907 0.0014871521 4671046
0.0023066038 0.031086601 0.0014065484 4671303
0.0037890065 0.030560113 0.0013259193 8350571
0.0052732029 0.030034686 0.0012454675 9989485
0.0067591602 0.029508596 0.0011649171 9858156
0.008246881 0.028981967 0.0010842815 9792877
0.0097355088 0.028388515 0.0009928135 9793134
0.011214484 0.02676353 0.00073411939 9858670
0.012683474 0.023522658 0.00021347534 9793134
0.014191002 0.023768838 0.00025817277 9136489
0.015695127 0.023603667 0.00023617416 6575237
0.017195329 0.022442248 5.2686675e-05 5458087
0.018637655 -0.00097808836 -0.0037388867 6966430
-0.085534766 0.056684285 0.0067320741 11835544
-0.084089957 0.056644671 0.0067302962 11771036
-0.082645021 0.056605112 0.006728529 11771036
-0.081199989 0.056565437 0.0067267423 11509149
-0.079754829 0.056525875 0.0067249825 9934229
-0.078309551 0.056486256 0.006723206 8816262
-0.076864168 0.056446638 0.00672143 9342606
-0.075418673 0.05640696 0.0067196516 9737107
-0.073973052 0.056367341 0.0067178761 9736850
-0.072527319 0.056327719 0.0067161005 9671314
-0.071081482 0.056288037 0.0067143231 9605521
-0.069635518 0.056248415 0.006712548 10853275
-0.06818942 0.056208972 0.0067108041 12487820
-0.06674324 0.056169294 0.0067090197 12423826
-0.065296926 0.056129668 0.0067072529 11967130
-0.063850507 0.056089986 0.0067054695 11836315
-0.062403984 0.056050304 0.0067036864 11967387
-0.060957331 0.056010619 0.0067019104 11967644
-0.059510566 0.055970933 0.0067001279 12620434
-0.058063701 0.055931188 0.006698343 12293782
-0.056616705 0.055891506 0.0066965609 11312284
-0.055169594 0.05585188 0.006694789 10787482
-0.053722374 0.055812132 0.0066930046 10393752
-0.052275028 0.055772446 0.0066912235 10328216
-0.050827581 0.055732701 0.0066894325 9736850
-0.049380019 0.055692956 0.0066876491 8816262
-0.047932327 0.055653326 0.0066858786 8224125
-0.046484534 0.055613577 0.0066840961 8092539
-0.045036618 0.055573888 0.0066823163 8026746
-0.043588594 0.055534083 0.006680517 7960953
-0.042140454 0.055494331 0.0066787349 7960953
-0.040692192 0.055454642 0.0066769561 7960953
-0.039243821 0.055414893 0.0066751745 8026746
-0.037799288 0.055317983 0.0066642058 8026746
-0.036359385 0.055147883 0.0066414927 8552833
-0.034924459 0.054893792 0.0066052885 10393238
-0.033427183 0.055598855 0.0067231092 8684676
-0.031930938 0.056326184 0.0068444954 7960953
-0.030449217 0.056855448 0.0069340714 8947334
-0.028991338 0.057011589 0.0069637322 9012870
-0.027556781 0.056770384 0.0069295946 9866123
-0.02614269 0.056146603 0.0068340329 11241865
-0.024741687 0.055240914 0.006693223 11700103
-0.023347128 0.05415304 0.0065231724 11961990
-0.021949021 0.053062357 0.0063526826 11898253
-0.020547347 0.051968928 0.006181764 11898510
-0.019142104 0.050872698 0.0060104057 9860212
-0.01773327 0.04977366 0.0058386088 4736839
-0.016320834 0.048671819 0.0056663728 4013373
-0.014904781 0.047567174 0.0054936977 5263183
-0.013485095 0.04645972 0.0053205909 6644579
-0.012061768 0.045349404 0.0051470282 5921370
-0.010634783 0.044236161 0.0049730134 5592405
-0.009204125 0.043120116 0.0047985604 3618615
-0.0077697788 0.042001203 0.004623658 3487029
-0.0063323146 0.040861085 0.0044453614 3355443
-0.0049042888 0.039278083 0.0041960138 4802632
-0.003505558 0.036471527 0.0037503361 7365732
-0.0021144971 0.033018671 0.0032009855 7956070
-0.00064805947 0.032118481 0.0030612596 8021863
0.00083012937 0.031592999 0.0029816718 7956327
0.0023100725 0.031066919 0.0029019883 7955813
0.0037918186 0.030542314 0.0028225523 10051680
0.0052753198 0.03001711 0.0027430207 8022377
0.0067605809 0.029491305 0.0026634005 7825512
0.0082476037 0.028964899 0.0025836851 7825512
0.0097354762 0.02836748 0.0024925878 7891048
0.01121356 0.026725436 0.0022339304 7825512
0.012682154 0.0235135 0.0017234584 7694183
0.014188922 0.023754645 0.0017669066 7300196
0.015692338 0.023590405 0.0017453328 6117207
0.017191766 0.022416489 0.0015618122 4802149
0.018634507 -0.00056586339 -0.0021194541 3880609
-0.085487939 0.056682602 0.0081859203 9342349
-0.084043823 0.056643032 0.0081842085 9408399
-0.082599595 0.056603458 0.0081824968 9473935
-0.081155263 0.056563828 0.0081807747 9342606
-0.079710804 0.056524254 0.0081790639 8947848
-0.078266233 0.056484681 0.0081773521 9408399
-0.076821558 0.056445047 0.008175632 11181469
-0.075376756 0.056405474 0.0081739211 12032152
-0.073931843 0.056365781 0.0081721907 11966359
-0.072486818 0.056326207 0.0081704808 11836572
-0.071041681 0.05628657 0.0081687616 9605264
-0.069596395 0.056247171 0.0081670824 9671057
-0.068151027 0.056207538 0.0081653632 12162196
-0.066705547 0.056167901 0.008163644 10853789
-0.065259941 0.056128263 0.0081619257 9736850
-0.063814223 0.056088626 0.0081602074 9539728
-0.062368397 0.056048989 0.0081584891 10262680
-0.060922448 0.056009352 0.0081567718 10197144
-0.05947639 0.055969656 0.0081550451 12686227
-0.058030225 0.055929955 0.0081533175 10984861
-0.05658393 0.055890318 0.0081516011 8750469
-0.055137534 0.055850618 0.0081498744 8553090
-0.053691015 0.055810917 0.0081481487 8487297
-0.052244388 0.055771217 0.0081464294 9145227
-0.050797638 0.055731516 0.0081447037 8618883
-0.049350776 0.055691816 0.0081429789 8355711
-0.047903799 0.055652112 0.0081412541 8224125
-0.046456698 0.055612471 0.0081395386 8092539
-0.045009498 0.055572767 0.0081378147 8026746
-0.04356217 0.055533066 0.0081360908 8421504
-0.042114735 0.055493362 0.0081343669 8026746
-0.040667184 0.055453598 0.0081326328 8092539
-0.039219514 0.055413954 0.0081309201 8092539
-0.037776489 0.055305421 0.0081182634 8158332
-0.036337268 0.055135425 0.0080958428 8750212
-0.034902532 0.054888815 0.0080612516 8947591
-0.033473611 0.054538574 0.0080101993 8816005
-0.031945772 0.055755015 0.0082080364 8882055
-0.03046594 0.056249082 0.0082911085 9867922
-0.02900517 0.056448773 0.0083274106 10590103
-0.027572593 0.056168552 0.008287482 11638422
-0.026155081 0.055600472 0.0082018273 12226704
-0.024749855 0.0547687 0.0080742911 12423569
-0.023349784 0.053784221 0.0079225153 12357776
-0.02194649 0.052797537 0.0077703982 11770008
-0.020540241 0.051802997 0.0076170419 12096403
-0.019132268 0.050773464 0.0074581411 11441814
-0.017722266 0.049711786 0.0072941408 9079177
-0.016309217 0.048637558 0.0071281684 8224125
-0.014893785 0.047533385 0.0069574458 8684419
-0.013474728 0.046426348 0.0067862812 8355711
-0.012052027 0.045316506 0.0066146781 8092539
-0.010625675 0.044203732 0.0064426302 7895160
-0.0091956519 0.043088157 0.0062701432 6118492
-0.0077619459 0.041969653 0.0060972045 6577758
-0.006325156 0.040828981 0.0059207617 6577758
-0.0048978589 0.03924343 0.0056736958 7366503
-0.0035005885 0.036408003 0.0052282279 9072495
-0.0021091702 0.032990884 0.0046904385 10120300
-0.0006432173 0.032098334 0.0045534545 9072495
0.00083428284 0.031573076 0.004474787 8810351
0.0023135771 0.031048942 0.0043962994 8875887
0.0037946289 0.030524563 0.0043177763 9005417
0.0052774367 0.029999642 0.004239182 5591891
0.0067619998 0.029474 0.0041604722 5657684
0.0082483254 0.028947877 0.0040816944 5657684
0.0097354418 0.028346311 0.0039909449 5591891
0.011212638 0.026687372 0.0037323968 5526098
0.012680837 0.023504401 0.0032320041 5394769
0.014186843 0.023740383 0.0032742044 5065804
0.015689554 0.023577137 0.0032530588 4342081
0.017188208 0.022390654 0.0030695377 5131083
0.018631365 -0.00015452123 -0.00050309428 2763140
-0.08544115 0.056680962 0.0096383654 8289918
-0.083997741 0.056641378 0.0096367085 8355711
-0.082554206 0.056601852 0.0096350554 8553090
-0.081110574 0.056562267 0.0096333986 9407628
-0.079666823 0.056522679 0.0096317427 9407885
-0.078222968 0.05648303 0.0096300766 9605264
-0.076778986 0.056443445 0.0096284142 10853275
-0.075334892 0.056403857 0.0096267592 11573657
-0.073890679 0.056364272 0.0096250968 11309714
-0.072446354 0.056324683 0.0096234428 10391953
-0.071001887 0.056285333 0.0096218213 7631988
-0.069557332 0.0562458 0.0096201766 7894903
-0.068112664 0.056206152 0.0096185133 10983319
-0.066667885 0.056166504 0.0096168425 8684419
-0.065222986 0.056126911 0.0096151894 9801358
-0.063777968 0.056087319 0.0096135363 9998994
-0.062332854 0.056047607 0.0096118636 9473935
-0.060887612 0.056008015 0.009610205 9408399
-0.059442256 0.055968363 0.0096085425 10656410
-0.057996783 0.055928711 0.0096068811 9408142
-0.056551203 0.055888999 0.0096052093 8421504
-0.055105507 0.055849347 0.0096035413 8289918
-0.053659696 0.055809692 0.0096018799 8421504
-0.052213769 0.055770036 0.0096002193 8684676
-0.050767727 0.055730321 0.0095985495 8421504
-0.04932157 0.055690669 0.0095968824 8355711
-0.047875289 0.055651013 0.0095952228 8816262
-0.046428908 0.055611294 0.0095935529 9473678
-0.044982404 0.055571638 0.0095918942 10261909
-0.043535788 0.055531919 0.0095902253 9736593
-0.042089045 0.055492323 0.0095885694 8092539
-0.040642183 0.055452842 0.0095869415 8289918
-0.039195243 0.055412829 0.0095852232 8947848
-0.037754104 0.055287257 0.0095700622 8421504
-0.036315169 0.055123061 0.0095488299 8750212
-0.034880623 0.054883827 0.0095158042 9736593
-0.033452466 0.054532468 0.0094651598 9408142
-0.032030791 0.054058414 0.0093952343 9736593
-0.030611584 0.05351733 0.0093147829 11049112
-0.029190594 0.052975584 0.0092342403 11965331
-0.027785799 0.052119162 0.0091042481 11899024
-0.026285224 0.052934617 0.0092369718 11901080
-0.024845218 0.052677292 0.0092011224 12488334
-0.023424821 0.052027501 0.0091036158 11377563
-0.022006413 0.051294934 0.0089931097 11050140
-0.020588389 0.050503593 0.0088733714 12356234
-0.019172262 0.049615208 0.0087383995 11704729
-0.01775321 0.048724968 0.0086031472 8553090
-0.01633174 0.047821231 0.0084657753 8224125
-0.014908563 0.046885274 0.0083233574 8487297
-0.013484882 0.045883108 0.0081705479 8289918
-0.012058055 0.044874631 0.0080167577 5855577
-0.010627998 0.043861147 0.0078621944 6579043
-0.0091945957 0.042845272 0.0077072685 7894903
-0.0077578318 0.041827068 0.0075519825 10651013
-0.0063182362 0.040789533 0.0073936712 11506065
-0.0048921579 0.03918479 0.0071462886 10851733
-0.003495625 0.036344539 0.0067048855 11244435
-0.0021039422 0.032959566 0.0061779688 11767695
-0.00063837884 0.032078229 0.0060442621 10261652
0.00083846319 0.031554446 0.0059667104 10327188
0.0023170759 0.031030951 0.0058892062 10327445
0.0037974371 0.030506857 0.0058116131 9736336
0.0052795508 0.029982159 0.0057339319 8355711
0.0067634196 0.029456802 0.0056561525 8289918
0.0082490463 0.028930843 0.0055782846 7960953
0.0097353123 0.028317874 0.005486764 7697524
0.011211716 0.026649278 0.005229516 6974058
0.012679521 0.023495359 0.0047391057 3487029
0.014184768 0.02372623 0.0047800965 3684408
0.015686145 0.023462476 0.004743435 3552822
0.017183838 0.022183778 0.0045474544 4407874
0.018628228 0.00025617078 0.0011102468 3749719
-0.085394412 0.056679253 0.011089389 6052956
-0.083951704 0.056639716 0.01108779 5789784
-0.082508869 0.056600235 0.011086202 7368559
-0.081065938 0.056560636 0.011084594 9928061
-0.079622895 0.056521036 0.011082993 9600895
-0.078179725 0.056481495 0.011081396 7434095
-0.07673645 0.056441896 0.011079788 8026232
-0.075293064 0.056402292 0.011078188 9275785
-0.073849559 0.056362692 0.011076582 10064530
-0.072405905 0.056323387 0.011075025 7829367
-0.070962153 0.056283962 0.011073449 7368816
-0.069518313 0.056244299 0.011071833 7368816
-0.068074338 0.056204755 0.011070245 8421247
-0.066630259 0.056165151 0.011068639 7631988
-0.065186068 0.056125548 0.011067035 11570573
-0.063741751 0.05608594 0.011065437 11700103
-0.062297337 0.056046337 0.011063833 7960439
-0.060852796 0.05600673 0.011062228 6645093
-0.059408147 0.055967063 0.011060622 7236973
-0.057963382 0.055927455 0.011059018 7829110
-0.056518503 0.055887789 0.011057412 8486783
-0.055073507 0.055848181 0.011055809 9210506
-0.053628396 0.055808514 0.011054204 9671057
-0.05218317 0.055768907 0.011052601 9670543
-0.050737835 0.055729177 0.011050979 10327702
-0.049292378 0.055689566 0.011049384 10787225
-0.047846813 0.055649899 0.011047773 11377306
-0.046401132 0.055610228 0.011046168 12096917
-0.044955328 0.055570558 0.011044558 12750735
-0.043509416 0.055530887 0.011042954 9933458
-0.042063367 0.055491511 0.011041394 9736336
-0.040617205 0.055452079 0.011039824 10458517
-0.039174434 0.055363249 0.011030572 10458774
-0.037735347 0.05521699 0.011012395 8289918
-0.036296174 0.055064909 0.010993311 8750469
-0.034867361 0.05474769 0.010948562 11377563
-0.033445098 0.054311696 0.010885349 9408142
-0.032020066 0.053896617 0.010825396 10393495
-0.030593062 0.053491049 0.010766918 12162967
-0.029180955 0.052809644 0.010665574 12030610
-0.027775949 0.051964041 0.010538712 11245206
-0.026368245 0.051115572 0.010411412 11312284
-0.02496212 0.050184522 0.010271289 11900309
-0.023567731 0.048967931 0.010086803 10262423
-0.022179091 0.047555562 0.0098718954 10721432
-0.020795595 0.045939505 0.0096253483 12161168
-0.019419869 0.044041637 0.0093350327 10853018
-0.017989177 0.043214481 0.0092111174 8289918
-0.016519079 0.043226503 0.0092176115 7829367
-0.015048569 0.043249883 0.0092258658 7894903
-0.013578273 0.043270402 0.0092336833 7894132
-0.012121346 0.042946171 0.0091879312 8484984
-0.010678952 0.042197812 0.0090762852 10387584
-0.0092340792 0.041448075 0.0089644361 11238010
-0.0077905641 0.040581983 0.008834512 11769237
-0.0063496479 0.03954168 0.0086775366 11377049
-0.0049184812 0.038059276 0.0084518911 10787225
-0.0035286434 0.034939632 0.0079719294 11311513
-0.0021037017 0.032741114 0.0076350849 10655639
-0.00063563226 0.031974398 0.0075206719 9998737
0.00084161211 0.031491566 0.007450358 10064530
0.0023200749 0.030989937 0.0073771332 9472907
0.0038002152 0.030487828 0.00730384 8684419
0.0052816616 0.029964665 0.0072272774 8487040
0.0067648352 0.029439531 0.0071504186 9144970
0.0082497671 0.028913796 0.0070734709 8289661
0.009735167 0.028288227 0.0069810217 7697524
0.01121079 0.026610849 0.0067252521 6644836
0.012678206 0.023486314 0.006244767 6972516
0.01418222 0.02365214 0.0062752482 5722449
0.015681727 0.023185033 0.006207448 4736839
0.017174128 0.020788899 0.0058401367 5196876
0.018625099 0.00066603487 0.0027205392 5196876
-0.085347705 0.056677654 0.012539007 9208193
-0.083905704 0.056638099 0.012537463 6316128
-0.082463592 0.056598488 0.01253591 7039851
-0.081021346 0.056558993 0.012534377 9077121
-0.079579011 0.056519382 0.012532825 11239038
-0.078136541 0.056479886 0.012531293 11697533
-0.076693974 0.056440271 0.01252974 9930631
-0.075251266 0.056400776 0.012528209 9143685
-0.073808439 0.056361459 0.0125267 10193546
-0.0723655 0.056322079 0.012525189 7237230
-0.070922457 0.05628252 0.012523648 6513507
-0.069479309 0.056242965 0.012522108 6381921
-0.068036057 0.056203347 0.012520557 6513507
-0.066592671 0.056163788 0.012519018 6513507
-0.065149181 0.056124169 0.012517468 8157818
-0.063705578 0.056084611 0.012515929 11958906
-0.062261853 0.056044992 0.012514379 11502981
-0.06081802 0.056005433 0.01251284 9538443
-0.059374079 0.055965751 0.012511282 11046285
-0.057930008 0.055926193 0.012509744 12092034
-0.056485828 0.05588657 0.012508196 12223620
-0.05504154 0.055846948 0.012506648 11960448
-0.053597137 0.05580727 0.012505091 11696762
-0.052152611 0.055767704 0.012503554 12420485
-0.050707977 0.055728022 0.012501997 12619406
-0.049263228 0.0556884 0.012500457 12357262
-0.047818355 0.055648774 0.012498911 12292497
-0.046373375 0.055609152 0.012497365 12227732
-0.044928279 0.055569526 0.012495819 12552585
-0.043483309 0.055526748 0.012493787 11245463
-0.042044304 0.055401903 0.012479139 12096660
-0.04060898 0.055220675 0.012455816 12750735
-0.039190199 0.054797452 0.012395293 9933715
-0.037757806 0.054550618 0.012361887 8289918
-0.036325376 0.054292187 0.012326704 9539728
-0.034894168 0.05400211 0.01228666 10131094
-0.033465717 0.053653803 0.012237664 9671057
-0.032038484 0.053267311 0.012182802 10525081
-0.030615678 0.052786369 0.012113419 11312027
-0.029201973 0.052123606 0.012016095 10918297
-0.027786084 0.051459879 0.01191863 10196373
-0.026376408 0.050643951 0.011797769 10853018
-0.024975918 0.049606103 0.011642803 10262423
-0.023572043 0.048565861 0.01148749 9342349
-0.022175133 0.047317673 0.011300216 10589846
-0.020794706 0.045644388 0.01104762 11377049
-0.01941973 0.043734476 0.010758668 8947591
-0.018032204 0.041958541 0.010490335 7895160
-0.016641146 0.040125661 0.010213263 6973801
-0.015249213 0.038165294 0.0099166203 8943736
-0.01385102 0.036195382 0.009618531 9333868
-0.012446489 0.034216523 0.0093190866 8611173
-0.010997268 0.033269618 0.0091782417 9666174
-0.0095104612 0.033302162 0.0091879144 10851219
-0.0080236522 0.033338752 0.0091982018 11180184
-0.0065369993 0.033374928 0.0092084259 10393495
-0.005051177 0.033388201 0.0092151305 9998994
-0.0035965927 0.032300107 0.0090526203 10195602
-0.0021349182 0.031340238 0.0089098252 9276299
-0.00065669179 0.030914754 0.0088491337 9603979
0.00082273193 0.03047945 0.00878694 9406086
0.0023036087 0.030043721 0.0087246876 7434609
0.0037859383 0.029607631 0.0086623784 8880513
0.0052697225 0.029171059 0.0086000077 9273986
0.0067545157 0.028706821 0.0085333865 9537158
0.0082407938 0.02823752 0.0084659904 9273986
0.0097267823 0.02762479 0.0083765788 9734537
0.011193695 0.025141571 0.0079998821 9470851
0.012675087 0.02328923 0.0077201105 7497832
0.014176792 0.023213208 0.0077131544 5919828
0.015673922 0.022361049 0.0075870114 4539460
0.017147355 0.015604295 0.006554137 5328205
0.018621974 0.0010751239 0.0043278146 6051414
-0.085301064 0.056675922 0.013987199 8552319
-0.083859757 0.056636415 0.013985714 6447714
-0.082418345 0.056596849 0.013984227 6645093
-0.080976814 0.056557283 0.013982738 7566195
-0.079535164 0.056517772 0.013981255 9143428
-0.078093395 0.056478266 0.013979778 9800330
-0.076651528 0.056438696 0.013978284 8683648
-0.075209491 0.056399483 0.013976851 8092282
-0.073767364 0.056360152 0.013975397 8354940
-0.07232514 0.056320641 0.013973922 6974058
-0.070882812 0.056281071 0.013972436 6579300
-0.069440365 0.056241501 0.013970943 6513507
-0.067997806 0.056201927 0.013969459 6513507
-0.066555128 0.056162357 0.013967967 10587019
-0.06511233 0.056122843 0.013966492 11110536
-0.063669436 0.05608321 0.013964999 11891057
-0.062226418 0.05604364 0.013963507 11695477
-0.060783278 0.056004126 0.013962034 9209478
-0.05934003 0.055964548 0.013960551 8749441
-0.057896674 0.055924915 0.01395905 9866123
-0.056453194 0.055885281 0.013957558 9866123
-0.055009607 0.055845704 0.013956076 9800330
-0.053565897 0.05580613 0.013954586 9866380
-0.052122086 0.055766433 0.013953085 10129295
-0.050678149 0.055726856 0.013951603 9537158
-0.049234103 0.055687219 0.013950112 9340036
-0.047789935 0.055647641 0.013948624 10064016
-0.046348527 0.055571828 0.013941631 11507607
-0.044909991 0.055455972 0.013928548 12748422
-0.043492079 0.055063378 0.013873377 12424597
-0.042081356 0.054556184 0.01380078 11967130
-0.040665798 0.05409218 0.013734764 11574428
-0.039267156 0.053367198 0.013629057 8553090
-0.037871037 0.052570388 0.013512443 8421504
-0.036494698 0.051440001 0.013345106 9605521
-0.035092101 0.050651316 0.013229747 9539728
-0.033670448 0.050118662 0.01315332 9539728
-0.032217443 0.05006066 0.013149067 10394009
-0.030763246 0.050019376 0.013147353 10525081
-0.029322978 0.049739476 0.01310937 9736593
-0.027883241 0.049434051 0.0130675 8750469
-0.026458869 0.048833419 0.012980763 10590874
-0.025052581 0.047858965 0.012837197 8487297
-0.023643117 0.046882298 0.012693312 8421504
-0.022240773 0.045698833 0.012518 10656924
-0.020849276 0.044210382 0.012296343 9801872
-0.019456334 0.042645447 0.01206308 7631731
-0.018058352 0.041074775 0.011828957 6118492
-0.016666731 0.03923618 0.011554132 7892847
-0.015269383 0.037385479 0.011277488 9268846
-0.01385544 0.03579171 0.01103991 10249830
-0.012442078 0.034042604 0.01077874 10193803
-0.011028626 0.032134879 0.010493489 10656410
-0.0096322782 0.029555622 0.01010621 10721946
-0.0083650965 0.022846576 0.0090914266 10393495
-0.0068619419 0.022863656 0.0090987384 9473678
-0.0053588692 0.022880625 0.0091060158 8486783
-0.0038558743 0.02289765 0.0091133099 7302766
-0.002352956 0.02291467 0.0091206189 7763060
-0.00085011759 0.022931695 0.0091279121 8484727
0.00065264048 0.022948664 0.0091351895 9340293
0.0021553223 0.02296569 0.0091424827 7105644
0.0036579247 0.022982655 0.009149773 9143428
0.0051648393 0.023242198 0.0091939103 9537415
0.0066676382 0.023305828 0.0092082769 9537415
0.0081701996 0.023369396 0.0092226397 9471622
0.009667553 0.023050584 0.0091789206 9406086
0.011168617 0.022966133 0.0091708116 8880256
0.012668457 0.022726409 0.0091391131 5789527
0.014166551 0.022165239 0.0090585854 4144702
0.015650317 0.018990451 0.0085811485 3487029
0.017132286 0.013026296 0.0076801549 3552822
0.018618856 0.0014834993 0.0059320754 5328462
-0.085254468 0.056674238 0.01543399 7171437
-0.083813854 0.056634717 0.015432561 6513507
-0.082373142 0.056595199 0.015431131 6513507
-0.080932312 0.056555677 0.015429702 6776679
-0.079491362 0.056516156 0.015428272 7236973
-0.078050286 0.05647669 0.015426861 7500402
-0.076609083 0.056437466 0.015425475 7171437
-0.075167783 0.056398004 0.015424057 6908265
-0.073726378 0.056358419 0.015422619 6908265
-0.072284855 0.056318957 0.015421201 7237230
-0.070843212 0.056279551 0.015419794 9340293
-0.06940145 0.056240086 0.015418378 9208707
-0.067959592 0.056200556 0.015416957 9011585
-0.066517614 0.056161031 0.015415532 11566975
-0.065075532 0.056121446 0.015414095 10258825
-0.063633315 0.056081921 0.015412669 10193032
-0.062191002 0.056042332 0.015411241 10193032
-0.060748577 0.056002744 0.015409806 8355197
-0.059306026 0.055963218 0.01540838 7171437
-0.057863358 0.055923689 0.015406956 7763317
-0.056420591 0.055884097 0.015405528 8486526
-0.0549777 0.055844452 0.015404084 8749441
-0.053534694 0.055804919 0.015402661 9078149
-0.05209158 0.055765271 0.015401224 8223611
-0.05064835 0.055725679 0.01539979 7960696
-0.049208719 0.055641145 0.015391605 9407114
-0.047773592 0.055497617 0.015374543 8880513
-0.046353612 0.05515717 0.015327865 8157304
-0.044947289 0.054625932 0.015252497 10720404
-0.043548472 0.053972229 0.015158722 11050654
-0.04223077 0.052195087 0.014896012 10919582
-0.040932395 0.050068185 0.014580722 9802643
-0.039627556 0.04793071 0.014263872 8487297
-0.038307335 0.045911081 0.013964757 9013641
-0.036966115 0.04410157 0.013697263 9736593
-0.03560159 0.042553611 0.013469105 9605264
-0.034197625 0.041540287 0.013321352 9342349
-0.032788038 0.040562309 0.013178919 9539471
-0.031330448 0.040322285 0.013147439 9407885
-0.029859843 0.040289853 0.013147165 8947848
-0.028389145 0.040257473 0.013146902 9276556
-0.026918357 0.040225036 0.013146635 9933458
-0.025447484 0.0401926 0.013146362 9013127
-0.023976529 0.040159922 0.013146056 7697267
-0.022505511 0.040126771 0.013145678 7500145
-0.021034567 0.040090166 0.013144784 6250078
-0.019587953 0.039533336 0.0130657 7104102
-0.01816434 0.038427275 0.012904081 7365732
-0.016734093 0.037387647 0.012752455 7498089
-0.015308566 0.036151405 0.012571299 9405829
-0.013893217 0.034557868 0.012336465 11049883
-0.012480011 0.032768432 0.012072204 9867922
-0.011054143 0.031158475 0.011834933 9801872
-0.0098889759 0.021962384 0.010457811 10130066
-0.0083849402 0.021981379 0.010465373 9538443
-0.0068809902 0.022000317 0.010472918 8947077
-0.0053771259 0.022019254 0.010480463 7566195
-0.0038733475 0.022038192 0.010488007 6579043
-0.0023696634 0.022056714 0.010495489 6841958
-0.00086606364 0.022075176 0.010502967 6907494
0.00063745264 0.022093698 0.010510448 8946306
0.0021408852 0.022112221 0.010517929 7171437
0.0036442336 0.022130683 0.010525406 7565938
0.0051475004 0.022149207 0.010532888 7631988
0.0066506811 0.02216767 0.010540364 8749441
0.0081537813 0.022186194 0.010547845 9209221
0.0096567953 0.022204658 0.010555321 7829110
0.011156912 0.021974051 0.010525378 6381921
0.01265384 0.021331983 0.010433663 4144959
0.014132215 0.018069742 0.0099484688 2763306
0.015609779 0.012894969 0.0091761183 2631720
0.017128762 0.013012458 0.0091985036 2697513
0.018615743 0.0018910426 0.0075333016 3750201
-0.085207917 0.056672484 0.016879359 6842472
-0.083767995 0.056633066 0.016878005 7763317
-0.082327984 0.056593534 0.01687663 7763317
-0.080887854 0.056554001 0.01687525 7697524
-0.079447582 0.056514639 0.016873905 7368816
-0.078007206 0.056475285 0.016872555 6710886
-0.076566733 0.056435749 0.016871182 6447714
-0.075126141 0.056396212 0.016869809 6447714
-0.073685437 0.056356672 0.016868437 6381921
