# .PCD v0.7 - Point Cloud Data file format
VERSION 0.7
FIELDS x y z rgb
SIZE 4 4 4 4
TYPE F F F U
COUNT 1 1 1 1
WIDTH 1024
HEIGHT 1
VIEWPOINT 0 0 0 1 0 0 0
POINTS 1024
DATA ascii
-0.059446886 -0.039313883 0.025824012 9473935
-0.058267534 -0.036019899 0.026410602 9933972
0.0096635446 -0.0046870005 0.031749547 6841980
0.011281778 -0.012407208 0.03035612 3551646
0.012805932 -0.012288983 0.030370889 4405920
0.014330477 -0.012170812 0.030385634 2894236
0.015855409 -0.012052642 0.030400386 723856
0.017380731 -0.011934587 0.030415105 855441
0.018906444 -0.011816474 0.030429846 2828444
-0.085528634 -0.055215292 0.021607803 11507864
-0.084089048 -0.055114765 0.021619581 11573143
-0.082649149 -0.055014122 0.021631373 12028811
-0.081208929 -0.054913476 0.021643167 11180184
-0.079768375 -0.05481283 0.021654958 9013384
-0.078327484 -0.054712184 0.021666748 9605264
-0.076886266 -0.054611538 0.021678541 10524824
-0.075444736 -0.054510769 0.02169035 10459288
-0.074002862 -0.054410059 0.021702148 10393495
-0.072560675 -0.05430929 0.021713952 10393238
-0.071118049 -0.054209404 0.021725602 10327188
-0.069667481 -0.054181032 0.021724496 10392981
-0.06821683 -0.054152664 0.02172339 10590360
-0.066766091 -0.054124296 0.021722281 10656153
-0.065316036 -0.054088395 0.02172252 10590360
-0.063873611 -0.053975035 0.021736566 10065044
-0.06244779 -0.053688396 0.0217815 8882055
-0.061016481 -0.053448632 0.021818073 10916755
-0.059711985 -0.051859695 0.022095146 10982805
-0.058433384 -0.04993324 0.022432361 8092539
-0.057153579 -0.047947533 0.022780109 11048855
-0.056042023 -0.044004183 0.023476752 11048084
-0.054882221 -0.04045647 0.024102826 11114648
-0.053884905 -0.034877431 0.025090873 8289918
0.0096663488 -0.0050969748 0.030118074 7432574
0.011278875 -0.012393605 0.02881347 3354782
0.012802409 -0.012275392 0.02882804 3091613
0.014326332 -0.012157236 0.028842591 2039448
0.015850645 -0.012039136 0.028857127 592015
0.017375346 -0.011921097 0.028871663 1513109
0.018900435 -0.011802994 0.028886195 3222942
-0.085352227 -0.056314811 0.019943597 12292497
-0.08391083 -0.056249142 0.019949056 12291469
-0.082469217 -0.056183532 0.019954506 12552328
-0.081027508 -0.056116983 0.019960126 9276556
-0.079585597 -0.056050371 0.019965746 8487297
-0.07814347 -0.055983759 0.019971371 9079177
-0.076701164 -0.055916797 0.019977061 9145227
-0.07525824 -0.055853479 0.019982096 9144970
-0.07381478 -0.055793043 0.019986628 9144970
-0.07237114 -0.055732608 0.019991159 9144970
-0.070927434 -0.055670936 0.019995904 9079177
-0.069484331 -0.05560185 0.020001967 8947848
-0.068041295 -0.055529937 0.020008514 8947591
-0.066598035 -0.055458024 0.02001507 8816005
-0.06515485 -0.055383053 0.020022161 8552833
-0.063715965 -0.055262592 0.020037279 8224125
-0.062272839 -0.055181265 0.020045497 8880770
-0.060829453 -0.055099934 0.020053707 11304060
-0.059386298 -0.055013366 0.020062843 10522254
-0.057960059 -0.054741558 0.020104667 8158075
-0.056549553 -0.054287039 0.020178746 11894912
-0.055138044 -0.053826392 0.020253897 11761784
-0.053747837 -0.053105004 0.02037506 10651013
-0.052684657 -0.048550524 0.021172678 9078920
-0.05176821 -0.042068526 0.022310393 10129295
-0.050955765 -0.034056421 0.023718024 7237230
0.0096691493 -0.0055062603 0.028489469 7564160
0.011275973 -0.012379894 0.027272094 2565274
0.012798888 -0.012261812 0.02728644 65932
0.014322191 -0.012143669 0.027300799 65931
0.015845884 -0.012025584 0.027315142 65931
0.017369965 -0.011907673 0.027329454 1118611
0.018894434 -0.011789585 0.027343795 1842071
-0.085300878 -0.056418672 0.018458609 11507093
-0.083860278 -0.056352921 0.018463977 11768466
-0.08241947 -0.056287114 0.01846936 11573400
-0.080978453 -0.056221362 0.018474733 8421504
-0.079537235 -0.056155555 0.018480113 8421504
-0.078095809 -0.056089684 0.0184855 8421504
-0.076654203 -0.056023579 0.018490931 8289918
-0.075212389 -0.055957355 0.018496383 8026746
-0.073770374 -0.05589113 0.018501833 8355454
-0.072328143 -0.055824906 0.018507283 8816005
-0.070885681 -0.055758912 0.018512689 8816005
-0.069442995 -0.055692982 0.018518087 7171437
-0.068000108 -0.055627048 0.018523475 6645093
-0.066557005 -0.055561054 0.018528886 7039851
-0.065113693 -0.055495061 0.018534288 8158075
-0.063670173 -0.055429127 0.018539682 9539728
-0.06222643 -0.055363309 0.018545052 10853018
-0.060782474 -0.05529749 0.018550424 11702930
-0.059339929 -0.05521448 0.018558793 9276299
-0.057898533 -0.055116225 0.018569829 8289661
-0.05645683 -0.055017848 0.018580886 9144456
-0.055017266 -0.054891862 0.01859677 8816005
-0.053577483 -0.054763697 0.018613027 8289918
-0.052155942 -0.054418303 0.018667249 7631988
-0.050765332 -0.053691722 0.018788066 7500402
-0.049530618 -0.051045258 0.019244326 7171437
-0.048845194 -0.041486319 0.020908305 7303023
-0.048450299 -0.027837282 0.02328673 8092282
0.0096719433 -0.0059147957 0.026863726 7104894
0.011273075 -0.012366313 0.025731951 2696602
0.01279537 -0.012248241 0.025746098 65932
0.014318054 -0.012130171 0.02576025 65932
0.015841126 -0.012012097 0.025774393 131724
0.017364588 -0.011894202 0.025788512 197516
0.018888436 -0.011776185 0.025802644 263309
-0.085262738 -0.056417514 0.016993402 9604236
-0.083822742 -0.05635174 0.016998671 11046542
-0.082382537 -0.056286026 0.017003931 9539214
-0.080942124 -0.056220252 0.017009206 7895160
-0.079501517 -0.056154419 0.017014489 7763574
-0.078060701 -0.056088526 0.017019777 7566195
-0.07661967 -0.056022629 0.017025065 6645093
-0.075178467 -0.055956442 0.017030409 6842472
-0.073737048 -0.055890251 0.017035747 8289147
-0.072295435 -0.055824 0.017041091 10189948
-0.070853569 -0.055758048 0.01704639 10193546
-0.069411494 -0.055692147 0.017051674 8552833
-0.067969203 -0.055626251 0.017056964 7631988
-0.066526711 -0.055560295 0.017062252 8816005
-0.06508401 -0.055494335 0.01706755 10392210
-0.063641079 -0.055428494 0.017072821 9143685
-0.062197939 -0.055362709 0.017078079 8814463
-0.060754597 -0.055296868 0.017083351 7959411
-0.05931104 -0.055231024 0.017088622 4737096
-0.05786727 -0.055165239 0.017093884 4802889
-0.056423303 -0.055099335 0.017099161 5921370
-0.054979127 -0.055033375 0.017104451 6447714
-0.053534765 -0.054967172 0.017109778 7434609
-0.052095741 -0.054836247 0.017126299 10455690
-0.050657224 -0.05469431 0.017144728 10454148
-0.04923198 -0.054385636 0.017192002 8815491
-0.047833156 -0.053736899 0.017298089 9208707
-0.046577457 -0.051249139 0.017722279 11759985
-0.046468593 -0.033817865 0.020731164 12086123
0.0096747344 -0.0063226381 0.025240835 6644600
0.011270178 -0.01235268 0.024193067 3617695
0.012791855 -0.01223468 0.024207005 3617952
0.014313919 -0.012116622 0.024220958 3486110
0.015836373 -0.011998623 0.0242349 3420573
0.017359214 -0.011880681 0.024248835 3617951
0.018882444 -0.011762796 0.024262752 3683743
-0.085224628 -0.056416359 0.015529424 6974058
-0.083785236 -0.056350622 0.015534586 10192518
-0.082345635 -0.056284882 0.015539749 6842472
-0.08090584 -0.056219086 0.015544917 6974058
-0.079465829 -0.056153227 0.015550099 8421247
-0.078025617 -0.056087371 0.015555281 7697781
-0.076585196 -0.056021512 0.015560463 7368816
-0.075144574 -0.055955533 0.015565658 7368816
-0.073703758 -0.055889439 0.015570882 9209221
-0.072262742 -0.055823222 0.01557612 11237239
-0.070821494 -0.055757184 0.015581327 10974067
-0.069380015 -0.055691324 0.015586504 8484213
-0.067938335 -0.055625401 0.015591688 5526612
-0.066496439 -0.055559538 0.015596864 4342338
-0.06505432 -0.055493791 0.015602017 5131597
-0.063611992 -0.055428043 0.015607169 4539717
-0.062169462 -0.055362236 0.015612327 5460819
-0.060726728 -0.055296369 0.0156175 6974058
-0.059283782 -0.055230502 0.015622672 7039594
-0.057840642 -0.055164516 0.015627857 8289918
-0.056397278 -0.055098649 0.015633028 7500402
-0.054953713 -0.055032603 0.015638227 5789784
-0.053509962 -0.054966379 0.015643455 6381921
-0.052065987 -0.054900274 0.015648667 9931402
-0.050621811 -0.054834049 0.015653893 11959677
-0.049181174 -0.054722279 0.015666917 9407371
-0.047741976 -0.054588236 0.015683752 7631988
-0.046314705 -0.054297522 0.015727421 10061703
-0.044939589 -0.053319316 0.015888797 9931145
-0.044546731 -0.039299507 0.01828319 9274243
0.00967752 -0.0067297867 0.023620784 6710393
0.011267284 -0.012339055 0.022655427 4536990
0.012788342 -0.012221129 0.022669164 7359898
0.014309788 -0.012103084 0.022682924 7097497
0.015831623 -0.011985157 0.022696659 7032218
0.017353846 -0.011867288 0.022710385 7294876
0.018876456 -0.011749415 0.022724103 7360667
-0.085186549 -0.056415208 0.014066674 7237230
-0.083747759 -0.056349508 0.014071731 8158332
-0.082308777 -0.056283686 0.014076801 6974058
-0.080869578 -0.056217924 0.014081864 10452863
-0.079430185 -0.056152042 0.014086947 11494757
-0.077990569 -0.056086216 0.014092015 6315871
-0.076550744 -0.056020394 0.01409709 4276545
-0.075110711 -0.055954512 0.014102165 4934475
-0.073670499 -0.055888452 0.014107275 5920856
-0.072230071 -0.055822387 0.014112384 8550263
-0.070789434 -0.055756327 0.014117492 10453891
-0.069348566 -0.055690441 0.014122563 10584963
-0.067907475 -0.055624671 0.01412762 9736593
-0.066466175 -0.055558961 0.014132666 9013384
-0.065024674 -0.055493131 0.014137736 9605007
-0.063582964 -0.055427302 0.014142795 8684676
-0.062141046 -0.055361412 0.01414787 9473678
-0.060698912 -0.055295583 0.014152929 9867665
-0.059256583 -0.05522963 0.01415801 9867922
-0.057814039 -0.055163741 0.014163082 8553090
-0.056371283 -0.055097848 0.014168154 7368816
-0.054928329 -0.055031776 0.014173246 5855577
-0.053485185 -0.054965589 0.014178368 5065804
-0.052041814 -0.054899458 0.014183474 7696753
-0.050598241 -0.054833326 0.014188579 10915213
-0.049154453 -0.054767195 0.014193684 8158332
-0.047710456 -0.054701008 0.014198802 7434609
-0.04626834 -0.054608349 0.014208402 7500145
-0.044836421 -0.054379821 0.014241031 8355454
-0.043403193 -0.054158479 0.014272435 7697524
-0.042018153 -0.053274404 0.014416163 7960696
0.0096802991 -0.0071361796 0.022003578 6776185
0.011264392 -0.012325498 0.02111903 4077215
0.012784833 -0.012207527 0.021132581 8277908
0.014305661 -0.012089614 0.021146126 5851296
0.015826877 -0.01197164 0.021159675 4209056
0.017348481 -0.011853843 0.021173194 4077471
0.018870473 -0.011736044 0.021186711 3945886
-0.085148513 -0.056414004 0.01260516 4079166
-0.083710328 -0.056348335 0.012610111 4802889
-0.082271956 -0.056282431 0.01261509 4408131
-0.080833353 -0.056216706 0.012620046 6513250
-0.079394557 -0.056150917 0.012625009 7829110
-0.077955551 -0.056085069 0.012629978 6842472
-0.07651633 -0.056019224 0.012634947 8224125
-0.0750769 -0.055953432 0.012639907 8289918
-0.073637269 -0.055887587 0.012644881 8816262
-0.072197445 -0.055821501 0.012649885 9407885
-0.070757419 -0.055755414 0.012654895 10917012
-0.069317147 -0.055689622 0.012659852 11897996
-0.067876667 -0.055623829 0.012664809 9867922
-0.066435978 -0.055558037 0.012669764 9933972
-0.06499508 -0.055492181 0.012674727 10918297
-0.063553974 -0.055426389 0.012679681 8750469
-0.062112655 -0.055360533 0.01268465 11243664
-0.060671125 -0.055294737 0.012689595 11375507
-0.0592294 -0.055228822 0.012694569 10786711
-0.057787459 -0.055162966 0.012699528 8421504
-0.056345318 -0.055096991 0.012704507 6908265
-0.054902967 -0.055030957 0.012709502 6250335
-0.053460423 -0.054964803 0.01271451 6841958
-0.052017663 -0.054898709 0.012719502 11042687
-0.05057469 -0.054832611 0.012724501 7630960
-0.049131513 -0.054766458 0.012729507 6776679
-0.047688119 -0.05470036 0.012734504 7631731
-0.04624451 -0.054634262 0.012739494 6974058
-0.044800691 -0.054568224 0.012744482 7237230
-0.043356776 -0.054500651 0.01274972 7171437
-0.041920796 -0.054322682 0.012773479 6184285
-0.040499512 -0.053932592 0.012832818 8943993
-0.039080419 -0.05349255 0.012900526 10453377
-0.037661012 -0.053035401 0.012971096 10912129
-0.036243759 -0.052522868 0.01305095 11371395
0.0096830744 -0.0075418763 0.020389207 6841978
0.011261502 -0.012311891 0.01958389 3486110
0.012781327 -0.012194051 0.019597227 6180257
0.014301537 -0.012076094 0.019610586 2302618
0.015822135 -0.011958192 0.019623928 460686
0.017343121 -0.011840408 0.019637253 2170776
0.018864494 -0.011722681 0.019650564 3222683
-0.085110508 -0.056412801 0.011144876 8289918
-0.083672948 -0.056346931 0.01114975 8224125
-0.082235157 -0.056281243 0.0111546 8224125
-0.080797151 -0.056215551 0.011159443 8224125
-0.079358958 -0.05614974 0.011164307 8224125
-0.077920549 -0.056083925 0.01116917 8224125
-0.076481938 -0.056018114 0.011174032 8224125
-0.075043112 -0.055952299 0.011178887 8289918
-0.073604077 -0.055886488 0.011183747 8289918
-0.072164841 -0.055820614 0.011188623 8947591
-0.070725411 -0.055754565 0.011193519 10785940
-0.069285758 -0.055688627 0.011198392 11310228
-0.067845881 -0.055622872 0.011203242 10130837
-0.066405796 -0.055557113 0.011208092 10918811
-0.064965501 -0.055491295 0.01121294 10064787
-0.063524991 -0.055425536 0.011217789 10130066
-0.062084291 -0.055359658 0.01122265 12093576
-0.060643364 -0.055293899 0.011227497 12355206
-0.059202235 -0.055228077 0.01123235 10458774
-0.057760898 -0.055162199 0.01123721 8684676
-0.056319367 -0.055096138 0.011242098 7631731
-0.054877628 -0.055030141 0.011246978 8354683
-0.053435683 -0.05496408 0.011251866 9925491
-0.051993527 -0.054897964 0.011256767 9534331
-0.050551154 -0.0548319 0.011261652 7170409
-0.04910858 -0.054765783 0.011266551 6447200
-0.047665793 -0.054699719 0.011271435 6579300
-0.04622278 -0.054633774 0.011276296 5789784
-0.044779565 -0.054567769 0.011281171 4934475
-0.043336142 -0.054501764 0.011286045 5328976
-0.041892491 -0.054435939 0.011290889 7827311
-0.04044864 -0.054370049 0.01129574 9928832
-0.03900902 -0.054240976 0.011311082 11172988
-0.037572835 -0.054055676 0.011335752 10649985
-0.036138639 -0.053831436 0.011366885 10977408
-0.034703698 -0.053607017 0.011398046 10713722
-0.033283684 -0.053135689 0.011470182 11176843
-0.03186354 -0.05264058 0.011546257 11569545
-0.030449061 -0.052023161 0.011642622 11699075
-0.029038997 -0.051294047 0.011757514 12551300
-0.027632916 -0.050450768 0.011891347 12617607
-0.026245371 -0.049217727 0.012089835 10586762
-0.02485431 -0.047971513 0.012290496 9276556
-0.023459183 -0.046721689 0.012491739 9342606
0.0096858451 -0.0079468731 0.018777657 7302273
0.011258615 -0.012298351 0.018049985 4996252
0.012777822 -0.012180466 0.018063137 3026076
0.014297416 -0.012062579 0.018076288 65932
0.015817396 -0.011944752 0.01808943 658064
0.017337766 -0.01182704 0.018102547 4340128
0.01885852 -0.011709327 0.018115666 7685776
-0.085072555 -0.056411423 0.0096858433 7895160
-0.083635584 -0.056345709 0.0096905958 8947591
-0.082198389 -0.05628005 0.009695326 9340807
-0.080760993 -0.056214336 0.0097000767 8421247
-0.079323396 -0.056148559 0.0097048264 6710886
-0.07788559 -0.056082785 0.0097095836 6776679
-0.076447576 -0.056017008 0.0097143324 8224125
-0.075009353 -0.055951171 0.0097190952 8224125
-0.073570922 -0.055885393 0.0097238496 8224125
-0.072132275 -0.055819612 0.0097285956 9079177
-0.070693441 -0.055753656 0.009733378 10196116
-0.069254413 -0.05568764 0.0097381603 9736593
-0.06781514 -0.055621859 0.0097429119 9473935
-0.06637565 -0.055556137 0.0097476477 10327959
-0.06493596 -0.055490356 0.0097523974 8816005
-0.063496053 -0.055424631 0.0097571313 10392981
-0.062055945 -0.055358846 0.0097618727 10720918
-0.060615622 -0.055293061 0.0097666206 12551300
-0.059175096 -0.055227276 0.0097713601 10589846
-0.057734378 -0.055161312 0.0097761359 10129552
-0.056293443 -0.055095349 0.0097809033 9601152
-0.054852318 -0.055029266 0.0097856922 10975866
-0.053410966 -0.054963242 0.0097904727 10187892
-0.051969413 -0.054897219 0.0097952522 8090740
-0.050527655 -0.054831136 0.0098000392 8614514
-0.049085669 -0.054765169 0.0098048095 8614514
-0.047643475 -0.054699201 0.0098095732 7433067
-0.046201073 -0.05463329 0.0098143276 6775651
-0.044758458 -0.054567378 0.0098190811 7564910
-0.043315642 -0.054501351 0.0098238569 10058876
-0.041872609 -0.054435384 0.0098286234 9204852
-0.040429354 -0.054369587 0.0098333536 8288376
-0.038985889 -0.054303791 0.0098380893 9471108
-0.037545696 -0.054187357 0.0098511372 8814720
-0.036109686 -0.054002572 0.0098754149 9274757
-0.03467387 -0.053805389 0.0099017192 9337209
-0.033246674 -0.053462066 0.009952032 9600124
-0.031824287 -0.053022001 0.010018225 9271673
-0.030405296 -0.052500594 0.010097766 10456718
-0.028993281 -0.051829264 0.010201922 10654097
-0.027582342 -0.051098488 0.010315832 10390925
-0.026179489 -0.050175223 0.010461333 8815748
-0.024780847 -0.049113598 0.010629547 7697781
-0.023390971 -0.047811314 0.010837256 8684419
-0.021998961 -0.046462566 0.011052579 10391439
-0.020628273 -0.044574246 0.01135646 10850448
-0.01926839 -0.042313572 0.01172145 10982548
-0.017909771 -0.039851237 0.012119509 10455690
-0.016564969 -0.036870681 0.012602601 10984347
0.0096886111 -0.0083511686 0.017168922 7957890
0.011255731 -0.012284761 0.016517339 1644693
0.012774321 -0.012167008 0.016530277 65932
0.014293299 -0.012049193 0.016543219 65932
0.015812663 -0.01193132 0.016556175 65932
0.017332414 -0.011813622 0.0165691 658063
0.018852552 -0.01169598 0.01658201 4602782
-0.085034631 -0.056410108 0.0082280245 8224125
-0.083598241 -0.056344487 0.0082326559 8882055
-0.08216165 -0.056278866 0.008237279 9079177
-0.080724865 -0.05621307 0.0082419384 8289918
-0.079287864 -0.056147385 0.0082465755 7895160
-0.077850662 -0.056081586 0.0082512256 7829367
-0.076413244 -0.056015845 0.0082558682 8158332
-0.074975625 -0.055950101 0.0082605174 8618369
-0.073537789 -0.055884361 0.0082651582 9602437
-0.072099753 -0.055818558 0.0082698055 9864067
-0.0706615 -0.05575281 0.0082744453 8223354
-0.069223061 -0.055686831 0.008279128 7236973
-0.067784399 -0.055620968 0.0082837874 8617084
-0.06634552 -0.055555221 0.0082884245 9013384
-0.064906426 -0.055489473 0.0082930615 8684676
-0.063467123 -0.055423785 0.0082976893 9210763
-0.062027622 -0.055357978 0.0083023319 10196373
-0.060587909 -0.055292226 0.0083069652 12420485
-0.059147984 -0.055226479 0.008311606 11898510
-0.057707869 -0.055160493 0.0083162757 11634310
-0.056267545 -0.055094503 0.0083209444 11626857
-0.054827016 -0.055028457 0.0083256261 11759471
-0.053386267 -0.054962467 0.0083302939 9337466
-0.051945318 -0.054896478 0.0083349673 8419448
-0.050504148 -0.054830547 0.0083396258 12027783
-0.049062766 -0.054764677 0.0083442749 7365732
-0.047621176 -0.054698743 0.0083489316 8943993
-0.04617938 -0.054632809 0.0083535882 7105387
-0.044737373 -0.054566875 0.0083582429 7303023
-0.043295152 -0.054500941 0.0083628967 8157561
-0.041852728 -0.054435007 0.0083675506 6973544
-0.040410094 -0.05436901 0.0083722109 6381664
-0.038967241 -0.054303192 0.008376848 7039594
-0.037526935 -0.054197162 0.0083880126 6316128
-0.03609154 -0.054012481 0.0084119681 6842215
-0.034657218 -0.053801995 0.0084401034 5986135
-0.033230677 -0.053457703 0.0084899878 6841958
-0.031738665 -0.054154895 0.008370623 5394255
-0.030247776 -0.054873411 0.0082478002 6183257
-0.028791633 -0.05503865 0.008214891 6249050
-0.027363235 -0.054724 0.0082599511 5854292
-0.025958972 -0.053950418 0.0083795805 3421236
-0.02456733 -0.052890021 0.0085457917 3026478
-0.023189576 -0.051489431 0.0087672584 4736839
-0.021813042 -0.049968243 0.0090082996 6249050
-0.020599194 -0.044952609 0.0098169735 6380379
-0.019220289 -0.043129146 0.010107046 7630446
-0.017847681 -0.041024931 0.010442697 6906980
-0.016469786 -0.038876288 0.010785526 6315871
-0.015089752 -0.036601253 0.011148859 7105387
-0.013704688 -0.034256566 0.011523473 7828853
-0.012312097 -0.031899098 0.011900121 10586505
-0.010911907 -0.029528793 0.012278826 9538957
0.0096913716 -0.0087547004 0.015563 8217978
0.011252848 -0.012271176 0.014985929 1644436
0.012770823 -0.012153436 0.014998673 131724
0.014289184 -0.012035696 0.015011416 131724
0.015807932 -0.011917894 0.015024165 131724
0.017327068 -0.011800269 0.015036882 131724
0.018846588 -0.011682581 0.015049606 592271
-0.084996715 -0.056408912 0.0067714052 8224125
-0.083560944 -0.056343269 0.006775938 8224125
-0.082124956 -0.056277566 0.0067804772 8224125
-0.08068876 -0.056211919 0.0067850007 8224125
-0.079252362 -0.056146212 0.0067895385 8224125
-0.077815749 -0.056080509 0.0067940755 8289918
-0.076378934 -0.056014802 0.0067986115 8224125
-0.074941911 -0.055949036 0.006803154 8881798
-0.073504686 -0.05588327 0.0068076961 10654097
-0.072067253 -0.0558175 0.0068122372 10850705
-0.070629597 -0.055751793 0.0068167704 9736079
-0.069191746 -0.055685963 0.0068213246 10589846
-0.067753695 -0.055620018 0.0068258932 9210249
-0.06631542 -0.055554308 0.0068304241 9734023
-0.064876929 -0.055488594 0.0068349466 10649728
-0.063438237 -0.055422824 0.0068394905 9993854
-0.061999325 -0.055357169 0.0068440046 9340293
-0.060560212 -0.055291455 0.0068485322 8482671
-0.059120901 -0.055225566 0.0068530887 9862782
-0.057681385 -0.055159613 0.0068576518 11045257
-0.056241665 -0.055093661 0.0068622138 10713465
-0.054801736 -0.055027649 0.0068667829 10517628
-0.053361595 -0.054961696 0.0068713436 8287091
-0.051921234 -0.054895859 0.0068758815 9992312
-0.050480668 -0.054829963 0.0068804333 8743016
-0.049039882 -0.054764125 0.0068849772 5656656
-0.047598902 -0.054698229 0.0068895202 6776165
-0.046157703 -0.054632332 0.0068940697 8353655
-0.044716299 -0.054566432 0.0068986183 7499631
-0.043274693 -0.054500476 0.0069031739 6052956
-0.041832868 -0.054434575 0.0069077136 5328976
-0.040390838 -0.054368675 0.0069122603 4276545
-0.038948596 -0.054302715 0.0069168131 3618615
-0.037508193 -0.054206923 0.0069261617 3684408
-0.03607342 -0.054022286 0.0069498005 5262669
-0.034640573 -0.053798601 0.0069797086 4341824
-0.033169735 -0.054161973 0.0069152238 3092271
-0.031677898 -0.054885931 0.0067927786 4144702
-0.03019895 -0.055436689 0.0066981772 4671303
-0.028746786 -0.055560715 0.0066721942 4473410
-0.027316801 -0.055300642 0.0067079621 5788242
-0.025905238 -0.054688901 0.0068002511 4868168
-0.024505924 -0.053807713 0.0069358372 4670532
-0.023115464 -0.052696064 0.0071084602 4802375
-0.021722568 -0.051557172 0.0072854427 5986392
-0.020325946 -0.050415076 0.0074629276 5591891
-0.018925564 -0.049269956 0.0076408773 3355443
-0.017522294 -0.048102137 0.0078224633 3618615
-0.016113345 -0.046973884 0.0079976711 3552822
-0.014700643 -0.045843199 0.0081732552 2434341
-0.013293404 -0.04447655 0.0083867405 3684408
-0.011882986 -0.043070536 0.0086065279 7038823
-0.010501554 -0.040727243 0.0089768935 5066061
0.0096941283 -0.0091575887 0.013959878 5131104
0.011249968 -0.012257659 0.013455755 4405406
0.012767328 -0.012139991 0.013468292 6112926
0.014285075 -0.012022262 0.013480834 6243998
0.015803207 -0.011904474 0.01349339 5783189
0.017321724 -0.011786863 0.013505914 6046103
0.01884063 -0.011669309 0.01351843 3157149
-0.084958844 -0.05640766 0.0053160223 8224125
-0.083523661 -0.05634205 0.0053204414 8224125
-0.082088292 -0.056276321 0.0053248815 8224125
-0.080652691 -0.056210712 0.0053292993 8224125
-0.07921689 -0.056144983 0.0053337379 8224125
-0.07778088 -0.056079313 0.0053381682 8224125
-0.076344669 -0.056013584 0.0053425985 8224125
-0.074908242 -0.055947911 0.0053470274 9079177
-0.073471613 -0.055882182 0.0053514629 10196116
-0.072034776 -0.055816449 0.0053558978 9605007
-0.070597723 -0.055750716 0.0053603249 9342349
-0.069160469 -0.055684984 0.005364758 10196630
-0.067723006 -0.055619188 0.005369198 8487297
-0.066285349 -0.055553336 0.0053736521 10392724
-0.064847454 -0.055487718 0.005378061 10523539
-0.063409358 -0.055421982 0.0053824913 12485507
-0.061971057 -0.055356305 0.0053869062 10523796
-0.060532536 -0.055290628 0.0053913277 10392724
-0.059093837 -0.055224653 0.0053957924 10326931
-0.057654925 -0.055158738 0.0054002493 10458003
-0.0562158 -0.055092819 0.0054046982 10718605
-0.054776471 -0.055026904 0.0054091532 8682363
-0.053336922 -0.0549611 0.0054135858 7039080
-0.051897161 -0.0548953 0.0054180175 10382958
-0.050457194 -0.054829441 0.0054224557 9394778
-0.049017023 -0.054763582 0.0054269005 4341824
-0.04757664 -0.054697718 0.0054313373 4737096
-0.046136051 -0.054631855 0.0054357802 6774109
-0.044695243 -0.054565992 0.0054402156 5656656
-0.043254241 -0.054500069 0.0054446645 2565927
-0.041813016 -0.054434266 0.0054490911 1842204
-0.040371586 -0.054368399 0.0054535237 1973790
-0.038929943 -0.054302592 0.0054579484 1250067
-0.037489951 -0.054209661 0.0054666898 1907997
-0.036055308 -0.054032158 0.0054888837 4078652
-0.034623947 -0.053795204 0.0055205286 3815480
-0.033152096 -0.054184146 0.0054526161 2763306
-0.031661559 -0.054897714 0.0053330767 2829099
-0.030183306 -0.05544753 0.0052395938 2631720
-0.028732292 -0.055562567 0.0052152611 3092271
-0.027303049 -0.055300087 0.0052509741 6445658
-0.025892526 -0.054680288 0.005343494 6379351
-0.024494046 -0.053794242 0.0054783458 5919828
-0.023102254 -0.0527196 0.0056431754 4605253
-0.021706933 -0.051642288 0.0058084126 4736582
-0.020308072 -0.050562188 0.0059740786 3684408
-0.018905655 -0.049479354 0.006140166 2105376
-0.017499672 -0.04839379 0.0063066683 2368548
-0.016090108 -0.047305498 0.006473592 3158064
-0.014676951 -0.046214353 0.0066409521 1513239
-0.013260183 -0.045120422 0.006808741 4671303
-0.011839794 -0.044023756 0.0069769439 4868682
-0.01041784 -0.042866796 0.0071547204 3815994
-0.0089927763 -0.041685473 0.0073363464 6118235
-0.0075639132 -0.040497281 0.0075190496 4407874
-0.0061339242 -0.039214391 0.0077167875 3815994
-0.004720808 -0.037203625 0.008030178 3881787
-0.0037066042 -0.020427162 0.010689905 3815994
-0.0022020508 -0.020451412 0.010679767 3815994
-0.0006975939 -0.02047566 0.01066963 3750201
0.00080676045 -0.020499909 0.010659494 3750201
0.0023110139 -0.02052404 0.010649372 3684408
0.0038151708 -0.02054829 0.010639235 3684408
0.0053192391 -0.020573189 0.010628996 5394769
0.0068232249 -0.020599391 0.010618552 7169638
0.0083271042 -0.020625535 0.010608122 6906980
0.0098308763 -0.020651678 0.010597685 3749964
0.01133017 -0.02025597 0.010654252 3485853
0.012763835 -0.012126493 0.01193916 8276624
0.014280966 -0.012008778 0.01195151 6440344
0.015798483 -0.011891122 0.01196385 6440089
0.017316386 -0.011773524 0.011976182 6440604
0.018834677 -0.011655984 0.011988505 4537505
-0.08492101 -0.056406409 0.0038618541 8289918
-0.08348643 -0.056340773 0.003866174 8355711
-0.082051642 -0.05627514 0.0038704933 8355711
-0.080616646 -0.056209508 0.0038748118 8289918
-0.07918144 -0.056143872 0.0038791369 8289918
-0.077746041 -0.056078181 0.0038834612 8289918
-0.076310426 -0.056012485 0.0038877921 8355711
-0.074874595 -0.055946849 0.0038921074 8750469
-0.073438555 -0.055881154 0.0038964369 8947848
-0.072002321 -0.055815455 0.0039007582 8750212
-0.070565872 -0.055749759 0.0039050861 8816005
-0.069129221 -0.055684004 0.0039094202 8882055
-0.067692354 -0.055618305 0.0039137397 8684676
-0.066255301 -0.055552427 0.0039180871 9079177
-0.06481801 -0.055486787 0.0039224047 10458260
-0.06338051 -0.055421144 0.003926714 12355206
-0.061942801 -0.055355445 0.0039310372 11963789
-0.060504902 -0.055289682 0.0039353599 11898767
-0.059066802 -0.0552238 0.003939711 11964303
-0.05762849 -0.055157863 0.0039440617 11377306
-0.056189958 -0.055092096 0.0039483891 9473935
-0.054751221 -0.055026274 0.0039527235 8355711
-0.053312279 -0.054960452 0.0039570569 8158332
-0.051873118 -0.054894686 0.0039613824 8092539
-0.050433759 -0.05482886 0.003965714 7234917
-0.04899418 -0.054763034 0.0039700456 2828842
-0.047554396 -0.054697268 0.0039743683 2236962
-0.046114411 -0.054631442 0.003978698 3223600
-0.044674199 -0.054565672 0.0039830194 3289393
-0.043233797 -0.054499846 0.0039873477 3025964
-0.041793171 -0.054434076 0.0039916676 2763049
-0.040352345 -0.054368246 0.0039959941 1644568
-0.038911309 -0.054302413 0.0040003201 986895
-0.037472114 -0.054206669 0.0040093549 1644825
-0.036037214 -0.054041985 0.0040292321 3486515
-0.034607332 -0.05379181 0.0040625557 4669504
-0.033134837 -0.054200545 0.0039922101 2894892
-0.031645216 -0.054909747 0.003874603 2631720
-0.030167978 -0.055453297 0.0037830651 3355186
-0.028717814 -0.055564366 0.003759572 2894892
-0.027289312 -0.055299472 0.0037952154 5920599
-0.025879821 -0.054671731 0.003887929 5919828
-0.024482183 -0.053780768 0.0040220399 5591377
-0.023090936 -0.052706566 0.0041849553 4473667
-0.021696167 -0.051629629 0.0043482846 4407874
-0.020297861 -0.050549965 0.0045120288 3881787
-0.018895997 -0.049467627 0.0046761795 2039583
-0.017490575 -0.048382439 0.00484076 4012859
-0.016081575 -0.04729452 0.005005762 6116693
-0.014668982 -0.046203811 0.0051711784 4669504
-0.013252784 -0.045110367 0.0053370162 4341824
-0.011832966 -0.044014074 0.0055032829 3355443
-0.010409512 -0.04291505 0.005669964 3289650
-0.0089824162 -0.041813113 0.0058370815 4934218
-0.007551657 -0.040708333 0.0060046422 3421236
-0.0061181672 -0.039570186 0.0061774184 4999754
-0.004693429 -0.037999384 0.0064181946 5065547
-0.0032933129 -0.0353374 0.0068304683 5065547
-0.0019128178 -0.031561214 0.0074178185 5065547
-0.00045124351 -0.030619128 0.007559692 5065547
0.0010223604 -0.030071897 0.0076394943 5065547
0.0024976847 -0.0295181 0.0077203219 4934218
0.0039748601 -0.028962875 0.0078013637 4605510
0.0054532881 -0.028371042 0.0078881504 5789270
0.0069335038 -0.027765013 0.0079771625 6512222
0.0084157763 -0.027159093 0.0080661457 4737096
0.0098975087 -0.026338164 0.0081889015 4144209
0.011343112 -0.021765053 0.0089011583 1315475
0.012841883 -0.021525832 0.0089324759 4669090
0.014338057 -0.020797696 0.0090405997 3288733
0.015793765 -0.011877717 0.010435562 2762651
0.017311053 -0.011760191 0.010447686 2762651
0.018828727 -0.011642666 0.010459816 2697116
-0.084883206 -0.056405094 0.0024089075 9276556
-0.083449222 -0.056339499 0.0024131213 9342349
-0.082015038 -0.0562739 0.0024173341 9342092
-0.080580637 -0.056208305 0.0024215463 9144970
-0.079146028 -0.056142706 0.0024257577 9210763
-0.077711217 -0.056077044 0.0024299757 9276556
-0.076276205 -0.056011386 0.0024342001 9342092
-0.07484097 -0.055945788 0.0024384093 9210763
-0.073405534 -0.055880126 0.0024426251 8947848
-0.071969904 -0.055814404 0.0024468475 9013641
-0.07053405 -0.055748746 0.002451069 9079177
-0.069097988 -0.05568308 0.0024552825 9408142
-0.067661725 -0.055617359 0.0024595098 8882055
-0.06622526 -0.055551637 0.0024637294 8618883
-0.06478858 -0.055485852 0.0024679624 10917269
-0.063351683 -0.055420246 0.0024721655 11637137
-0.061914582 -0.05535458 0.0024763751 11571858
-0.060477287 -0.055288736 0.0024806135 11702673
-0.059039779 -0.055222891 0.0024848513 12551557
-0.057602059 -0.055157166 0.0024890732 10722974
-0.056164131 -0.055091381 0.0024933019 9868179
-0.05472599 -0.055025648 0.0024975152 9342349
-0.053287644 -0.054959863 0.0025017424 8487297
-0.05184909 -0.054894134 0.0025059613 8224125
-0.050410323 -0.054828342 0.0025101798 7960953
-0.048971344 -0.054762673 0.0025143898 9144713
-0.047532167 -0.05469688 0.0025186066 4011574
-0.046092771 -0.054631148 0.0025228225 1579032
-0.044653174 -0.054565355 0.0025270451 2565670
-0.043213367 -0.054499563 0.0025312668 4603711
-0.04177336 -0.054433651 0.0025355027 4669504
-0.040333137 -0.054367855 0.0025397229 2236962
-0.038892709 -0.054301944 0.0025439574 986895
-0.037454162 -0.054205567 0.0025529312 1776411
-0.036019221 -0.05405052 0.0025710373 5393227
-0.034590736 -0.053788416 0.0026058047 7556686
-0.033117589 -0.054217026 0.0025330833 4078395
-0.031628896 -0.054921679 0.0024174161 2565927
-0.030152671 -0.055458952 0.0023278021 5985364
-0.028703347 -0.055566225 0.0023050969 3026478
-0.027275587 -0.055298857 0.0023406781 3092271
-0.025867093 -0.054663762 0.0024334684 4868168
-0.024470326 -0.053767338 0.002566898 4671046
-0.023079628 -0.052693516 0.0027279127 3289650
-0.02168541 -0.051616963 0.0028893421 4736582
-0.020287653 -0.050537795 0.0030511569 5722449
-0.01888635 -0.049455836 0.0032133933 4933190
-0.017481487 -0.048371084 0.0033760516 5984850
-0.016073046 -0.047283597 0.0035391171 6642266
-0.014661022 -0.04619332 0.003702597 4801347
-0.01324539 -0.045100249 0.0038664988 3026221
-0.01182614 -0.044004507 0.0040308074 2763306
-0.010403262 -0.042905793 0.0041955523 2631720
-0.0089767892 -0.041802928 0.0043609329 2631720
-0.0075466726 -0.040696617 0.0045268307 3092271
-0.006113736 -0.039559655 0.0046974807 6313558
-0.0046895663 -0.037989616 0.0049354373 6313301
-0.0032904723 -0.035311971 0.0053455648 6313044
-0.0019051542 -0.031744853 0.0058939261 6313044
-0.0004440163 -0.03082349 0.0060309609 6313044
0.0010293035 -0.030307032 0.0061050477 6247508
0.0025043606 -0.029789979 0.0061792233 5722192
0.0039811586 -0.029272327 0.0062534818 4473410
0.0054596984 -0.02875408 0.0063278293 5393998
0.0069399844 -0.028235173 0.0064022662 5459534
0.0084220199 -0.027715672 0.006476793 3223857
0.0099056168 -0.027179718 0.0065538716 4078158
0.011380861 -0.025663763 0.0067832153 1184403
0.012843078 -0.022048535 0.007338726 65932
0.014342622 -0.022024196 0.0073362566 131724
0.015838232 -0.021237783 0.0074521923 65932
0.017305724 -0.011746866 0.008920433 65932
0.018822782 -0.011629352 0.0089323632 65932
-0.084845424 -0.056403846 0.00095716794 10720404
-0.083412044 -0.056338284 0.00096127525 10917783
-0.081978448 -0.056272723 0.00096538186 10523282
-0.080544651 -0.056207102 0.0009694951 10457746
-0.079110645 -0.056141477 0.00097360759 10720918
-0.07767643 -0.056075916 0.00097771187 10786454
-0.076242007 -0.056010291 0.00098182284 10786454
-0.074807376 -0.055944666 0.000985933 9933715
-0.07337255 -0.055879042 0.00099004246 9868179
-0.071937509 -0.055813357 0.00099415856 9868179
-0.070502251 -0.055747729 0.00099826651 9802643
-0.0690668 -0.055682044 0.0010023811 11050140
-0.067631125 -0.055616416 0.0010064946 8618883
-0.06619525 -0.055550728 0.0010106077 8750469
-0.06475918 -0.05548498 0.0010147274 10064787
-0.063322887 -0.055419352 0.0010188315 10130837
-0.061886389 -0.055353664 0.0010229495 10130580
-0.060449686 -0.055287853 0.0010270816 10655896
-0.059012771 -0.055222161 0.0010311909 12227989
-0.057575654 -0.055156469 0.0010352993 10919839
-0.056138318 -0.055090722 0.0010394217 11444127
-0.054700777 -0.055025086 0.0010435211 9934229
-0.053263027 -0.05495939 0.0010476273 8421504
-0.051825065 -0.054893699 0.0010517327 8487297
-0.050386906 -0.054827943 0.001055852 9079177
-0.048948545 -0.054762129 0.001059978 10787739
-0.047509961 -0.054696374 0.0010640885 11047313
-0.046071179 -0.054630559 0.001068213 7757406
-0.044632185 -0.0545648 0.001072322 5195334
-0.043192983 -0.054498985 0.0010764449 4866883
-0.041753571 -0.054433167 0.001080567 4209724
-0.040313952 -0.054367352 0.0010846884 3025964
-0.038874127 -0.054301474 0.0010888164 2039583
-0.037436213 -0.054204646 0.0010977073 2236962
-0.036001988 -0.054047938 0.0011158064 4998726
-0.034574151 -0.053785019 0.0011502608 7098448
-0.033100352 -0.054233458 0.0010752362 4998726
-0.031612586 -0.054933675 0.00096147234 2631720
-0.030137371 -0.05546467 0.00087376038 5788499
-0.028688896 -0.055567972 0.00085186539 5788499
-0.027261872 -0.055298306 0.00088734791 3289393
-0.025854202 -0.054659043 0.00097969838 8677223
-0.024458483 -0.053753845 0.0011129488 5657170
-0.023068331 -0.052680463 0.001272056 2960685
-0.021674659 -0.051604409 0.0014315632 4736582
-0.020277459 -0.050525617 0.0015914704 6379351
-0.018876713 -0.049444038 0.0017517996 6313044
-0.017472409 -0.048359722 0.0019125288 5919571
-0.016064527 -0.047272671 0.0020736649 5065290
-0.014653062 -0.046182826 0.0022352159 3683637
-0.013238 -0.045090191 0.0023971812 5590606
-0.011819355 -0.043993931 0.0025596863 2697513
-0.010397119 -0.042893756 0.0027227758 2697513
-0.0089712357 -0.041790787 0.0028862865 2697513
-0.0075416933 -0.040684905 0.0030502265 3158064
-0.006109308 -0.039549183 0.0032187349 6380122
-0.0046857093 -0.037979793 0.0034539017 6379608
-0.0032876327 -0.035286587 0.0038618247 6379608
-0.0019023156 -0.031741347 0.0044006803 6511194
-0.00044179079 -0.03081996 0.0045361486 6511194
0.0010309175 -0.030303765 0.0046093185 6511194
0.0025053627 -0.029786913 0.0046825856 5985621
0.0039815451 -0.029269462 0.0047559347 5197133
0.0054594702 -0.028751414 0.0048293658 7430497
0.0069391392 -0.02823271 0.0049028937 8872546
0.0084205577 -0.027713524 0.0049764821 6510937
0.0099035352 -0.027177943 0.0050525931 5064282
0.011378432 -0.025688875 0.0052752066 1250195
0.012840849 -0.022175407 0.0058088689 197516
0.014341585 -0.022444015 0.0057613594 263309
0.015837843 -0.022037884 0.0058175209 329101
0.017300399 -0.011733544 0.0073944088 329101
0.018816842 -0.011616104 0.0074061383 394894
-0.084807694 -0.056402534 -0.00049334968 12682886
-0.083374895 -0.056337006 -0.00048934872 12421513
-0.081941903 -0.056271423 -0.00048534106 12159626
-0.080508702 -0.056205895 -0.0004813488 12225419
-0.079075292 -0.056140307 -0.00047734266 12291469
-0.077641666 -0.056074779 -0.00047334473 12357005
-0.076207846 -0.056009192 -0.0004693401 12095632
-0.074773818 -0.055943545 -0.00046532883 10525081
-0.073339581 -0.055877957 -0.00046132575 10721946
-0.071905136 -0.055812366 -0.00045732339 10786968
-0.070470482 -0.055746716 -0.00045331439 11115162
-0.069035627 -0.055681065 -0.00044930616 11114391
-0.067600556 -0.055615414 -0.00044529868 8750469
-0.066165276 -0.055549823 -0.0004412994 8684676
-0.064729802 -0.055484109 -0.00043728601 8816262
-0.063294105 -0.055418514 -0.00043328825 8618883
-0.061858211 -0.055352744 -0.00042926898 8816262
-0.060422108 -0.055287089 -0.0004252581 11180955
-0.058985785 -0.055221491 -0.00042126983 11706271
-0.057549257 -0.055155836 -0.0004172677 11968929
-0.056112528 -0.055090122 -0.00041325169 12098973
-0.054675598 -0.055024404 -0.00040924363 10459545
-0.053238451 -0.054958686 -0.00040523638 9473935
-0.051801093 -0.054892968 -0.00040122264 10130837
-0.050363529 -0.054827251 -0.00039721691 11508121
-0.048925765 -0.054761529 -0.0003932119 11377306
-0.047487792 -0.054695752 -0.00038919304 10195345
-0.046049602 -0.05463003 -0.0003851896 11505808
-0.044611208 -0.054564252 -0.00038117226 6249050
-0.043172605 -0.054498468 -0.00037716291 3091757
-0.041733798 -0.054432686 -0.00037314711 3749430
-0.040294785 -0.054366846 -0.00036913186 5589835
-0.038855564 -0.054301005 -0.00036511014 5392713
-0.037418295 -0.054203551 -0.0003562801 3289136
-0.035984766 -0.054045361 -0.00033821005 2697256
-0.034557577 -0.053781625 -0.00030407609 5129798
-0.033083137 -0.054249905 -0.0003813387 4867911
-0.031596292 -0.054945629 -0.00049319904 2697513
-0.030122088 -0.055470336 -0.00057903066 3684151
-0.028674448 -0.055569839 -0.00060015934 5985621
-0.02724817 -0.055297695 -0.00056475337 4407874
-0.025841316 -0.054654319 -0.00047286446 7627619
-0.024446648 -0.053740397 -0.00033983681 5460048
-0.023057045 -0.052667398 -0.00018262252 2763306
-0.021663923 -0.051591784 -2.5022919e-05 3684408
-0.020267272 -0.050513376 0.00013298419 4868168
-0.018867079 -0.049432293 0.00029138394 4670789
-0.01746333 -0.048348412 0.00045019112 4407617
-0.016056014 -0.047261741 0.00060941285 5920085
-0.014645127 -0.046172034 0.00076907157 3289136
-0.013230708 -0.045077879 0.000929403 8214873
-0.011812666 -0.043980986 0.001090127 5787985
-0.010390999 -0.042881239 0.0012512727 5656913
-0.0089656878 -0.041778639 0.001412833 5722449
-0.0075367149 -0.040673245 0.0015748075 5722706
-0.0061048809 -0.039538711 0.0017411965 4802632
-0.0046818545 -0.037970025 0.0019735659 3487029
-0.0032847966 -0.035261188 0.0023792414 3487029
-0.0018994799 -0.031737853 0.0029086843 3486772
-0.00043956999 -0.030816438 0.0030425794 3487029
0.0010325303 -0.030300504 0.003114833 3750201
0.0025063618 -0.029783793 0.0031871982 4868168
0.0039819316 -0.029266603 0.0032596234 5131083
0.0054592425 -0.028748816 0.0033321383 7562340
0.0069382959 -0.028230371 0.0034047426 10049367
0.0084191179 -0.027712988 0.0034771853 8544866
0.0099014565 -0.027176177 0.0035525654 4538708
0.011375724 -0.025686903 0.0037726592 3157148
0.012837533 -0.022176644 0.0042998013 3814046
0.014337875 -0.022478938 0.0042476445 3879838
0.015834833 -0.022337239 0.0042629451 3945373
0.017328573 -0.021157565 0.0044359369 4011165
0.018810907 -0.011602862 0.0058811498 4076702
-0.084769987 -0.056401223 -0.001942653 12486535
-0.083337784 -0.056335792 -0.001938773 10786711
-0.08190538 -0.056270242 -0.0019348717 10261652
-0.080472775 -0.056204751 -0.0019309785 10393238
-0.079039969 -0.056139141 -0.0019270713 10459288
-0.077606954 -0.056073587 -0.0019231795 10590360
-0.076173723 -0.056008037 -0.0019192812 10327959
-0.074740283 -0.055942483 -0.0019153836 10131094
-0.07330665 -0.05587687 -0.0019114795 11311770
-0.071872793 -0.055811316 -0.0019075907 11768980
-0.070438735 -0.055745762 -0.0019036955 12291726
-0.069004476 -0.055680148 -0.0018997935 11376535
-0.067570001 -0.055614531 -0.0018958924 9473935
-0.066135332 -0.055548854 -0.0018919846 10196887
-0.064700447 -0.055483237 -0.001888085 9276813
-0.063265353 -0.05541762 -0.0018841862 8618883
-0.061830051 -0.055351943 -0.0018802807 10591131
-0.060394544 -0.055286326 -0.0018763833 12553870
-0.058958836 -0.055220645 -0.0018724793 11248033
-0.057522904 -0.055155024 -0.0018685836 12491932
-0.056086775 -0.055089343 -0.001864681 12685456
-0.054650433 -0.055023663 -0.0018607794 11115933
-0.053213883 -0.054958042 -0.0018568859 10656667
-0.051777139 -0.054892298 -0.0018529783 11770265
-0.050340172 -0.054826617 -0.0018490788 11704215
-0.048903003 -0.054760873 -0.0018451728 10327702
-0.047465634 -0.054695129 -0.0018412602 10130837
-0.046028048 -0.054629445 -0.0018373631 9802129
-0.044590253 -0.054563701 -0.0018334594 7960953
-0.043152258 -0.054497894 -0.0018295416 6512736
-0.041714046 -0.05443215 -0.0018256394 7166554
-0.040275626 -0.054366402 -0.001821738 9065813
-0.038837001 -0.054300655 -0.0018178299 8737105
-0.037400238 -0.054204643 -0.0018093783 4800833
-0.035967559 -0.054042779 -0.0017910121 1315860
-0.034541022 -0.053778224 -0.0017572058 5918800
-0.033065934 -0.054266311 -0.0018366269 6051414
-0.031580009 -0.054957591 -0.0019466127 4473667
-0.030106818 -0.05547601 -0.0020305857 4473667
-0.02866002 -0.055571645 -0.0020509551 4604996
-0.027234474 -0.055297144 -0.0020156477 4013373
-0.025828442 -0.054649651 -0.001924242 5591377
-0.024434818 -0.053727001 -0.0017914588 5460048
-0.023045762 -0.052654445 -0.0016361448 4144702
-0.021653188 -0.051579215 -0.0014804382 3815737
-0.020257091 -0.050501242 -0.0013243458 3421236
-0.018857455 -0.049420539 -0.0011678463 4933704
-0.017454265 -0.048337039 -0.0010109463 7429726
-0.01604758 -0.047249142 -0.00085340277 9660263
-0.014637321 -0.046158217 -0.00069541502 5589835
-0.01322346 -0.04506449 -0.0005370272 6641495
-0.011805989 -0.043967973 -0.00037823222 6510423
-0.010384883 -0.042868715 -0.00021904471 6379351
-0.0089601399 -0.041766547 -5.9428079e-05 6379094
-0.0075317412 -0.040661581 0.00010058838 8806496
-0.006100459 -0.039528292 0.00026485059 6905952
-0.0046780049 -0.037960202 0.0004944519 5065290
-0.0032819614 -0.035235837 0.00089780724 5065290
-0.0018966432 -0.031734422 0.0014179101 4933961
-0.00043734637 -0.030812981 0.0015502389 3881787
0.0010341421 -0.03029719 0.001621598 4342081
0.002507362 -0.02978074 0.0016930394 7036767
0.003982319 -0.029263752 0.0017645629 7167325
0.0054590143 -0.028746167 0.0018361686 8284264
0.0069374694 -0.028229108 0.0019076866 9657436
0.008417679 -0.027712399 0.0019791394 6773595
0.0098993788 -0.027174361 0.0020537954 3617864
0.011373018 -0.025684882 0.0022713768 4207771
0.01283422 -0.022177832 0.0027920059 4340384
0.014333938 -0.022480911 0.0027402684 4471714
0.015830444 -0.022373214 0.0027502275 4208798
0.017324364 -0.021439696 0.0028842292 5193628
0.018804979 -0.011589564 0.0043574045 7161236
-0.084732302 -0.056399968 -0.0033907564 11375764
-0.083300695 -0.056334518 -0.003386968 9408142
-0.081868902 -0.056269001 -0.0033831804 8947848
-0.080436885 -0.056203488 -0.0033793862 8816262
-0.079004675 -0.056137972 -0.0033755999 8750469
-0.077572249 -0.056072455 -0.003371807 9211020
-0.076139621 -0.056006938 -0.0033680152 9013641
-0.074706778 -0.055941422 -0.0033642312 10000022
-0.073273726 -0.055875845 -0.0033604335 12031381
-0.071840487 -0.055810269 -0.0033566363 12619149
-0.070407026 -0.055744689 -0.0033528472 12618121
-0.068973362 -0.055679109 -0.0033490518 12359575
-0.067539476 -0.055613589 -0.0033452644 9145227
-0.06610541 -0.055547945 -0.0033414701 12032666
-0.064671122 -0.055482306 -0.0033376694 9342606
-0.063236624 -0.055416785 -0.0033338843 9276556
-0.06180191 -0.055351201 -0.0033300926 12360089
-0.060367007 -0.055285558 -0.0033262942 12291212
-0.058931895 -0.055219915 -0.0033224965 10328987
-0.057496566 -0.055154271 -0.0033186995 11704986
-0.056061037 -0.055088628 -0.0033149107 12097688
-0.054625299 -0.055022981 -0.0033111153 9933972
-0.053189352 -0.054957334 -0.0033073206 9999765
-0.051753197 -0.054891627 -0.0033035195 11181469
-0.050316833 -0.05482598 -0.0032997264 10196630
-0.048880257 -0.054760333 -0.0032959341 9408142
-0.047443483 -0.054694626 -0.0032921352 9210763
-0.046006501 -0.05462892 -0.0032883296 8618883
-0.044569314 -0.05456315 -0.0032845247 8750212
-0.043131914 -0.054497439 -0.0032807281 9998737
-0.041694298 -0.054431729 -0.0032769321 6380379
-0.040256482 -0.054366019 -0.0032731369 6575445
-0.038818467 -0.054300189 -0.0032693206 5786186
-0.037382185 -0.054205921 -0.003261277 1710361
-0.035950445 -0.054039072 -0.0032424442 2960428
-0.034524478 -0.053774826 -0.0032091211 8805468
-0.033048835 -0.054281306 -0.0032904358 8611173
-0.03156374 -0.054969504 -0.0033987612 7496804
-0.030091558 -0.055481687 -0.0034809117 7562340
-0.028645599 -0.055573456 -0.0035005291 4013373
-0.027220795 -0.055296533 -0.00346532 2829099
-0.025815584 -0.05464492 -0.003374405 5460048
-0.024423005 -0.053713534 -0.003241895 7102817
-0.023034494 -0.052641422 -0.0030884815 7102817
-0.021642467 -0.051566631 -0.0029346752 6774366
-0.020246923 -0.050489046 -0.0027804757 4802375
-0.01884789 -0.049407654 -0.0026257283 6445401
-0.017445344 -0.048322637 -0.0024704551 8216929
-0.016039226 -0.047234882 -0.0023147892 10184551
-0.014629523 -0.046144389 -0.0021587305 8475475
-0.013216222 -0.045051098 -0.0020022721 4604739
-0.011799311 -0.043955013 -0.0018454134 4670789
-0.010378776 -0.042856131 -0.0016881549 4604996
-0.0089545995 -0.041754451 -0.0015304964 4604996
-0.0075267726 -0.040649913 -0.0013724308 8151136
-0.0060960399 -0.039517872 -0.0012102883 8283750
-0.0046742018 -0.037948828 -0.00098323333 8151650
-0.0032791316 -0.035210472 -0.00058246317 8152421
-0.0018938114 -0.031730939 -7.1613526e-05 8020578
-0.00043512561 -0.030809531 5.9141639e-05 5328462
0.001035751 -0.030293882 0.00012959902 4933961
0.0025083611 -0.029777694 0.00020013118 8283236
0.0039827055 -0.029260909 0.00027074551 8282465
0.0054587992 -0.028744236 0.00034133141 8480615
0.0069366526 -0.028228326 0.00041180011 8414308
0.008416242 -0.027711879 0.00048234357 4670789
0.0098973028 -0.027172614 0.00055626838 3749707
0.011370314 -0.025682809 0.00077134499 3682974
0.01283091 -0.022179095 0.0012854753 2171033
0.014329988 -0.022480348 0.0012345334 2105241
0.015825883 -0.022375634 0.0012438785 1973655
0.017319154 -0.02143912 0.0013767353 3682973
0.018799054 -0.011576333 0.0028348882 7423378
-0.084694661 -0.056398656 -0.0048376378 10524824
-0.083263651 -0.056333236 -0.0048339632 10065558
-0.081832439 -0.05626782 -0.0048302817 9868436
-0.080401018 -0.056202341 -0.0048266011 8947848
-0.078969404 -0.056136861 -0.0048229215 8750469
-0.077537574 -0.056071322 -0.0048192278 9013641
-0.076105542 -0.056005783 -0.0048155347 8816262
-0.074673302 -0.0559403 -0.0048118569 9934229
-0.073240846 -0.055874817 -0.004808173 11378591
-0.071808189 -0.055809274 -0.0048044897 11509920
-0.070375323 -0.055743732 -0.0048007993 11443870
-0.068942264 -0.055678129 -0.0047971029 10984861
-0.067508981 -0.055612642 -0.0047934288 8947848
-0.066075519 -0.055546921 -0.0047897189 11115933
-0.064641811 -0.055481434 -0.0047860397 11509663
-0.063207909 -0.055415947 -0.004782368 11509406
-0.061773803 -0.055350401 -0.0047786827 11049883
-0.060339496 -0.055284794 -0.0047749979 10656667
-0.058904979 -0.055219125 -0.0047712992 9342606
-0.057470255 -0.055153519 -0.0047676084 10131351
-0.056035321 -0.055087909 -0.0047639185 10525852
-0.054600179 -0.055022299 -0.0047602295 8684676
-0.053164829 -0.05495663 -0.004756534 9605521
-0.051729277 -0.05489102 -0.0047528539 10197144
-0.050293509 -0.054825407 -0.0047491668 9144970
