# .PCD v0.7 - Point Cloud Data file format
VERSION 0.7
FIELDS x y z rgb
SIZE 4 4 4 4
TYPE F F F U
COUNT 1 1 1 1
WIDTH 1015
HEIGHT 1
VIEWPOINT 0 0 0 1 0 0 0
POINTS 1015
DATA ascii
0.0095685432 -0.02654024 -0.008842078 7039851
-0.085002027 -0.021721389 -0.028103752 11041402
-0.083496474 -0.021715868 -0.028104192 11172988
-0.08199095 -0.021710355 -0.028104572 11304317
-0.080485426 -0.021704832 -0.028105011 11304060
-0.078979939 -0.021699311 -0.028105451 10323076
-0.077474482 -0.021693807 -0.028105771 9077635
-0.075969025 -0.021688286 -0.028106211 9339779
-0.074463598 -0.021682763 -0.028106652 9274243
-0.072958156 -0.021677207 -0.028107267 10585991
-0.071452729 -0.021671621 -0.02810806 8486012
-0.069947377 -0.021666119 -0.028108383 6645093
-0.068442032 -0.021660622 -0.028108707 6842472
-0.066936724 -0.021655129 -0.028108969 6645093
-0.065431416 -0.021649618 -0.028109349 6579300
-0.063926131 -0.021644121 -0.028109673 6842472
-0.06242086 -0.0216386 -0.028110113 11371395
-0.060915597 -0.021633053 -0.02811067 9669772
-0.059415601 -0.021638252 -0.028053923 11963275
-0.057931457 -0.021676881 -0.027818713 9997966
-0.056444619 -0.021711467 -0.027605096 7566195
-0.054981221 -0.021798434 -0.027111873 7500402
-0.053528458 -0.021912644 -0.026473252 8355454
-0.052089721 -0.022063432 -0.025639333 9866637
-0.050661262 -0.022244491 -0.024643769 10520455
-0.04926705 -0.022514256 -0.023174645 11566204
-0.047883354 -0.022821417 -0.021505795 10257283
-0.046504322 -0.023154164 -0.019700237 10911872
-0.045189664 -0.023664631 -0.016945835 11892342
-0.043848015 -0.024129849 -0.014432828 11697019
-0.042517196 -0.024646405 -0.011645523 11238781
-0.041214027 -0.025263645 -0.0083205402 9991798
-0.039381053 -0.024442011 -0.012677667 7825255
-0.03784975 -0.024436871 -0.012675541 7564396
-0.036318302 -0.024431288 -0.01267583 6972773
-0.034786843 -0.024425611 -0.012676587 5789784
-0.033255409 -0.024419941 -0.012677287 4473924
-0.03172401 -0.024414316 -0.012677811 5987163
-0.030192623 -0.024408655 -0.012678451 7762032
-0.028661262 -0.02440303 -0.012678976 8288119
-0.027129931 -0.024397416 -0.01267938 8551291
-0.025598621 -0.024391817 -0.012679728 8551291
-0.024067335 -0.024386229 -0.012680016 8551291
-0.022536064 -0.024380621 -0.012680423 8222069
-0.021048199 -0.024548396 -0.011754747 8418677
-0.019805703 -0.025747092 -0.0053223688 10519427
-0.018189957 -0.025431465 -0.006978543 10921381
-0.016557883 -0.025016882 -0.0091634337 11041402
-0.014960168 -0.024727959 -0.010677177 9007473
-0.013411868 -0.024655296 -0.011035728 7104102
-0.011906839 -0.024797888 -0.010244301 7038566
-0.010408246 -0.024989614 -0.0091903964 6644065
-0.0088709826 -0.024983017 -0.0091959601 6776165
-0.0073337546 -0.024976419 -0.0092015238 6973287
-0.0057965652 -0.024969812 -0.0092071472 7105130
-0.0042594131 -0.024963217 -0.0092127109 6052956
-0.0027223004 -0.024956619 -0.0092182755 5197647
-0.0011852247 -0.024950014 -0.0092238989 5395026
0.00035180961 -0.024943434 -0.0092294067 7368302
0.0018888108 -0.024936827 -0.009235031 10387327
0.0034257709 -0.024930231 -0.0092405956 8616570
0.0049626939 -0.024923626 -0.0092462199 6907751
0.0064995782 -0.024917029 -0.0092517845 8879228
0.0080364244 -0.024910433 -0.0092573501 5460819
0.0095727285 -0.024911402 -0.0092224823 5723991
0.011098728 -0.025093298 -0.0082205664 6184542
-0.084957398 -0.020197831 -0.028104424 6908265
-0.083452575 -0.020192327 -0.02810481 6908265
-0.081947751 -0.020186821 -0.028105255 6908265
-0.080442965 -0.020181317 -0.028105641 7303023
-0.078938186 -0.020175805 -0.028106084 7565938
-0.077433445 -0.020170318 -0.028106412 7828853
-0.07592871 -0.020164805 -0.028106857 10323333
-0.074423961 -0.020159246 -0.028107598 11565176
-0.072919235 -0.020153679 -0.028108338 11761013
-0.071414568 -0.020148177 -0.028108723 11370367
-0.069909923 -0.020142689 -0.028109051 8157818
-0.068405293 -0.020137204 -0.028109379 9668230
-0.0669007 -0.020131726 -0.028109647 7828853
-0.065396115 -0.020126233 -0.028109975 6513507
-0.063891545 -0.020120736 -0.028110363 10259082
-0.062386964 -0.020115171 -0.028111102 11827063
-0.060897809 -0.020140296 -0.027946549 9735308
-0.059407331 -0.020163836 -0.027790466 11831689
-0.057910502 -0.020175321 -0.027699374 11959420
-0.056469113 -0.02030425 -0.026975578 9669515
-0.055025939 -0.020434679 -0.026243651 9472393
-0.053607009 -0.020623725 -0.025195891 11699332
-0.052235793 -0.020927584 -0.023529474 10587019
-0.050940018 -0.021416906 -0.020863749 9012099
-0.049526852 -0.021653432 -0.019559857 9996167
-0.048025548 -0.021690253 -0.019331958 8288890
-0.04703607 -0.022978032 -0.012363456 9209221
-0.045713499 -0.023493789 -0.0095545435 10062731
-0.044360023 -0.023955157 -0.0070385351 8945792
-0.043002151 -0.024427565 -0.0044628591 7368045
-0.041684072 -0.025030391 -0.0011841751 8881798
-0.040214106 -0.025246294 9.5093455e-06 10197915
-0.037925046 -0.023161646 -0.011195248 4210752
-0.036324438 -0.022960873 -0.012247513 4604739
-0.034783378 -0.022926645 -0.012402226 5195848
-0.033251714 -0.022919485 -0.012411055 4998726
-0.031720106 -0.022912364 -0.012419647 4868168
-0.03017424 -0.022858795 -0.012678628 5920599
-0.028643606 -0.02285317 -0.012679216 6249821
-0.027112994 -0.022847535 -0.012679804 5263440
-0.025582405 -0.022841919 -0.012680334 5197647
-0.024051841 -0.02283632 -0.012680746 5329233
-0.022521302 -0.022830732 -0.012681098 5263440
-0.021177649 -0.023565209 -0.0086915176 5000011
-0.020164758 -0.025715629 0.002932485 10197915
-0.0185552 -0.025486642 0.0017281512 10855845
-0.016547263 -0.023466568 -0.0091336649 10718605
-0.015010445 -0.023459664 -0.0091410019 4605253
-0.013473669 -0.02345274 -0.009148458 3750201
-0.011936938 -0.023445826 -0.0091558546 3223857
-0.010400251 -0.023438895 -0.0091633089 3618615
-0.0088636084 -0.023431981 -0.0091707064 3815994
-0.0073270118 -0.023425059 -0.0091781635 3881787
-0.0057904576 -0.023418145 -0.009185561 3947580
-0.0042539481 -0.023411222 -0.0091930181 3881787
-0.0027174857 -0.023404302 -0.0092004137 3684408
-0.0011810657 -0.02339739 -0.0092078112 3552822
0.00035530946 -0.023390476 -0.0092152096 5131597
0.001891642 -0.023383554 -0.0092226677 6709344
0.0034279278 -0.023376642 -0.0092300661 5986392
0.0049641426 -0.023370024 -0.0092358747 4210752
0.0065003149 -0.023363436 -0.0092415055 5920599
0.0080364477 -0.023356862 -0.0092470795 3618615
0.0095719555 -0.023359017 -0.0092055462 4737096
0.01109801 -0.02352613 -0.0082740551 6970974
-0.084912822 -0.018675735 -0.028105024 9077121
-0.083408706 -0.018670239 -0.028105475 7303023
-0.081904605 -0.018664751 -0.028105866 6513507
-0.080400534 -0.018659256 -0.028106255 6579300
-0.078896485 -0.018653769 -0.028106647 6710886
-0.077392437 -0.018648265 -0.028107157 7105644
-0.075888388 -0.018642707 -0.0281079 8880770
-0.074384354 -0.018637156 -0.028108647 9865866
-0.072880372 -0.018631654 -0.028109096 9865609
-0.071376435 -0.018626193 -0.028109372 9668487
-0.069872506 -0.018620715 -0.028109703 7828853
-0.068368606 -0.018615248 -0.028109977 8486526
-0.066864714 -0.01860977 -0.02811031 10061960
-0.065366216 -0.018614335 -0.02805605 10324361
-0.063880764 -0.01864405 -0.027865039 9668230
-0.062394679 -0.018673772 -0.027673967 9602180
-0.060907975 -0.018703528 -0.027482716 7829110
-0.059443437 -0.018779131 -0.027042165 8749441
-0.058020975 -0.018944012 -0.026116082 9866123
-0.056623157 -0.019166954 -0.024874194 7697524
-0.055338174 -0.019639283 -0.022276053 8158075
-0.054019641 -0.02005804 -0.019969059 9604236
-0.052552413 -0.020164432 -0.019360714 8420990
-0.051042356 -0.020178495 -0.019254509 7894903
-0.049523488 -0.020172974 -0.019254789 7565938
-0.048879318 -0.022236235 -0.0080028009 6842472
-0.047561206 -0.022762835 -0.0051083844 7565938
-0.046234973 -0.023293849 -0.0021897242 6841444
-0.044880405 -0.023778431 0.00047653331 7237230
-0.043506313 -0.024235999 0.0029960505 10197915
-0.042171594 -0.02482119 0.0062099537 10197915
-0.040810946 -0.025365708 0.0092028501 10197915
-0.03789565 -0.021590048 -0.01130736 8092539
-0.036305275 -0.021417785 -0.012214531 4144702
-0.034766156 -0.02138757 -0.012348942 5524556
-0.033235148 -0.021380506 -0.012357366 5524299
-0.031704176 -0.021373406 -0.012366028 4407617
-0.030173257 -0.021366315 -0.01237463 3815480
-0.028642369 -0.021359188 -0.012383409 3815480
-0.027111543 -0.021352082 -0.012392069 2302755
-0.025580939 -0.0213456 -0.012397374 2236962
-0.024069052 -0.021407425 -0.012030943 2236962
-0.022596108 -0.021621365 -0.010836624 2960685
-0.021322735 -0.022634523 -0.005292621 4802889
-0.020444937 -0.025336586 0.0094437506 10197915
-0.016688602 -0.022587633 -0.0054571377 6579043
-0.014946941 -0.021664402 -0.010452118 3158064
-0.013411989 -0.021651946 -0.010489868 3552822
-0.011877834 -0.021642756 -0.010509828 5920342
-0.010343768 -0.021633577 -0.01052973 5985878
-0.0088097891 -0.021624388 -0.010549691 6051414
-0.0072758957 -0.0216152 -0.010569653 6051414
-0.0057420922 -0.021606026 -0.010589557 5985878
-0.0042083738 -0.02159684 -0.010609519 5920342
-0.0026747435 -0.021587661 -0.010629422 5657170
-0.0011412004 -0.021578472 -0.010649385 4671046
0.00039225514 -0.021569286 -0.010669348 5460305
0.0019256229 -0.021560108 -0.010689252 6183257
0.0034588987 -0.021550974 -0.010708921 3947580
0.0049920869 -0.021541867 -0.010728474 4539460
0.0065251892 -0.021532744 -0.010748084 6248536
0.0080582034 -0.021523638 -0.010767638 5591120
0.0095911333 -0.021514526 -0.010787189 7167325
0.011121052 -0.021555301 -0.010535044 7692384
0.012648672 -0.021659939 -0.0099350819 6840159
0.014175598 -0.021833092 -0.0089619085 6971745
0.015701706 -0.022141626 -0.0072512585 6774109
-0.084868275 -0.017155068 -0.028105723 11043201
-0.083364874 -0.017149597 -0.028106121 8945792
-0.081861503 -0.017144119 -0.028106518 7171180
-0.080358148 -0.017138641 -0.028106915 7303023
-0.078854799 -0.017133145 -0.028107429 7894646
-0.077351436 -0.017127603 -0.02810818 7828853
-0.075848103 -0.017122062 -0.02810893 8026232
-0.074344821 -0.017116576 -0.028109385 8683648
-0.07284157 -0.017111108 -0.028109722 8486269
-0.071338341 -0.017105648 -0.028110001 7566195
-0.069835126 -0.017100189 -0.02811034 6974058
-0.068339549 -0.017108344 -0.028035907 7171437
-0.066848151 -0.017124563 -0.027917227 9209221
-0.065368734 -0.017163713 -0.027672691 11240580
-0.063894324 -0.017213834 -0.027367873 8814463
-0.062450044 -0.017323794 -0.026734626 7631731
-0.061032776 -0.017490795 -0.025788203 6842215
-0.059717622 -0.017867643 -0.023689782 7105644
-0.058459468 -0.018374803 -0.02087584 8354940
-0.057043687 -0.018575614 -0.019743519 9077635
-0.055563897 -0.018649468 -0.019308129 8355197
-0.054050371 -0.018653821 -0.019254263 7631988
-0.052532181 -0.0186483 -0.019254606 7039851
-0.051014025 -0.018642813 -0.019254774 6842472
-0.050738011 -0.02148574 -0.0036149935 6381921
-0.04942118 -0.022014873 -0.00067906902 5855577
-0.048094865 -0.022545334 0.0022643146 7762032
-0.046760313 -0.023080284 0.0052326033 9473678
-0.045405224 -0.023589205 0.0080581503 11512747
-0.044025615 -0.024059933 0.01067413 12365486
-0.04265679 -0.024582656 0.013575818 12365229
-0.037906662 -0.02013224 -0.010804718 12365229
-0.036330871 -0.020003401 -0.011482092 7038309
-0.03479201 -0.019975724 -0.011603899 7368559
-0.033251513 -0.019941796 -0.011760003 5789270
-0.031711742 -0.019908398 -0.011913221 5328976
-0.030171361 -0.019871334 -0.012086596 5789013
-0.028634686 -0.019844433 -0.012204167 4736325
-0.027099818 -0.019822244 -0.01229587 4276031
-0.025569918 -0.019816265 -0.012298469 3815737
-0.024065603 -0.019902909 -0.011792262 3749944
-0.022610318 -0.020179903 -0.010240197 3881530
-0.021469336 -0.021699771 -0.0018593094 8221555
-0.016459065 -0.020077422 -0.010682172 7104359
-0.014901649 -0.01995796 -0.011308332 2565927
-0.013369084 -0.019946482 -0.011341159 2894892
-0.011837511 -0.019939303 -0.011350355 6380122
-0.010306031 -0.019932339 -0.011358372 6576216
-0.0087746773 -0.019925816 -0.011363974 6576473
-0.0072433627 -0.019919304 -0.011369516 6576216
-0.0057120854 -0.019912791 -0.011375058 6576473
-0.0041808453 -0.019906268 -0.011380659 6576473
-0.0026496425 -0.019899756 -0.011386203 6182486
-0.0011184788 -0.019893233 -0.011391805 4933961
0.00041264753 -0.019886721 -0.011397348 6117207
0.0019437347 -0.019880209 -0.01140289 7167839
0.0034747836 -0.019873695 -0.011408433 4670789
0.0050057964 -0.019867174 -0.011414036 5393998
0.0065367711 -0.019860646 -0.011419637 6576730
0.0080677066 -0.019854151 -0.011425124 6576473
0.0095985094 -0.019849032 -0.011423005 7561312
0.011126976 -0.019883186 -0.011204932 6576730
0.012653437 -0.019972317 -0.010684619 4868425
0.014179225 -0.020121947 -0.0098315822 4605253
0.01570469 -0.020376217 -0.0084031019 4013373
0.017229527 -0.020887414 -0.0055616819 4342081
-0.08482378 -0.015635865 -0.028106349 11761527
-0.083321102 -0.015630413 -0.028106693 10780029
-0.081818447 -0.015624943 -0.028107094 8683134
-0.080315776 -0.015619437 -0.028107733 8354683
-0.078813106 -0.015613913 -0.028108489 8945278
-0.077310465 -0.015608381 -0.028109243 8617341
-0.075807877 -0.015602894 -0.028109763 7697524
-0.074305326 -0.015597451 -0.028110048 8223354
-0.07280615 -0.015597678 -0.028078914 7960439
-0.071312629 -0.015607758 -0.027993195 6381921
-0.069827691 -0.0156333 -0.027821762 6316128
-0.068357326 -0.015685707 -0.027501486 6381921
-0.066902116 -0.01576741 -0.027018864 7302766
-0.065460183 -0.015876519 -0.026384324 9602437
-0.064089052 -0.016121974 -0.024994168 7894646
-0.062675074 -0.016294919 -0.024005735 6381921
-0.061227549 -0.016409397 -0.023341279 6447714
-0.059850883 -0.0166682 -0.021876859 6513507
-0.058519814 -0.01702882 -0.019848093 7697524
-0.05701242 -0.017041996 -0.019744867 9734023
-0.055538114 -0.017125078 -0.019254215 8552319
-0.054020606 -0.017119538 -0.01925474 7039851
-0.052503146 -0.017114034 -0.019255029 6710886
-0.052613713 -0.020729627 0.00081768149 5723991
-0.051298276 -0.021261232 0.0037955663 4408131
-0.049971472 -0.021790097 0.0067583919 5984593
-0.04863653 -0.022323696 0.0097477268 13345956
-0.04729367 -0.022862913 0.012768402 11775148
-0.045936514 -0.023392247 0.015734462 12692909
-0.038336802 -0.019825321 -0.0039188322 13410464
-0.036628243 -0.019354424 -0.0064993496 13344414
-0.03507578 -0.019310175 -0.0067141037 12102828
-0.033501945 -0.01919999 -0.0072945086 11118503
-0.031912997 -0.019037297 -0.0081661679 12169649
-0.030291749 -0.01876308 -0.00965642 13019304
-0.028693719 -0.018547779 -0.010820005 13085354
-0.027123548 -0.018412638 -0.011539061 7894132
-0.025587376 -0.018386897 -0.011651385 8878971
-0.024079088 -0.018459789 -0.011216571 7299168
-0.022645772 -0.018816836 -0.0092056012 9205623
-0.021812329 -0.021511637 0.0057734158 13214884
-0.016442172 -0.018506661 -0.010804174 8417906
-0.014888002 -0.018398661 -0.011372856 4013116
-0.013356541 -0.018388521 -0.011398628 4013116
-0.011825928 -0.018382031 -0.011404179 5788756
-0.010295352 -0.018375535 -0.011409728 5328462
-0.0087648146 -0.018369045 -0.011415279 5328205
-0.0072343159 -0.018362548 -0.011420828 5328462
-0.0057038525 -0.018356049 -0.01142644 5328462
-0.0041734283 -0.018349554 -0.011431989 5459791
-0.0026430413 -0.018343065 -0.011437541 5722706
-0.0011126936 -0.018336575 -0.011443092 4999754
0.00041761907 -0.018330071 -0.011448702 7037024
0.0019478685 -0.018323781 -0.011453133 9461342
0.0034777927 -0.018320197 -0.011442526 7232861
0.0050077345 -0.018316619 -0.011431922 6051157
0.006537694 -0.018313026 -0.011421375 5394255
0.0080676712 -0.018309448 -0.011410771 5394255
0.0095976666 -0.018305862 -0.011400164 5328462
0.011125723 -0.018335005 -0.011207942 4605253
0.01265229 -0.018406529 -0.010780375 3815994
0.014177164 -0.018555205 -0.0099245226 3947323
0.015702069 -0.018796334 -0.008555281 3947580
0.017226713 -0.019265143 -0.0059219142 4604996
-0.084779337 -0.014118117 -0.028106898 10976637
-0.083277367 -0.014112656 -0.028107366 11824493
-0.081775375 -0.01410715 -0.028108068 10583678
-0.08027342 -0.014101644 -0.02810877 8814206
-0.078771472 -0.014096128 -0.02810953 8617341
-0.077269562 -0.014090641 -0.028110115 8354683
-0.07577499 -0.014097025 -0.028044293 7368816
-0.074285015 -0.014111322 -0.027934242 7697524
-0.072810732 -0.014152464 -0.02767398 7697524
-0.071345575 -0.014210613 -0.027318528 6316128
-0.06990318 -0.014310226 -0.026731122 6250335
-0.06848602 -0.014457683 -0.025875958 6250335
-0.06714505 -0.014746615 -0.024229204 6184542
-0.06563697 -0.014741688 -0.02422652 7368559
-0.06412825 -0.014735584 -0.024230443 7105644
-0.062637337 -0.014762975 -0.024046937 6316128
-0.061180033 -0.01485607 -0.02349576 6381921
-0.059796993 -0.015098078 -0.022111217 6513507
-0.058482256 -0.015485639 -0.019912047 7368816
-0.056981303 -0.015510075 -0.019744905 8420733
-0.055475987 -0.015526605 -0.019621994 8026489
-0.053990874 -0.015586698 -0.019255264 7039594
-0.05267024 -0.016004443 -0.016886748 5789784
-0.053189315 -0.02049428 0.0082739983 5197390
-0.05186433 -0.021026529 0.011284537 6184028
-0.050529663 -0.021560188 0.014303193 12104370
-0.049098164 -0.021890309 0.016182661 12104370
-0.047535207 -0.021919422 0.016377281 13151661
-0.037167594 -0.019366369 0.0022724215 13149605
-0.035606991 -0.019340154 0.0021568269 13669267
-0.034024488 -0.019248059 0.0016722793 13475486
-0.03242394 -0.019096026 0.00085210358 12823724
-0.030791853 -0.018836461 -0.00057032378 11250346
-0.02916358 -0.018573396 -0.0020124088 11250346
-0.027502296 -0.018183928 -0.004162523 10395294
-0.025815656 -0.017681843 -0.0069434633 11118760
-0.02420813 -0.017427184 -0.0083388379 11250089
-0.02286824 -0.018140372 -0.0043136096 11250089
-0.016427405 -0.016946832 -0.010875551 8550777
-0.014874549 -0.016841885 -0.01143271 6116436
-0.013344244 -0.016833326 -0.011449948 6839131
-0.011814445 -0.016826859 -0.011455508 5262926
-0.010284685 -0.016820386 -0.011461065 3355443
-0.0087549603 -0.016813913 -0.011466624 3158064
-0.0072252755 -0.016807441 -0.011472182 3158064
-0.005695628 -0.016800968 -0.01147774 2960685
-0.0041663167 -0.016796412 -0.011472562 3158064
-0.0026371488 -0.016792813 -0.011462016 4999497
-0.0011079641 -0.016789231 -0.011451413 5262412
0.00042123941 -0.016785633 -0.011440867 7299682
0.0019504594 -0.016782042 -0.011430261 10048596
0.0034796975 -0.01677845 -0.011419716 8740703
0.0050089527 -0.016774861 -0.01140911 4933704
0.0065382263 -0.016771261 -0.011398563 2500134
0.0080675157 -0.016767671 -0.011387957 2500134
0.0095968237 -0.01676408 -0.011377413 2500134
0.011125324 -0.016774165 -0.011290173 4013116
0.012651145 -0.016842557 -0.010876097 6313815
0.014175119 -0.016989924 -0.010019312 6576473
0.015699266 -0.017224362 -0.0086743822 6707545
0.017223464 -0.017665839 -0.0061687375 6641752
-0.084734932 -0.012601799 -0.02810755 8617598
-0.083233625 -0.012596293 -0.028108316 11565433
-0.081732355 -0.012590786 -0.028109081 11367026
-0.08023341 -0.012588835 -0.028089788 8683134
-0.07873939 -0.012594622 -0.028026773 7894646
-0.077263415 -0.012629279 -0.027800677 7697524
-0.075792007 -0.012672486 -0.027526317 6579300
-0.074345075 -0.012757114 -0.027017888 6579300
-0.072907634 -0.012860373 -0.026404252 6513507
-0.071571477 -0.013137796 -0.024806611 6447714
-0.070124261 -0.013234308 -0.024230953 6381921
-0.068616547 -0.013228847 -0.024231343 6316128
-0.06710875 -0.013223185 -0.024232853 6316128
-0.065601379 -0.013218258 -0.024230232 6250335
-0.064094022 -0.01321334 -0.024227554 6316128
-0.062599629 -0.013232622 -0.024088161 6447714
-0.061146669 -0.013331573 -0.023498552 6381921
-0.059744626 -0.013533069 -0.022329435 6316128
-0.058444723 -0.013944137 -0.019975988 6184542
-0.056950215 -0.013979607 -0.019744927 5723991
-0.055438474 -0.013981268 -0.019704929 5460562
-0.054101523 -0.01434933 -0.017594179 6380636
-0.055096768 -0.01971926 0.012785911 8090483
-0.05377214 -0.020251336 0.015824908 6447200
-0.052224498 -0.020309158 0.016183594 10790052
-0.050647754 -0.020303411 0.01618298 10790052
-0.049071029 -0.020297645 0.016182248 10790052
-0.032945197 -0.019157154 0.010052208 11775405
-0.031305764 -0.018923752 0.0087640621 10526880
-0.029663865 -0.01866829 0.007351086 10526623
-0.027991515 -0.018296383 0.0052794963 10263708
-0.026294248 -0.017815325 0.0025905329 10395294
-0.02462801 -0.017411096 0.00033582366 10526880
-0.023185337 -0.017794156 0.0025336 10526880
-0.016412657 -0.015388737 -0.010946808 9078920
-0.014861114 -0.015286807 -0.011492434 5853264
-0.013331964 -0.015279796 -0.011501188 9199198
-0.01180313 -0.015274082 -0.011502564 8349800
-0.010274734 -0.015270478 -0.011492019 6379865
-0.0087463213 -0.015266875 -0.011481472 6051414
-0.0072178943 -0.01526328 -0.011470867 6051157
-0.0056894454 -0.015259676 -0.011460322 4342081
-0.0041609835 -0.015256088 -0.011449719 4341824
-0.0026325008 -0.015252485 -0.011439173 7889506
-0.0011040017 -0.01524889 -0.011428568 7887707
0.00042451447 -0.015245286 -0.011418021 8283493
0.0019530492 -0.015241682 -0.011407475 9460571
0.0034816007 -0.015238087 -0.01139687 5656656
0.0050101699 -0.015234482 -0.011386324 2500134
0.0065387567 -0.015230888 -0.011375718 2302755
0.0080673601 -0.015227283 -0.011365172 2171169
0.0098877037 -0.011094439 -0.0347252 2236962
0.011376706 -0.011084262 -0.03475263 3552822
0.012865596 -0.011074092 -0.034780059 6182229
0.014354374 -0.011063924 -0.034807492 6379094
0.015843039 -0.011053764 -0.034834865 6050386
0.017331593 -0.011043605 -0.034862239 5064519
0.018820034 -0.011033437 -0.034889672 3749309
-0.084690504 -0.011086839 -0.028108655 6645093
-0.08319553 -0.011089635 -0.028062144 9208964
-0.081713185 -0.011111556 -0.027906548 9273986
-0.080239967 -0.011148152 -0.027667247 7960439
-0.07878311 -0.011211233 -0.027276888 9076607
-0.077340581 -0.011298828 -0.026746623 9995139
-0.075932935 -0.01144481 -0.025883306 8814463
-0.074607983 -0.011729247 -0.024230091 8748927
-0.073100932 -0.011723785 -0.024230544 8748670
-0.071593896 -0.011718332 -0.024230937 8683134
-0.070086874 -0.011712868 -0.024231451 8682877
-0.068579867 -0.011707406 -0.024231903 8617084
-0.067072891 -0.011701943 -0.024232356 8551548
-0.065565892 -0.011696407 -0.024233283 8485498
-0.06405919 -0.011691381 -0.024231259 8551291
-0.062562086 -0.011704073 -0.024128107 8419705
-0.061113331 -0.011808521 -0.023501387 7959154
-0.059699766 -0.011984592 -0.022465905 7367017
-0.05840949 -0.01240874 -0.020014649 7563111
-0.056919258 -0.012450794 -0.019743813 8878714
-0.055407241 -0.012450381 -0.019715313 8155505
-0.055306852 -0.015379432 -0.0029673663 6973287
-0.055347856 -0.018729275 0.016183427 6184028
-0.053771846 -0.018723601 0.016183162 4473410
-0.052195854 -0.018717917 0.016182838 8092539
-0.050619829 -0.018712098 0.016181746 10197915
-0.016410738 -0.013886304 -0.01070991 10658466
-0.014861344 -0.013793323 -0.011209861 6644836
-0.013332712 -0.013787605 -0.01121136 6775394
-0.011804105 -0.013781897 -0.0112128 8220013
-0.01027552 -0.013776173 -0.011214296 9137774
-0.0087469602 -0.013770465 -0.011215736 9334896
-0.0072184238 -0.013764747 -0.011217236 9203310
-0.0056899097 -0.013759039 -0.011218675 7169638
-0.0041614203 -0.013753315 -0.011220172 5986649
-0.0026329567 -0.013747607 -0.011221612 8481900
-0.0011045136 -0.01374189 -0.011223111 8482414
0.00042390529 -0.013736174 -0.011224611 8285806
0.001952298 -0.013730466 -0.011226051 8482928
0.0034806086 -0.013725295 -0.011224421 5656913
0.005008826 -0.013720914 -0.011218242 6315357
0.0065370454 -0.013716541 -0.011212065 4671303
0.0080652684 -0.013712151 -0.011205946 4539460
0.009887022 -0.0095938183 -0.034713998 4932162
0.011375337 -0.0095837265 -0.034741327 1908054
0.01286354 -0.0095736096 -0.034768775 2170969
0.014351632 -0.0095635187 -0.034796108 1842261
0.01583961 -0.0095534017 -0.034823559 789685
0.017327478 -0.0095433025 -0.034850951 2894570
0.018810853 -0.0098802336 -0.032894339 5063910
-0.084684372 -0.0096284905 -0.027791958 6579300
-0.083214216 -0.0096672755 -0.027537728 6973801
-0.081773788 -0.0097514605 -0.027021993 7039594
-0.080344923 -0.0098556802 -0.026390795 6710886
-0.079020232 -0.010122464 -0.024823057 8157304
-0.077581234 -0.010220101 -0.024229696 9404801
-0.076074861 -0.010214658 -0.024230093 9076607
-0.074568488 -0.010209202 -0.024230612 9011071
-0.073062144 -0.010203756 -0.024231071 9010814
-0.071555816 -0.010198303 -0.024231529 9207936
-0.070049517 -0.010192857 -0.024231987 9929860
-0.068543233 -0.010187412 -0.024232447 9601409
-0.067036957 -0.010181949 -0.024232963 8813949
-0.065530725 -0.010176513 -0.024233364 8616056
-0.064024501 -0.010171068 -0.024233824 7826540
-0.062528111 -0.010183605 -0.024130629 7431268
-0.061075442 -0.010278373 -0.023553524 8088170
-0.059670668 -0.010467915 -0.022430146 8616056
-0.058374383 -0.0108751 -0.020052329 6710372
-0.056888454 -0.010923673 -0.019741265 6908265
-0.055377152 -0.010923237 -0.019712698 6776165
-0.055054974 -0.013367153 -0.0055943527 6578015
-0.055317737 -0.017139502 0.016182562 5328719
-0.053742476 -0.017133828 0.016182233 3486772
-0.052167188 -0.017128069 0.016181368 7895160
-0.016458506 -0.012591559 -0.0092785042 11118503
-0.01490018 -0.012468099 -0.0099593354 12037292
-0.013370581 -0.012464433 -0.0099490173 11315882
-0.011840961 -0.012460748 -0.0099388165 10263708
-0.010311329 -0.012457081 -0.0099284984 10263708
-0.0087816771 -0.012453397 -0.0099182976 10263708
-0.0072520128 -0.01244973 -0.0099079786 10263708
-0.0057223281 -0.012446045 -0.0098977787 10263708
-0.004192628 -0.012442369 -0.0098875184 10263708
-0.0026629134 -0.012438694 -0.0098772589 11578540
-0.0011331802 -0.012435018 -0.0098669985 10921638
0.00039656795 -0.012431342 -0.0098567391 10263708
0.0019263329 -0.012427666 -0.0098464787 11052967
0.003455932 -0.012425619 -0.0098268259 11315882
0.0049853991 -0.012425355 -0.0097968942 10263708
0.0065149502 -0.012425074 -0.0097670192 10263708
0.0080445847 -0.01242481 -0.0097370865 10395294
0.0098863384 -0.0080946134 -0.034702644 11315882
0.011373968 -0.0080845645 -0.034730051 4210652
0.012861487 -0.0080745164 -0.034757458 1710826
0.014348892 -0.0080644777 -0.034784809 921321
0.015836185 -0.0080544297 -0.034812216 1907946
0.017323367 -0.0080443909 -0.034839567 4997861
0.018798668 -0.0089555206 -0.029548161 6574045
-0.084763281 -0.0082919495 -0.026768597 8157561
-0.083365738 -0.0084370496 -0.025893329 7960439
-0.082057476 -0.0087177884 -0.024228796 7894903
-0.080551736 -0.008712342 -0.02422932 7171437
-0.079046026 -0.0087069049 -0.024229784 6908265
-0.077540338 -0.0087014679 -0.024230247 7434352
-0.076034673 -0.0086960318 -0.024230711 7500145
-0.074529015 -0.0086905947 -0.024231175 8223097
-0.073023394 -0.0086851586 -0.024231639 8025975
-0.071517788 -0.0086797308 -0.024232043 7565681
-0.070012197 -0.0086742854 -0.024232566 7894132
-0.068506628 -0.0086688586 -0.024232972 6841701
-0.067001075 -0.0086634131 -0.024233496 5723734
-0.065495543 -0.0086579761 -0.02423396 5394769
-0.063990034 -0.0086525399 -0.024234423 6315871
-0.062491536 -0.0086597959 -0.024161028 6579300
-0.061036859 -0.0087484857 -0.023613552 6447714
-0.059641596 -0.0089525701 -0.022394337 5592405
-0.058342755 -0.0093496451 -0.0200515 4671303
-0.056857683 -0.0093979938 -0.019738698 5460819
-0.055421691 -0.0095463647 -0.01884355 6776422
-0.055012804 -0.011791921 -0.0057381964 7037024
-0.055287648 -0.015551233 0.016181696 4473924
-0.053713128 -0.015545575 0.016181361 3552822
-0.01684556 -0.012693875 0.0003142819 11315882
-0.015153034 -0.012061364 -0.0033395921 12822696
-0.013615632 -0.012070256 -0.0032558301 11381418
-0.012077968 -0.012079167 -0.0031719485 10197915
-0.010540032 -0.012088068 -0.0030881253 10197915
-0.0090018297 -0.012096968 -0.0030043011 10197915
-0.0074633597 -0.012105877 -0.0029204164 10197915
-0.0059247459 -0.012115495 -0.0028323943 10197915
-0.0043858909 -0.012125378 -0.0027428346 10197915
-0.0028466226 -0.012134413 -0.0026581781 10592673
-0.00130646 -0.012139092 -0.0025989367 10395294
0.00023383737 -0.012144145 -0.0025375073 10197915
0.0017737771 -0.012153669 -0.0024500124 10461087
0.0033139961 -0.012163201 -0.0023624571 10526880
0.0048544961 -0.012172733 -0.0022749009 10197915
0.0063952766 -0.012182264 -0.0021873435 10197915
0.0079363389 -0.012191794 -0.0020997853 10263708
0.0098856566 -0.0065967636 -0.034691431 10526880
0.011372601 -0.0065867831 -0.0347188 4999896
0.012859434 -0.0065768035 -0.034746166 3157738
0.014346154 -0.0065668169 -0.034773532 460777
0.015832763 -0.0065568374 -0.034800902 3814888
0.01731926 -0.0065468587 -0.034828268 7557841
0.018786399 -0.0080245696 -0.026179282 7885774
-0.085024647 -0.0072115166 -0.024227787 9930117
-0.083519556 -0.0072060511 -0.024228491 10258825
-0.082014494 -0.0072005861 -0.024229197 10193289
-0.080509469 -0.0071951398 -0.024229784 8420733
-0.079004459 -0.0071897032 -0.024230311 6316128
-0.077499487 -0.0071842829 -0.024230782 6118749
-0.075994536 -0.0071788644 -0.024231192 6184542
-0.074489601 -0.0071734446 -0.024231661 7960439
-0.072984673 -0.0071680075 -0.02423219 8353655
-0.07147979 -0.00716259 -0.024232598 4605510
-0.069974914 -0.0071571697 -0.024233069 4539717
-0.068470061 -0.0071517429 -0.024233539 4408131
-0.066965215 -0.0071463156 -0.024234006 5658198
-0.065460406 -0.0071408958 -0.024234477 6579300
-0.063955612 -0.007135469 -0.024234947 6579300
-0.062459026 -0.0071447738 -0.024148811 6513507
-0.061003737 -0.0072301864 -0.023615152 6513507
-0.05961255 -0.0074385162 -0.02235865 4934475
-0.058314133 -0.0078312978 -0.020017369 5329233
-0.05691769 -0.0080496008 -0.018702008 5066061
-0.055914056 -0.0090529686 -0.012769542 6118492
-0.054982368 -0.010242246 -0.005743294 6183514
-0.05510667 -0.013653922 0.014354321 3815994
-0.015511848 -0.012085596 0.0059429188 12627116
-0.013951812 -0.01206096 0.0058304034 11184296
-0.012399388 -0.012069937 0.005915795 10197915
-0.010846695 -0.01207893 0.0060012448 10197915
-0.0092937248 -0.012087905 0.0060866382 10461087
-0.0077404841 -0.012096896 0.0061720898 10658466
-0.006186971 -0.012105889 0.0062576043 10724002
-0.0046331845 -0.012114887 0.006343117 10724002
-0.0030791257 -0.012123886 0.006428631 10855588
-0.0015247932 -0.012132876 0.0065141483 10921638
2.9813054e-05 -0.012141872 0.0065996642 10790052
0.001584693 -0.012150877 0.0066852407 10658466
0.0031398449 -0.012159864 0.0067707603 10461087
0.0046952702 -0.012168877 0.0068563982 10197915
0.0062509701 -0.01217788 0.0069419774 10197915
0.0083986036 -0.0051102317 -0.034652803 10197915
0.0098849759 -0.0051003033 -0.034680188 10263708
0.011371235 -0.0050903847 -0.034707513 4604137
0.012857383 -0.0050804638 -0.034734897 3091946
0.014343419 -0.0050705462 -0.034762222 2039530
0.015829343 -0.0050606187 -0.034789607 4734691
0.017315157 -0.0050507016 -0.034816936 6376408
0.018774047 -0.0070872875 -0.022787675 5128930
-0.084980272 -0.0056957291 -0.024228156 11042430
-0.08347591 -0.0056902897 -0.024228809 10846336
-0.081971563 -0.005684834 -0.024229519 10519941
-0.080467224 -0.0056793853 -0.024230231 8683391
-0.07896293 -0.0056739482 -0.024230823 6447714
-0.077458672 -0.0056685372 -0.024231298 5921370
-0.07595443 -0.0056631193 -0.024231771 4539717
-0.074450202 -0.0056577083 -0.024232246 6578015
-0.072946005 -0.0056522973 -0.024232721 9663604
-0.071441829 -0.0056468961 -0.024233136 10191233
-0.069937669 -0.0056414781 -0.024233609 8486526
-0.068433516 -0.0056360671 -0.024234086 7434609
-0.066929393 -0.0056306566 -0.024234561 7434609
-0.065425292 -0.0056252461 -0.024235036 8157818
-0.063921221 -0.0056198374 -0.024235452 8420990
-0.062426541 -0.0056311474 -0.024136622 8355197
-0.06097262 -0.005716892 -0.023595558 8420990
-0.05958309 -0.0059249699 -0.02232776 7236459
-0.058441296 -0.0066074254 -0.018241681 8025461
-0.057420168 -0.0075481478 -0.012620929 6578272
-0.056412745 -0.008553233 -0.0066174283 4934475
-0.055391673 -0.0095719369 -0.00053252367 4671046
-0.054996662 -0.011908727 0.013384398 4802118
0.0083986074 -0.003615093 -0.034641564 10197915
0.0098842951 -0.0036052165 -0.034668963 10461087
0.011369871 -0.0035953571 -0.034696307 6048992
0.012855335 -0.0035854981 -0.034723651 2960106
0.014340687 -0.0035756393 -0.034750998 2171113
0.015825927 -0.0035657901 -0.034778282 3354599
0.017311057 -0.0035559156 -0.034805685 3420391
0.018761612 -0.0061436398 -0.019372895 2039530
-0.084935963 -0.0041813822 -0.024228508 11174016
-0.083432302 -0.0041759522 -0.024229163 8420219
-0.081928663 -0.0041705123 -0.02422988 6381921
-0.080425046 -0.0041650729 -0.024230598 5329233
-0.078921452 -0.0041596433 -0.024231255 3618615
-0.077417888 -0.0041542226 -0.024231853 3947580
-0.075914368 -0.0041488302 -0.024232274 5658198
-0.074410848 -0.0041434192 -0.024232812 7171437
-0.072907366 -0.0041380269 -0.024233233 8552319
-0.071403898 -0.0041326256 -0.024233714 9143171
-0.069900446 -0.004127224 -0.024234192 9668487
-0.068397015 -0.0041218316 -0.024234613 9996424
-0.066893607 -0.0041164304 -0.024235094 9996424
-0.065390222 -0.0041110292 -0.024235575 10455690
-0.063886859 -0.0041056373 -0.024235995 10652555
-0.062394097 -0.0041189105 -0.024124401 10651784
-0.060941517 -0.0042049643 -0.023575986 10783113
-0.059553493 -0.0044124592 -0.022298658 10255741
-0.058280393 -0.0048422148 -0.019687168 10778230
-0.056776583 -0.004850544 -0.019605074 9138802
-0.055320434 -0.0049517262 -0.018965606 5328976
-0.055893615 -0.0090689091 0.0057813711 6183771
-0.054962255 -0.010320716 0.013329071 5262155
0.0083986111 -0.0021213202 -0.034630347 10197915
0.0098836152 -0.0021115197 -0.034657709 9735340
0.011368507 -0.0021017217 -0.034685008 6508251
0.012853288 -0.0020919146 -0.03471237 2894570
0.014337957 -0.0020821153 -0.034739733 658153
0.015822515 -0.0020723182 -0.034767035 723945
0.017306961 -0.0020625216 -0.034794338 526569
0.018749092 -0.0051935492 -0.01593486 855529
-0.084891677 -0.002668475 -0.024228837 6316128
-0.083388731 -0.0026630447 -0.02422956 4408131
-0.081885815 -0.002657624 -0.024230221 4671046
-0.080382898 -0.0026522011 -0.024230944 6907494
-0.078880019 -0.002646771 -0.024231667 7105130
-0.077377155 -0.0026413505 -0.024232328 7171437
-0.075874329 -0.0026359486 -0.024232872 6579300
-0.074371539 -0.0026305725 -0.024233298 6579300
-0.072868764 -0.0026251802 -0.024233783 6579300
-0.071365997 -0.002619795 -0.024234271 6579300
-0.069863267 -0.0026144122 -0.024234695 8617598
-0.068360552 -0.0026090201 -0.02423518 10127239
-0.066857852 -0.002603635 -0.024235666 10127239
-0.065355174 -0.0025982524 -0.024236092 10127239
-0.063852519 -0.0025928675 -0.024236578 10192775
-0.062361676 -0.0026080618 -0.024112208 11500925
-0.060910445 -0.002694393 -0.023556495 10847364
-0.059523921 -0.0029012698 -0.022269627 9339008
-0.058222771 -0.0032737339 -0.019978436 7696496
-0.056719974 -0.0032815679 -0.019898556 3684408
-0.055255268 -0.0033629537 -0.019372582 4605253
-0.056401707 -0.00855844 0.012172944 6643294
-0.05536031 -0.0095982477 0.01851365 4604996
0.0083986139 -0.00062892801 -0.034619156 10724259
0.0098829363 -0.000619189 -0.034646474 9867186
0.011367145 -0.00060945033 -0.034673795 4275175
0.012851243 -0.0005997048 -0.034701113 1052905
0.014335229 -0.00058996677 -0.034728434 66024
0.015819104 -0.0005802291 -0.034755755 131816
0.017302869 -0.00057049171 -0.034783076 1184489
0.018736485 -0.0042369389 -0.0124733 3683560
0.020232169 -0.012265782 0.036345769 6906828
-0.084847443 -0.001157001 -0.024229148 9529962
-0.083345205 -0.0011515707 -0.024229933 10386813
-0.081843004 -0.0011461757 -0.024230544 10913414
-0.080340803 -0.0011407619 -0.02423127 11043972
-0.078838632 -0.0011353411 -0.024231996 10912386
-0.077336475 -0.0011299276 -0.024232725 9077378
-0.075834341 -0.0011245162 -0.024233392 7631731
-0.07433226 -0.0011191496 -0.024233824 7500145
-0.072830193 -0.0011137642 -0.024234373 7500145
-0.071328141 -0.0011083977 -0.024234805 6974058
-0.069826119 -0.0011030147 -0.024235295 6645093
-0.068324126 -0.0010976576 -0.024235668 7171180
-0.066822134 -0.0010922819 -0.024236159 6842472
-0.065320164 -0.0010869063 -0.024236651 6513507
-0.063818224 -0.00108154 -0.024237083 6513507
-0.062329292 -0.00109861 -0.024099983 9865352
-0.060879409 -0.0011851833 -0.023536962 8091768
-0.059494376 -0.001391418 -0.022240609 6513507
-0.058191109 -0.001755037 -0.019979553 5460819
-0.056689061 -0.0017627984 -0.019899344 3750201
-0.055222336 -0.0018381383 -0.019404933 3421236
-0.054459881 -0.0032813041 -0.010526597 3486772
0.0083986185 0.00086209789 -0.034607984 11972270
0.0098822564 0.00087176607 -0.034635201 7762123
0.011365783 0.00088144548 -0.034662541 1710570
0.012849201 0.0008911317 -0.034689877 131816
0.014332505 0.00090080826 -0.034717157 131816
0.015815698 0.00091049605 -0.034744557 658153
0.01729878 0.00092016259 -0.034771778 3486183
0.018723791 -0.0032737558 -0.0089878878 5522912
0.020224202 -0.011278857 0.040200405 5986763
-0.084803246 0.00035305877 -0.024229556 11433590
-0.083301723 0.00035845398 -0.024230229 6645093
-0.081800215 0.0003638585 -0.024230961 6645093
-0.080298744 0.00036925357 -0.024231635 7171437
-0.078797273 0.00037465798 -0.024232367 9930117
-0.077295825 0.00038006232 -0.024233101 11828605
-0.075794414 0.00038545721 -0.024233773 11828605
-0.074293017 0.0003908427 -0.024234388 11827320
-0.072791666 0.00039620005 -0.024234824 11829376
-0.071290329 0.00040156671 -0.024235319 9472136
-0.069789015 0.00040692394 -0.024235757 7171437
-0.068287715 0.00041229048 -0.024236253 9930888
-0.066786446 0.00041764759 -0.024236688 8880256
-0.065285191 0.00042301402 -0.024237186 6513507
-0.063783951 0.00042837102 -0.024237622 6513507
-0.062296927 0.00040947055 -0.024087843 6579300
-0.060848396 0.00032266011 -0.02351745 5658198
-0.059464868 0.00011710112 -0.02221154 6184542
-0.058159489 -0.00023777319 -0.019980649 5526612
-0.056658342 -0.00024577545 -0.019898217 3289650
-0.055189438 -0.0003148705 -0.019437294 2631720
-0.054462153 -0.0018093416 -0.010146766 2236962
0.0083986213 0.0023517483 -0.034596775 12168107
0.0098815784 0.0023613572 -0.034624014 8089545
0.011364425 0.0023709845 -0.034651369 3617511
0.012847159 0.0023806021 -0.034678668 3354599
0.014329783 0.0023902194 -0.034705963 3025641
0.015812295 0.0023998341 -0.034733199 2368489
0.017294696 0.00240946 -0.034760557 5391324
0.01871101 -0.0023039414 -0.0054784198 6572500
0.020216176 -0.01028475 0.044083107 7302052
-0.084759101 0.0018616834 -0.02422988 11629941
-0.083258279 0.0018670716 -0.02423062 6645093
-0.081757486 0.0018724574 -0.024231298 6579300
-0.080256715 0.0018778527 -0.024232036 6645093
-0.078755967 0.0018832219 -0.024232656 7105387
-0.077255234 0.0018886171 -0.024233393 7368816
-0.075754523 0.0018939956 -0.024234073 8026232
-0.074253827 0.0018993905 -0.024234811 9996167
-0.072753169 0.0019047667 -0.024235429 9536901
-0.071252547 0.0019101076 -0.024235873 7039851
-0.069751941 0.0019154556 -0.024236314 7105644
-0.068251356 0.0019207963 -0.024236757 9799045
-0.066750802 0.0019261441 -0.024237199 11369853
-0.065250255 0.0019315013 -0.0242377 8551805
-0.063749723 0.0019368419 -0.024238143 6513507
-0.062264599 0.001916161 -0.024075668 6513507
-0.060817413 0.0018291515 -0.023497956 5855577
-0.059435375 0.0016243084 -0.022182601 5789784
-0.05812788 0.0012780621 -0.019981844 5526612
-0.056627665 0.0012698125 -0.019897006 5656913
-0.055156577 0.0012068312 -0.01946955 5196876
-0.054461602 -0.00033218143 -0.0098004136 4933447
-0.054468982 -0.0032958174 0.0087894648 4012602
0.0083986251 0.0038400253 -0.034585591 11184296
0.0098809013 0.003849582 -0.034612846 10256052
0.011363067 0.0038591479 -0.034640159 7884489
0.01284512 0.0038687061 -0.034667473 6901205
0.014327062 0.0038782619 -0.034694731 6310362
0.015808893 0.0038878175 -0.034721985 3420392
0.017290615 0.0038973819 -0.034749299 4274916
0.018698141 -0.0013274023 -0.0019446852 7228880
0.020208091 -0.0092833862 0.047994256 10982835
-0.084714986 0.0033688843 -0.024230244 11891571
-0.083214879 0.0033742541 -0.024230927 10126982
-0.081714787 0.003379633 -0.024231672 10127239
-0.080214731 0.0033850023 -0.024232356 9930631
-0.078714691 0.0033903788 -0.024233039 8026232
-0.077214658 0.0033957574 -0.024233783 6447714
-0.075714663 0.0034011267 -0.024234468 6710886
-0.074214682 0.003406496 -0.024235152 7565938
-0.072714724 0.0034118723 -0.024235835 7500145
-0.071214795 0.0034172225 -0.024236402 6447714
-0.069714904 0.0034225541 -0.024236849 7039851
-0.06821502 0.003427895 -0.024237357 9602437
-0.066715173 0.0034332243 -0.024237743 11891057
-0.065215342 0.0034385649 -0.024238251 11043201
-0.063715518 0.0034438963 -0.024238698 9930374
-0.062232289 0.0034214803 -0.02406358 9930374
-0.060786448 0.0033342931 -0.02347854 9864067
-0.059405904 0.0031301831 -0.022153612 10190976
-0.058096319 0.002792448 -0.019982964 10909816
-0.056596994 0.0027839788 -0.019895896 10249059
-0.055130456 0.0027146474 -0.019423636 9594213
-0.054460619 0.0011455587 -0.0094593512 8675167
-0.054463163 -0.0017778617 0.0090775536 4735297
0.0083986297 0.005326943 -0.034574427 9276299
0.0098802242 0.0053364406 -0.0346017 9468082
0.011361709 0.0053459378 -0.034628972 4275176
0.012843083 0.0053554419 -0.034656242 592361
0.014324345 0.0053649382 -0.034683518 658153
0.015805496 0.0053744344 -0.034710791 394729
0.017286537 0.0053839376 -0.034738064 197608
0.018685183 -0.00034407346 0.0016135221 789737
0.020199947 -0.0082746698 0.051934011 10194874
-0.084670916 0.0048746597 -0.024230583 9077121
-0.083171524 0.0048800129 -0.024231274 9077378
-0.081672139 0.0048853825 -0.024232022 9143171
-0.080172785 0.0048907427 -0.024232712 9077378
-0.078673445 0.0048961029 -0.024233401 7697524
-0.077174135 0.0049014627 -0.02423409 6710886
-0.075674847 0.0049068229 -0.024234779 8026232
-0.074175566 0.004912185 -0.02423553 9142914
-0.072676316 0.0049175448 -0.024236221 9142914
-0.071177088 0.0049229139 -0.02423697 9077378
-0.069677897 0.0049282364 -0.02423742 8486269
-0.068178736 0.0049335491 -0.024237815 8223611
-0.066679589 0.0049388809 -0.024238326 10781571
-0.065180458 0.004944203 -0.024238778 11043201
-0.063681357 0.004949525 -0.024239231 9733766
-0.062199954 0.004925529 -0.024052167 9405572
-0.060755573 0.0048379893 -0.023458548 9602180
-0.059376463 0.0046347436 -0.022124691 8944507
-0.058071401 0.0042938036 -0.019909821 9141372
-0.056566369 0.0042967265 -0.01989476 9792363
-0.055124748 0.0041840337 -0.019139986 5788242
-0.054459631 0.002623036 -0.0091184266 2171169
-0.054457352 -0.00026037145 0.0093655083 6572104
0.0083986316 0.0068124854 -0.034563221 9464169
0.0098795481 0.0068219309 -0.034590513 3024586
0.011360354 0.0068313759 -0.034617804 658153
0.012841047 0.0068408116 -0.034645032 4011751
0.01432163 0.0068502557 -0.034672324 7557071
0.015802102 0.0068596834 -0.034699559 3551720
0.017282464 0.0068691177 -0.034726791 197608
0.018672135 0.00064609438 0.00519665 197608
0.020191744 -0.0072585391 0.055902824 9735318
-0.084626883 0.0063790111 -0.024230961 6316128
-0.083128199 0.0063843625 -0.024231654 6381921
-0.081629522 0.0063897064 -0.02423235 6447714
-0.080130883 0.0063950573 -0.024233043 7368559
-0.07863225 0.0064004101 -0.024233799 8157561
-0.077133641 0.006405761 -0.024234492 7368816
-0.075635061 0.0064111045 -0.024235189 8617598
-0.074136496 0.0064164554 -0.024235884 10717320
-0.07263796 0.0064217895 -0.024236521 11110793
-0.071139432 0.0064271493 -0.024237273 10914185
-0.069640927 0.0064324834 -0.02423791 9209221
-0.068142466 0.0064378059 -0.024238426 6776679
-0.066644035 0.0064431117 -0.024238886 8486269
-0.065145619 0.0064484151 -0.024239283 9405572
-0.063647218 0.0064537209 -0.024239743 7697524
-0.06216697 0.0064292983 -0.024047904 8091768
-0.06072513 0.0063396553 -0.023434181 7894903
-0.059347056 0.0061379736 -0.022095783 6315871
-0.058128357 0.0056520356 -0.018918546 6579043
-0.056627963 0.0056450553 -0.018839296 4473667
-0.055176813 0.0055488264 -0.018182723 3158064
-0.054458644 0.004100237 -0.0087774582 2039583
-0.05445154 0.0012566348 0.0096534481 7298397
0.0083986353 0.0082966778 -0.034552097 9594984
0.009878872 0.0083060618 -0.034579344 1710279
0.011358998 0.0083154384 -0.034606595 66024
0.012839014 0.0083248243 -0.034633905 1250281
0.014318918 0.0083342073 -0.034661151 2631401
0.015798712 0.0083435727 -0.034688342 4406246
0.017278394 0.0083529558 -0.034715593 2894313
0.018658994 0.001643192 0.008804787 66024
0.020183479 -0.0062348917 0.05990091 12625831
-0.085732959 0.0083148554 -0.027094884 7302766
-0.084364213 0.0081612915 -0.026057137 7237230
-0.083084919 0.0078872861 -0.024232011 6447714
-0.081586957 0.0078926207 -0.024232712 6316128
-0.080089018 0.0078979554 -0.024233412 8748670
-0.078591093 0.00790329 -0.024234112 11566975
-0.077093199 0.0079086237 -0.024234813 9406086
-0.075595319 0.0079139583 -0.024235513 7368559
-0.074097462 0.0079192929 -0.024236213 8223354
-0.072599627 0.0079246266 -0.024236916 9209735
-0.071101807 0.0079299686 -0.024237614 8881027
-0.069604009 0.0079353023 -0.024238314 6513507
-0.068106249 0.0079406276 -0.024238957 6381921
-0.066608511 0.0079459241 -0.024239421 6776679
-0.06511081 0.0079512112 -0.024239825 7237230
-0.063613109 0.0079565169 -0.024240348 8354940
-0.062134031 0.007931645 -0.024043493 11633796
-0.060694721 0.0078399815 -0.023409765 10455176
-0.05931823 0.0076389434 -0.022060703 6381664
-0.0580175 0.00730009 -0.019810073 6381664
-0.05716145 0.006170114 -0.0123846 6577244
-0.055711653 0.0060542435 -0.011592014 7167068
-0.054697175 0.0051412899 -0.0055852742 7626334
-0.054444831 0.0027748398 0.0099303219 5721678
0.008398639 0.0097795026 -0.034540933 7431782
0.0098781977 0.009788827 -0.034568198 232
0.011357646 0.0097981514 -0.034595467 232
0.012836982 0.0098074656 -0.034622673 66024
0.014316208 0.00981679 -0.034649942 131816
0.015795324 0.0098261042 -0.034677148 2039530
0.01727102 0.0097086038 -0.033873301 4209124
0.018645762 0.0026472947 0.012438265 4668901
0.020175153 -0.0052036461 0.063928604 11111307
-0.085587412 0.0099373907 -0.02792736 11763326
-0.084112801 0.009921981 -0.027791185 11763326
-0.082667314 0.0098686609 -0.027404374 7171437
-0.081251502 0.0097750677 -0.026751354 6316128
-0.08004719 0.0093994346 -0.024233755 7565938
-0.078549974 0.0094047599 -0.024234461 10322819
-0.077052787 0.0094100777 -0.024235167 11761784
-0.075555615 0.009415403 -0.024235873 11632768
-0.074058466 0.009420719 -0.024236519 9143171
-0.072561331 0.0094260462 -0.024237284 9275271
-0.071064226 0.0094313705 -0.02423799 9865352
-0.069567136 0.0094366865 -0.024238637 6447714
-0.068070069 0.0094420044 -0.024239345 6381921
-0.066573024 0.0094473101 -0.024239931 6447714
-0.065076023 0.0094525972 -0.024240399 6513507
-0.063579045 0.009457875 -0.024240809 7039851
-0.062101115 0.0094326055 -0.024039172 9536901
-0.06066433 0.0093389796 -0.023385422 11958906
-0.059289698 0.0091381641 -0.022022653 10189691
-0.057990514 0.0088014845 -0.019761045 8288376
-0.056489233 0.0088012032 -0.019724524 7563882
-0.056496095 0.0061395862 -0.0020830226 6972259
-0.055228926 0.005663624 0.0011010035 5130826
-0.054436892 0.0042947987 0.010192134 4275517
0.0083986418 0.011260974 -0.034529787 4868425
0.0098775234 0.01127024 -0.034557071 232
0.011356293 0.011279503 -0.034584295 232
0.012834952 0.011288758 -0.034611523 232
0.0143135 0.01129802 -0.034638748 232
0.015791938 0.011307275 -0.034665972 66024
0.017253773 0.010692099 -0.030554675 2631657
0.018632436 0.0036584577 0.016097348 7230166
0.020166766 -0.0041647363 0.067986287 7697524
-0.085521989 0.011457084 -0.028100787 8879742
-0.084032036 0.011462296 -0.028100986 9603208
-0.08255551 0.011450524 -0.027987638 6974058
-0.081080407 0.011436447 -0.027858833 6316128
-0.079616524 0.011407169 -0.027628429 6644836
-0.078191377 0.011325561 -0.027048104 8157561
-0.076843373 0.01113753 -0.02575616 9603208
-0.075515941 0.010915422 -0.024236208 9734537
-0.074019507 0.010920729 -0.024236858 8092025
-0.072523072 0.010926046 -0.024237629 8092025
-0.071026675 0.010931346 -0.024238283 8157818
-0.069530286 0.01093667 -0.024239052 6447714
-0.068033926 0.010941969 -0.024239704 6447714
-0.066537581 0.010947278 -0.024240417 6447714
-0.065041281 0.010952565 -0.024240948 7434609
-0.063544996 0.010957844 -0.024241421 10718091
-0.062068224 0.010932164 -0.024034882 11305859
-0.060633965 0.010836656 -0.02336115 12021101
-0.059261195 0.010636108 -0.021984663 10383472
-0.057959497 0.010308428 -0.019757546 7762803
-0.056459695 0.010306863 -0.019712094 6381921
-0.054965246 0.010295722 -0.01960255 7631217
-0.055831503 0.0060804603 0.0086360807 5000011
-0.054754768 0.0052220738 0.014415805 4078138
0.0083738621 0.012480528 -0.032772493 4868425
