# .PCD v0.7 - Point Cloud Data file format
VERSION 0.7
FIELDS x y z rgb
SIZE 4 4 4 4
TYPE F F F U
COUNT 1 1 1 1
WIDTH 1030
HEIGHT 1
VIEWPOINT 0 0 0 1 0 0 0
POINTS 1030
DATA ascii
-0.0050132102 0.02788656 -0.067157835 5671735
-0.0045954473 0.027878648 -0.065249778 6328900
-0.0041761259 0.027870743 -0.063334599 6328645
-0.003755217 0.027862791 -0.061412193 5999678
-0.0033327243 0.027854808 -0.059482537 5736761
-0.0029086454 0.027846817 -0.057545617 5539639
-0.0024829584 0.027838802 -0.055601373 5211188
-0.0020556417 0.027830699 -0.053649697 4816945
-0.001626718 0.027822614 -0.05169066 4487980
-0.0011961585 0.027814487 -0.049724154 3236910
-0.0007639486 0.027806301 -0.047750119 3958350
-0.00033009303 0.027798116 -0.045768578 6193779
0.00010542317 0.027789876 -0.043779425 4158045
0.00054260279 0.027781645 -0.041782685 2580810
0.00098146778 0.027773364 -0.039778255 3567450
-0.015965167 -0.025208414 -0.12332838 13733518
-0.016067814 -0.023178928 -0.12333897 13147549
-0.016170112 -0.021156441 -0.12334955 13212057
-0.016272051 -0.01914099 -0.1233601 13410207
-0.016373642 -0.017132511 -0.12337062 12692395
-0.016474878 -0.015130985 -0.12338109 12560809
-0.016575761 -0.013136392 -0.1233915 12824238
-0.016676307 -0.011148626 -0.12340192 12693680
-0.0167765 -0.009167715 -0.1234123 10197915
-0.016876346 -0.0071936431 -0.12342261 10197915
-0.016975855 -0.0052262978 -0.12343291 10197915
-0.017075021 -0.0032657068 -0.12344316 10197915
-0.017173849 -0.0013118143 -0.12345338 10197915
-0.017272333 0.00063540239 -0.12346355 10197915
-0.01737049 0.0025759989 -0.1234737 10724002
-0.017468316 0.0045100432 -0.12348386 11381418
-0.017565804 0.0064374609 -0.12349392 10724259
-0.017662967 0.008358405 -0.12350399 10197915
-0.017759793 0.010272797 -0.12351398 10197915
-0.017856294 0.012180742 -0.12352397 10197915
-0.017952485 0.014082308 -0.12353395 10329501
-0.018048324 0.015977373 -0.12354381 12102828
-0.018143857 0.017866131 -0.1235537 11971242
-0.018239072 0.019748554 -0.12356355 11971242
-0.01833396 0.02162466 -0.12357336 11642277
-0.018428549 0.023494551 -0.12358318 11839656
-0.018522797 0.025358113 -0.12359289 12037035
-0.018616783 0.027215665 -0.12360276 12299950
-0.018471712 0.028110566 -0.12273192 12168621
-0.018100807 0.028103502 -0.12102746 12036778
-0.017728597 0.02809643 -0.11931697 12364458
-0.017355058 0.028089326 -0.11760039 12364972
-0.016980192 0.028082214 -0.1158777 11184553
-0.016603976 0.028075015 -0.11414882 10197915
-0.016226428 0.028067842 -0.1124138 10197915
-0.015847521 0.028060623 -0.11067256 10658466
-0.015467267 0.028053418 -0.1089251 12037035
-0.015085627 0.028046122 -0.10717131 11970728
-0.014702627 0.028038835 -0.10541124 12232872
-0.014318245 0.028031537 -0.10364483 12364201
-0.013932486 0.028024245 -0.10187207 13147549
-0.013545309 0.028016848 -0.10009283 13083812
-0.013156737 0.028009454 -0.098307155 11512747
-0.012766753 0.028002037 -0.096515 10855588
-0.012375347 0.027994577 -0.094716303 12364715
-0.011982528 0.02798713 -0.092911094 13604759
-0.011588254 0.027979592 -0.09109924 9078648
-0.011192546 0.027972072 -0.089280784 5405760
-0.010795396 0.027964538 -0.087455682 3832103
-0.010396786 0.027956976 -0.085623875 3438111
-0.0099966908 0.027949318 -0.083785266 3964450
-0.0095951427 0.027941711 -0.081939951 8824170
-0.0091921026 0.02793405 -0.080087803 11251077
-0.0087875603 0.027926311 -0.078228749 7838804
-0.0083815316 0.027918601 -0.076362863 6854987
-0.0079739876 0.027910814 -0.074490003 5672506
-0.0075649358 0.027903054 -0.072610229 4357922
-0.007154352 0.02789522 -0.0707234 4226592
-0.0067422478 0.027887411 -0.068829589 3963933
-0.0063285907 0.027879525 -0.06692864 4029213
-0.0059133852 0.027871627 -0.065020584 4291872
-0.0054966314 0.027863739 -0.063105397 5606460
-0.0050782938 0.027855756 -0.061182946 5145907
-0.0046583801 0.027847741 -0.059253242 7311950
-0.0042368835 0.027839715 -0.057316273 7508814
-0.0038138048 0.027831702 -0.055372022 7377230
-0.0033891038 0.027823601 -0.053420339 7311439
-0.0029628067 0.027815515 -0.051461287 7179854
-0.0025348812 0.027807385 -0.049494769 6916429
-0.0021053243 0.027799232 -0.047520768 4221764
-0.0016741169 0.027790999 -0.045539171 4550745
-0.0012412642 0.027782748 -0.043550003 5996142
-0.00080675911 0.027774502 -0.041553248 5273958
-0.00037057948 0.027766204 -0.039548799 4748642
6.7292633e-05 0.027757835 -0.037536595 5473137
0.00050683063 0.027749499 -0.035516702 5013097
-0.017317208 -0.026568949 -0.12363967 13472659
-0.01741755 -0.024536198 -0.12364976 13669781
-0.017517539 -0.022510557 -0.12365979 12233386
-0.017617185 -0.020491911 -0.12366982 12495273
-0.01771648 -0.018480284 -0.12367977 12496301
-0.017815441 -0.016475581 -0.12368974 11447211
-0.017914047 -0.014477868 -0.12369962 11578540
-0.018012322 -0.012486983 -0.1237095 11381675
-0.01811026 -0.010502972 -0.12371935 11250346
-0.018207852 -0.0085257981 -0.12372913 10197915
-0.018305121 -0.0065553645 -0.12373891 10592416
-0.018402051 -0.004591702 -0.12374865 10724259
-0.01849865 -0.0026347386 -0.12375836 10789795
-0.018594919 -0.00068446348 -0.12376803 10526880
-0.018690867 0.0012591853 -0.12377768 10263708
-0.018786486 0.003196225 -0.12378731 11118503
-0.018881766 0.0051266328 -0.12379684 12364972
-0.018976737 0.0070505543 -0.12380639 11512490
-0.019071378 0.0089679118 -0.12381587 10790052
-0.019165713 0.010878867 -0.12382537 10724259
-0.019259721 0.012783341 -0.12383482 10658209
-0.019353421 0.014681436 -0.12384426 11052710
-0.019446788 0.016573085 -0.12385361 13734546
-0.019539857 0.018458437 -0.12386297 12819355
-0.01963261 0.020337461 -0.12387229 13016991
-0.019725045 0.022210177 -0.12388155 12885148
-0.019817183 0.024076682 -0.12389082 13016734
-0.019909011 0.025936954 -0.12390005 12950684
-0.020000536 0.027791047 -0.12390926 12819355
-0.019712115 0.028103931 -0.12250445 12950941
-0.019343473 0.028096823 -0.12079989 12691110
-0.018973541 0.028089754 -0.11908934 11578540
-0.018602282 0.028082605 -0.11737266 11118760
-0.018229712 0.028075486 -0.11564992 10658466
-0.017855812 0.028068325 -0.11392102 10197915
-0.017480575 0.028061142 -0.11218594 10263708
-0.017103978 0.028053869 -0.11044459 10921638
-0.016726052 0.028046655 -0.10869708 12886690
-0.016346762 0.028039383 -0.10694326 13082013
-0.015966104 0.028032081 -0.10518313 13082013
-0.015584079 0.028024765 -0.10341666 13082013
-0.015200667 0.028017407 -0.10164379 13212571
-0.014815871 0.028010031 -0.09986452 13344414
-0.014429687 0.028002653 -0.098078825 12037806
-0.014042091 0.02799521 -0.096286602 11250089
-0.013653079 0.027987719 -0.094487838 13082784
-0.013262658 0.027980242 -0.092682563 13080471
-0.01287082 0.027972756 -0.090870708 13147292
-0.012477545 0.02796524 -0.089052223 5333819
-0.012082811 0.027957626 -0.087227009 5932103
-0.011686638 0.027950022 -0.085395128 3568929
-0.011289022 0.027942447 -0.08355657 3701023
-0.010889928 0.027934795 -0.081711181 6197316
-0.010489353 0.027927084 -0.079858951 9152367
-0.010087305 0.02791938 -0.077999905 8693093
-0.0096837701 0.027911661 -0.076133981 6657349
-0.0092787351 0.027903901 -0.074261121 5869628
-0.0088721858 0.027896088 -0.072381265 4949293
-0.0084641296 0.027888274 -0.070494443 4555046
-0.0080545414 0.027880404 -0.068600543 4226591
-0.0076434338 0.02787254 -0.066699587 3963420
-0.0072307773 0.027864618 -0.064791486 4948780
-0.0068165772 0.0278567 -0.062876262 5934398
-0.0064008073 0.027848689 -0.060953759 6328650
-0.0059834872 0.027840724 -0.059024092 7312723
-0.0055645844 0.027832706 -0.05708712 7049805
-0.0051440881 0.027824616 -0.055142775 7246670
-0.0047220062 0.027816515 -0.053191081 7246160
-0.0042983289 0.027808428 -0.051232025 7114576
-0.0038730262 0.027800255 -0.049265452 7048528
-0.0034461028 0.027792055 -0.047291394 5209153
-0.0030175594 0.027783852 -0.045309827 3695685
-0.0025873776 0.027775632 -0.043320686 5863526
-0.0021555356 0.027767332 -0.041323874 5995371
-0.0017220379 0.027759017 -0.039319411 5601639
-0.0012868848 0.027750708 -0.037307274 5733996
-0.00085003563 0.027742311 -0.035287317 5930862
-0.000411502 0.027733888 -0.033259563 5667171
-0.018768394 -0.025894623 -0.12396079 12693423
-0.018866077 -0.023865769 -0.1239703 13541536
-0.018963417 -0.021843962 -0.12397975 11709869
-0.019060425 -0.019829152 -0.12398921 11250089
-0.019157097 -0.01782131 -0.12399863 11315882
-0.019253431 -0.015820421 -0.124008 10855588
-0.019349435 -0.013826423 -0.12401734 11512490
-0.019445108 -0.011839299 -0.12402666 10329501
-0.019540446 -0.0098590255 -0.12403591 10329501
-0.019635467 -0.0078855073 -0.12404518 10263708
-0.01973016 -0.0059187566 -0.12405439 11709355
-0.019824531 -0.0039587226 -0.1240636 12560552
-0.01991857 -0.0020054332 -0.12407272 12757160
-0.0200123 -5.873125e-05 -0.12408187 11447211
-0.020105708 0.0018813097 -0.12409096 10461087
-0.02019879 0.0038147522 -0.12410001 11118760
-0.020291574 0.0057416963 -0.12410907 12952997
-0.020384025 0.007662036 -0.12411803 13148320
-0.020447131 0.0094537903 -0.12401857 12691624
-0.020490941 0.011160121 -0.123848 12560809
-0.020534629 0.012861904 -0.12367786 11971242
-0.020578204 0.014559201 -0.12350819 12821668
-0.020621665 0.016252024 -0.12333896 13536910
-0.020665012 0.017940372 -0.12317018 11446183
-0.020708233 0.019624216 -0.1230018 11775148
-0.020751366 0.021303745 -0.12283397 11446183
-0.020794371 0.022978792 -0.12266652 11643562
-0.020837253 0.024649411 -0.12249947 11511976
-0.020880036 0.0263157 -0.1223329 11445926
-0.020922706 0.027977621 -0.12216677 11643562
-0.020585649 0.028090149 -0.1205724 11644333
-0.020217998 0.028083075 -0.1188618 10790052
-0.019849025 0.028075924 -0.11714506 10263708
-0.019478748 0.028068805 -0.11542226 10263708
-0.019107139 0.028061595 -0.11369326 10197915
-0.018734211 0.028054405 -0.11195812 10197915
-0.018359944 0.028047163 -0.11021676 10263708
-0.017984334 0.028039891 -0.10846915 11709355
-0.01760738 0.028032608 -0.10671527 11774634
-0.017229076 0.028025333 -0.10495511 11709098
-0.016849399 0.028017996 -0.10318857 11709098
-0.01646835 0.028010618 -0.10141565 11972270
-0.016085923 0.02800322 -0.099636309 12103856
-0.015702112 0.027995816 -0.097850546 11250346
-0.015316911 0.027988387 -0.096058294 10855845
-0.014930302 0.027980909 -0.094259508 11774891
-0.014542283 0.0279734 -0.092454158 11774634
-0.014152853 0.027965881 -0.090642236 11840170
-0.013761998 0.027958328 -0.088823676 10060412
-0.013369711 0.027950762 -0.086998478 6191945
-0.012975984 0.027943159 -0.085166566 5604161
-0.012580804 0.027935501 -0.083327882 3633953
-0.012184171 0.027927846 -0.081482463 4554028
-0.01178608 0.02792017 -0.079630241 6263366
-0.011386515 0.02791246 -0.077771157 8497772
-0.010985468 0.027904727 -0.075905196 7708505
-0.010582923 0.027896915 -0.074032255 6526022
-0.010178894 0.027889129 -0.072152399 6197830
-0.009773354 0.027881298 -0.070265532 5738044
-0.0093662934 0.027873408 -0.068371594 4621095
-0.0089577204 0.027865522 -0.066470601 4095007
-0.0085476181 0.027857615 -0.0645625 5737277
-0.0081359744 0.027849672 -0.062647223 7378000
-0.0077227759 0.027841672 -0.06072472 8166239
-0.007308031 0.027833676 -0.058795005 8363876
-0.0068917107 0.027825624 -0.056857985 4488743
-0.0064738267 0.027817579 -0.054913674 4554024
-0.0060543455 0.027809441 -0.052961931 4619562
-0.0056332801 0.027801313 -0.051002819 4684845
-0.0052106078 0.027793134 -0.049036238 4815920
-0.0047863261 0.027784929 -0.04706217 4487469
-0.0043604313 0.02777672 -0.045080587 3434288
-0.0039329017 0.027768446 -0.043091394 3433031
-0.0035037382 0.027760174 -0.041094609 4485730
-0.0030729221 0.027751843 -0.039090127 4618342
-0.0026404583 0.027743516 -0.037077975 4224610
-0.0022063206 0.027735138 -0.035058044 4552805
-0.0017704982 0.027726691 -0.033030272 4288605
-0.001332992 0.027718237 -0.03099468 7109735
-0.00089379825 0.027709762 -0.028951207 7377251
-0.020215722 -0.025222123 -0.12428103 11447211
-0.020293534 -0.023273708 -0.12422575 12562608
-0.020338787 -0.021474836 -0.12405012 11118760
-0.020383919 -0.019680845 -0.12387497 10526880
-0.020428915 -0.017891768 -0.12370027 10526880
-0.020473791 -0.016107555 -0.12352604 10921381
-0.020518545 -0.014328199 -0.12335227 11644076
-0.020563181 -0.012553631 -0.123179 10197915
-0.020607699 -0.010783846 -0.1230062 10197915
-0.020652091 -0.009018884 -0.12283384 10329501
-0.020696372 -0.0072586383 -0.12266199 11971499
-0.020740522 -0.005503187 -0.12249055 12167336
-0.020784568 -0.0037523902 -0.12231964 12430251
-0.020828484 -0.0020063713 -0.12214912 11578797
-0.020872287 -0.0002649783 -0.12197911 10460830
-0.020915966 0.0014717041 -0.12180952 10855845
-0.02095953 0.003203732 -0.12164037 12168364
-0.021002984 0.0049311616 -0.1214717 12297894
-0.021046314 0.0066539589 -0.12130347 12167593
-0.021089543 0.0083722202 -0.12113573 12233386
-0.021132637 0.010085827 -0.12096837 12168364
-0.021175627 0.011794914 -0.12080149 12428709
-0.021218501 0.013499458 -0.12063504 13407380
-0.021261258 0.015199466 -0.12046902 10724259
-0.021303913 0.016895033 -0.1203035 10789795
-0.02134645 0.018586081 -0.12013838 10724259
-0.021388866 0.020272624 -0.11997366 10789795
-0.021431178 0.02195476 -0.1198094 10789795
-0.021473384 0.023632493 -0.11964562 10790052
-0.021515464 0.025305748 -0.1194822 10790052
-0.02155745 0.026974672 -0.11931927 10658466
-0.02146196 0.028076401 -0.11863435 10395294
-0.021095281 0.028069295 -0.1169176 10197915
-0.020727279 0.028062077 -0.11519466 10197915
-0.020357978 0.028054906 -0.11346564 10197915
-0.01998735 0.028047668 -0.1117304 10197915
-0.019615412 0.028040458 -0.10998902 10197915
-0.019242125 0.028033176 -0.10824135 10789795
-0.018867493 0.028025836 -0.10648736 10790052
-0.018491529 0.028018545 -0.10472715 10790052
-0.018114202 0.02801119 -0.10296055 10790052
-0.017735522 0.028003834 -0.10118759 10790052
-0.017355459 0.027996412 -0.099408194 11381418
-0.016974024 0.027988983 -0.097622357 11446954
-0.016591204 0.027981529 -0.095830046 10987174
-0.016206998 0.027974062 -0.09403123 10789795
-0.01582139 0.027966566 -0.09222585 10987174
-0.015434369 0.027959011 -0.090413861 11905963
-0.015045938 0.027951466 -0.088595271 13409179
-0.01465608 0.027943861 -0.086769998 7893344
-0.014264807 0.027936302 -0.084938094 7505752
-0.013872077 0.027928643 -0.08309938 6786385
-0.013477898 0.027920943 -0.081253879 6196038
-0.013082264 0.027913222 -0.079401582 6656843
-0.012685187 0.027905542 -0.077542506 7904861
-0.012286623 0.02789776 -0.075676464 9085289
-0.011886584 0.02788998 -0.073803529 8756576
-0.011485049 0.027882135 -0.071923591 8166235
-0.011082025 0.027874289 -0.070036687 8166494
-0.0106775 0.027866421 -0.068142742 6788427
-0.010271473 0.027858555 -0.066241749 5212211
-0.009863901 0.027850583 -0.064333566 5803071
-0.009454811 0.027842615 -0.062418245 7246928
-0.0090441843 0.027834626 -0.060495738 7903064
-0.0086320071 0.027826598 -0.058565978 8757609
-0.0082182921 0.027818594 -0.056628995 7575898
-0.0078029865 0.027810471 -0.054684591 6721867
-0.0073861256 0.027802376 -0.052732885 6722124
-0.0069676791 0.027794247 -0.050773766 6393159
-0.0065476261 0.027786026 -0.048807133 6064453
-0.0061259936 0.027777856 -0.046833094 5670207
-0.0057027363 0.027769597 -0.04485146 5275706
-0.0052778628 0.027761314 -0.042862251 3828030
-0.0048513701 0.027753029 -0.040865451 3828563
-0.0044232327 0.027744681 -0.038860954 4882030
-0.0039934544 0.027736336 -0.036848787 4226410
-0.0035620169 0.027727937 -0.034828838 2581839
-0.0031289097 0.027719507 -0.032801088 2515532
-0.0026941258 0.027711026 -0.030765478 4224094
-0.0022576693 0.027702561 -0.028722027 3369803
-0.001819503 0.027694015 -0.026670588 3637806
-0.0209089 -0.026313825 -0.12143499 11184553
-0.020953536 -0.024501897 -0.12126234 10592673
-0.020998035 -0.022695016 -0.12109009 10197915
-0.02104242 -0.020893037 -0.12091835 10197915
-0.021086685 -0.019095942 -0.1207471 10855588
-0.021130817 -0.017303817 -0.12057626 11381418
-0.021174842 -0.015516513 -0.12040593 10592673
-0.021218741 -0.013734112 -0.12023602 10592673
-0.021262528 -0.011956512 -0.12006662 10658466
-0.021306191 -0.010183739 -0.11989766 11184296
-0.021349739 -0.0084157512 -0.11972918 11184296
-0.021393163 -0.0066525694 -0.11956111 11709869
-0.021436475 -0.004894149 -0.11939352 11315882
-0.021479666 -0.003140473 -0.11922637 10789795
-0.021522738 -0.0013915302 -0.11905965 10855588
-0.0215657 0.00035272972 -0.11889341 11118760
-0.02160855 0.0020923179 -0.11872763 11184296
-0.021651274 0.0038272124 -0.11856226 11249832
-0.021693898 0.0055574966 -0.11839736 11315625
-0.021736402 0.0072831428 -0.11823291 11381418
-0.021778779 0.0090041179 -0.11806884 11643305
-0.021821059 0.010720567 -0.11790525 13408151
-0.021863215 0.012432406 -0.11774208 10592673
-0.021905275 0.014139741 -0.11757938 10592673
-0.021947209 0.01584249 -0.11741707 10592673
-0.021989048 0.01754079 -0.11725526 10592673
-0.02203075 0.019234486 -0.11709377 10658209
-0.022072369 0.020923797 -0.11693281 10658209
-0.022113869 0.02260861 -0.11677224 10658209
-0.022155248 0.024288932 -0.11661205 10658209
-0.022196535 0.025964906 -0.11645236 10592673
-0.022237701 0.027636405 -0.11629304 10592673
-0.021975342 0.028055485 -0.11496727 10592673
-0.021608334 0.028048268 -0.11323815 10592673
-0.021240013 0.02804102 -0.11150286 10658466
-0.020870378 0.028033756 -0.10976137 10658466
-0.020499418 0.028026462 -0.10801364 10658209
-0.020127125 0.028019151 -0.10625964 10658209
-0.019753503 0.028011844 -0.10449935 10263708
-0.019378511 0.028004428 -0.10273265 10197915
-0.019002182 0.027997054 -0.10095964 10197915
-0.018624496 0.027989652 -0.099180207 11643819
-0.018245434 0.027982198 -0.09739431 12625574
-0.017864995 0.027974715 -0.095601931 11774634
-0.017483188 0.027967263 -0.093803085 10724259
-0.017099978 0.027959736 -0.091997638 10921381
-0.016715372 0.027952189 -0.09018562 12626859
-0.016329356 0.02794461 -0.088366963 13408408
-0.015941933 0.027937006 -0.086541653 12431279
-0.01555308 0.027929369 -0.084709637 6255443
-0.015162801 0.027921706 -0.082870893 9277031
-0.014771091 0.027914047 -0.081025399 9015906
-0.014377929 0.027906321 -0.079173066 9016929
-0.01398331 0.027898554 -0.07731387 8756065
-0.013587241 0.027890801 -0.075447835 8953959
-0.013189696 0.027883008 -0.073574863 9216360
-0.012790677 0.027875189 -0.071694933 8231513
-0.012390167 0.027867327 -0.069807984 9739884
-0.011988177 0.027859483 -0.067914046 10589802
-0.011584654 0.027851513 -0.066012926 8232801
-0.011179647 0.0278436 -0.064104781 6525769
-0.010773106 0.027835604 -0.062189415 4752175
-0.010365052 0.027827628 -0.060266905 6919504
-0.0099554425 0.02781957 -0.0583371 8363876
-0.0095442953 0.027811492 -0.056400023 9347440
-0.0091315983 0.027803415 -0.054455657 8427101
-0.0087173339 0.027795281 -0.052503899 7574357
-0.008301504 0.027787153 -0.050544772 8231006
-0.0078840889 0.02777897 -0.048578173 7837020
-0.0074650715 0.027770713 -0.046604037 7705176
-0.0070444746 0.027762488 -0.044622436 7442262
-0.0066222465 0.027754154 -0.042633172 7375451
-0.0061984174 0.027745854 -0.040636361 6453857
-0.0057729655 0.027737532 -0.03863189 6851193
-0.0053458647 0.027729129 -0.036619663 6326650
-0.0049171206 0.02772071 -0.034599695 2448199
-0.0044867322 0.027712295 -0.032571971 2317383
-0.0040546744 0.027703829 -0.030536385 2120517
-0.003620944 0.027695335 -0.028492915 1858109
-0.0031855146 0.027686758 -0.026441453 1991217
-0.002748406 0.027678201 -0.024382066 4231466
-0.002309592 0.027669607 -0.022314651 6461260
-0.02161821 -0.025738969 -0.11827771 10197915
-0.021661969 -0.023923893 -0.118109 10197915
-0.0217056 -0.022113822 -0.11794074 10855588
-0.021749115 -0.020308707 -0.11777294 11840427
-0.021792497 -0.01850857 -0.11760557 11774891
-0.02183577 -0.016713314 -0.11743868 11774891
-0.021878932 -0.014922931 -0.11727227 11643562
-0.02192197 -0.013137456 -0.11710629 10329501
-0.021964893 -0.011356832 -0.11694077 10329501
-0.022007694 -0.0095810434 -0.11677569 11644076
-0.022050371 -0.0078101289 -0.11661102 11840427
-0.022092959 -0.0060438975 -0.11644689 11840427
-0.022135407 -0.0042825565 -0.1162831 11381161
-0.022177748 -0.002525927 -0.11611982 10592673
-0.022219965 -0.00077407609 -0.11595692 10329501
-0.022262083 0.00097308564 -0.1157945 10329501
-0.02230409 0.0027155757 -0.11563254 10329501
-0.022345977 0.0044533545 -0.11547101 10526880
-0.022387745 0.0061864443 -0.11530986 11512747
-0.022429422 0.0079149744 -0.11514923 13537424
-0.022470968 0.0096387817 -0.11498896 11774891
-0.022512408 0.011358018 -0.11482913 11774891
-0.022553734 0.013072638 -0.11466972 11774891
-0.022594951 0.014782704 -0.11451074 11774891
-0.022636073 0.016488273 -0.11435223 11774891
-0.022677071 0.018189253 -0.11419411 11774891
-0.022717953 0.019885672 -0.11403635 11774891
-0.022758739 0.021577656 -0.11387908 11774891
-0.022799414 0.023265136 -0.11372221 11774891
-0.022839973 0.024948124 -0.11356572 11774891
-0.022880435 0.026626714 -0.11340968 11774891
-0.02285818 0.028041584 -0.11301071 11774891
-0.022492174 0.028034374 -0.1112754 11840427
-0.022124844 0.02802706 -0.10953382 11840427
-0.021756204 0.028019752 -0.10778602 11840427
-0.02138624 0.028012428 -0.10603196 11840684
-0.021014955 0.028005105 -0.10427161 10461087
-0.020642323 0.027997714 -0.10250489 10197915
-0.020268349 0.027990319 -0.10073181 10197915
-0.019893024 0.027982894 -0.098952316 12299436
-0.019516332 0.027975418 -0.097166352 13602189
-0.01913828 0.02796795 -0.095373943 13277850
-0.018758863 0.027960468 -0.093575038 12233643
-0.018378049 0.027952908 -0.091769524 12037292
-0.017995847 0.027945332 -0.089957431 12824238
-0.017612256 0.027937757 -0.088138744 12886947
-0.017227249 0.02793012 -0.086313367 11841198
-0.016840849 0.027922524 -0.084481359 10329501
-0.016453009 0.027914822 -0.08264254 6322764
-0.01606375 0.027907116 -0.080796972 7113042
-0.015673064 0.027899427 -0.078944646 7769943
-0.015280917 0.027891655 -0.077085413 8033626
-0.014887324 0.027883852 -0.075219303 6591049
-0.014492285 0.027876088 -0.073346332 7774818
-0.014095765 0.027868256 -0.071466364 6197827
-0.013697756 0.027860336 -0.069579333 7839323
-0.013298285 0.027852472 -0.067685358 11049328
-0.012897317 0.027844561 -0.065784283 10655852
-0.012494837 0.027836587 -0.063876048 8363618
-0.012090853 0.027828604 -0.061960686 4883762
-0.011685344 0.027820559 -0.060038086 8298856
-0.011278326 0.027812552 -0.058108322 9802338
-0.010869765 0.027804481 -0.056171238 9019500
-0.010459654 0.027796369 -0.054226827 9020273
-0.010047983 0.027788198 -0.052275021 7246418
-0.0096347583 0.02778003 -0.050315842 7115858
-0.0092199696 0.027771844 -0.048349235 7312726
-0.0088035986 0.027763622 -0.046375133 7311445
-0.0083856313 0.02775535 -0.044393476 7113298
-0.0079660667 0.027747046 -0.042404242 8097629
-0.0075449049 0.027738735 -0.040407415 8358759
-0.0071221129 0.027730357 -0.038402893 7307885
-0.0066977092 0.027721975 -0.036390688 9206641
-0.0062716692 0.027713574 -0.03437075 6390131
-0.0058439737 0.027705098 -0.032342967 5601642
-0.0054146387 0.027696647 -0.030307403 5339496
-0.0049836226 0.027688084 -0.028263869 5471852
-0.0045509497 0.027679555 -0.026212472 4683357
-0.004116585 0.027670965 -0.024153063 4161603
-0.0036805263 0.027662333 -0.022085624 5808193
-0.022330627 -0.02516163 -0.11510656 10987174
-0.022373509 -0.023343323 -0.1149419 12168364
-0.02241626 -0.021530081 -0.11477763 12168107
-0.022458902 -0.019721791 -0.11461385 12168107
-0.022501405 -0.017918535 -0.11445043 11971756
-0.022543797 -0.016120207 -0.11428747 10263708
-0.022586081 -0.014326761 -0.114125 11052967
-0.022628248 -0.012538227 -0.11396296 12888232
-0.022670293 -0.010754585 -0.11380133 12756903
-0.022712236 -0.0089757498 -0.1136402 12625574
-0.022754055 -0.0072017838 -0.11347947 12429994
-0.022795761 -0.0054326472 -0.11331917 11446954
-0.022837352 -0.0036683122 -0.1131593 11118503
-0.022878835 -0.0019087393 -0.11299988 11118503
-0.02292021 -0.00015391181 -0.11284091 10987174
-0.022961473 0.0015961874 -0.11268236 10724259
-0.023002615 0.0033415186 -0.1125242 11512490
-0.023043653 0.0050821831 -0.1123665 13666440
-0.023084573 0.0068181413 -0.11220921 13082013
-0.023125391 0.0085494556 -0.11205235 12168364
-0.023166098 0.010276136 -0.11189592 12168364
-0.023206702 0.011998184 -0.11173991 12168364
-0.023247192 0.01371562 -0.11158431 12886947
-0.023287568 0.015428452 -0.11142912 13147035
-0.023327846 0.017136734 -0.11127435 12821668
-0.023368003 0.018840434 -0.11111996 12625831
-0.023408057 0.020539602 -0.110966 12625574
-0.023448015 0.022234289 -0.11081248 12495530
-0.023487851 0.023924431 -0.1106593 12168107
-0.023527611 0.025610197 -0.11050665 12168107
-0.023567237 0.027291389 -0.11035429 12168107
-0.02337881 0.028020363 -0.10930635 12168107
-0.023012498 0.02801309 -0.10755853 12168107
-0.022644864 0.028005751 -0.10580441 12168878
-0.022275904 0.027998367 -0.10404397 10461087
-0.021905625 0.027991002 -0.10227722 10197915
-0.021534005 0.027983587 -0.10050408 10197915
-0.021161038 0.02797614 -0.098724522 11840941
-0.020786725 0.027968682 -0.096938536 12822182
-0.020411056 0.027961189 -0.09514606 12691624
-0.020034021 0.027953681 -0.09334708 12364715
-0.019655598 0.027946088 -0.091541499 12103085
-0.019275822 0.027938563 -0.089729421 11841198
-0.018894641 0.027930954 -0.087910667 12887718
-0.018512066 0.027923319 -0.08608526 12299693
-0.018128082 0.027915644 -0.084253132 11118760
-0.01774269 0.02790794 -0.082414284 8751745
-0.017355883 0.027900234 -0.080568686 3038492
-0.016967652 0.0278925 -0.078716286 3698979
-0.016577981 0.027884718 -0.076857015 5538621
-0.01618688 0.027876949 -0.074990913 6656076
-0.01579432 0.027869133 -0.073117867 5802815
-0.015400294 0.027861247 -0.071237817 6657356
-0.015004829 0.027853433 -0.069350876 6328899
-0.014607852 0.027845468 -0.067456767 5737788
-0.014209412 0.027837537 -0.065555654 6132294
-0.013809479 0.02782958 -0.063647419 5606719
-0.013408044 0.027821572 -0.061732017 5278009
-0.013005099 0.027813541 -0.059809413 6854999
-0.012600645 0.027805503 -0.057879604 9476971
-0.012194656 0.027797399 -0.055942476 9607528
-0.011787139 0.027789295 -0.053998057 9741174
-0.011378085 0.027781166 -0.052046288 8886372
-0.010967472 0.027772997 -0.050087105 5933377
-0.010555284 0.027764728 -0.048120402 7246937
-0.010141546 0.027756503 -0.046146289 5800772
-0.0097262217 0.027748222 -0.04416462 4617264
-0.0093093095 0.027739909 -0.042175379 4682799
-0.0088908076 0.027731586 -0.040178537 4684849
-0.0084707011 0.027723232 -0.038174044 4749131
-0.0080489758 0.027714835 -0.036161825 9399390
-0.0076256176 0.027706373 -0.034141827 9470585
-0.0072006336 0.027697913 -0.03211407 9207669
-0.0067740022 0.027689397 -0.030078445 8552821
-0.0063457279 0.027680887 -0.028034976 8553592
-0.0059157843 0.027672328 -0.025983559 8027759
-0.0054841642 0.027663702 -0.023924129 5209184
-0.0050508687 0.027655076 -0.021856708 6199380
-0.023004068 -0.026408236 -0.11208259 11381161
-0.023046169 -0.02458174 -0.11192149 11381161
-0.023088163 -0.022760225 -0.11176088 11446954
-0.023130035 -0.020943776 -0.11160068 11512747
-0.023171768 -0.019132415 -0.11144083 10329501
-0.023213392 -0.017326007 -0.11128144 12169135
-0.023254909 -0.015524535 -0.11112251 13278878
-0.023296311 -0.013727995 -0.11096403 12561580
-0.02333759 -0.011936407 -0.11080594 12168107
-0.023378769 -0.010149684 -0.1106483 12691110
-0.023419827 -0.0083678458 -0.11049109 12364458
-0.023460766 -0.006590894 -0.11033428 12168364
-0.023501612 -0.0048187277 -0.11017795 12168364
-0.023542332 -0.0030514135 -0.11002199 11971756
-0.02358295 -0.0012888676 -0.10986651 11118503
-0.023623457 0.00046889301 -0.10971142 11381161
-0.023663858 0.0022219082 -0.10955677 13342101
-0.023704141 0.003970155 -0.10940251 13212571
-0.023744313 0.0057136901 -0.10924867 11315882
-0.02378438 0.0074525122 -0.10909524 11315882
-0.023824345 0.0091866842 -0.10894224 11315882
-0.023864197 0.010916173 -0.10878965 13018276
-0.023903953 0.012641078 -0.1086375 13342358
-0.023943588 0.01436127 -0.10848569 13083812
-0.023983121 0.016076902 -0.10833433 12560809
-0.024022548 0.01778793 -0.10818335 12887204
-0.024061877 0.019494418 -0.10803281 11972013
-0.024101082 0.021196278 -0.1078826 11381418
-0.024140207 0.022893706 -0.10773288 11381418
-0.024179218 0.024586573 -0.10758352 11315625
-0.024218122 0.02627494 -0.10743454 11315625
-0.024256928 0.027958855 -0.10728599 11315625
-0.023902984 0.027999079 -0.10557695 11315882
-0.023536358 0.027991679 -0.10381645 10724259
-0.023168409 0.027984254 -0.1020496 10658209
-0.022799149 0.027976863 -0.10027644 10658209
-0.022428546 0.027969392 -0.098496817 11381418
-0.022056609 0.027961953 -0.096710809 11512747
-0.021683311 0.027954435 -0.094918266 11315625
-0.021308662 0.027946897 -0.093119219 11315625
-0.020932643 0.027939318 -0.091313615 11184296
-0.020555265 0.027931759 -0.08950147 11184553
-0.020176494 0.027924113 -0.087682642 12692138
-0.019796349 0.027916487 -0.085857205 12691367
-0.019414805 0.027908809 -0.084025055 12429994
-0.019031866 0.027901152 -0.082186215 12364458
-0.018647503 0.027893402 -0.080340542 5005631
-0.018261734 0.027885664 -0.078488104 3696936
-0.017874535 0.027877873 -0.076628804 7113298
-0.017485905 0.027870055 -0.07476262 8622429
-0.017095834 0.027862227 -0.072889537 5736766
-0.016704306 0.027854327 -0.07100945 7380059
-0.016311323 0.027846415 -0.069122389 8102244
-0.015916878 0.027838474 -0.067228287 4817705
-0.015520973 0.027830563 -0.065327168 6066503
-0.015123574 0.027822582 -0.063418895 5409598
-0.014724693 0.027814591 -0.061503489 4555052
-0.014324303 0.027806532 -0.059580848 4883761
-0.013922412 0.027798465 -0.057650987 6854486
-0.013519006 0.027790369 -0.055713858 8100193
-0.013114071 0.027782228 -0.053769395 8295775
-0.012707604 0.027774064 -0.051817574 10849898
-0.012299607 0.027765894 -0.049858384 7442263
-0.011890046 0.027757665 -0.047891717 7704152
-0.011478928 0.027749395 -0.045917552 7310935
-0.011066244 0.027741108 -0.043935876 6128455
-0.010651981 0.027732786 -0.04194662 7376984
-0.010236139 0.027724449 -0.039949771 7378520
-0.0098187011 0.027716082 -0.037945259 6983768
-0.009399646 0.027707627 -0.035932984 9010535
-0.0089789964 0.027699227 -0.033913057 5011300
-0.0085567012 0.027690703 -0.03188524 8554622
-0.0081327893 0.027682202 -0.029849639 4945768
-0.0077072447 0.027673705 -0.027806196 5077352
-0.0072800233 0.027665075 -0.025754714 7504500
-0.0068511632 0.027656496 -0.02369535 6259311
-0.0064206193 0.027647832 -0.021627907 4225360
-0.023723666 -0.025829008 -0.10887944 10658466
-0.023764862 -0.023999307 -0.1087224 11644333
-0.023805954 -0.022174593 -0.10856587 10329501
-0.023846939 -0.020354902 -0.10840978 12037806
-0.023887783 -0.018540354 -0.108254 12168107
-0.023928514 -0.016730806 -0.10809866 11381418
-0.02396914 -0.014926199 -0.10794377 11118503
-0.024009638 -0.013126614 -0.10778925 11840684
-0.024050031 -0.011331948 -0.10763516 12037292
-0.024090324 -0.0095421476 -0.10748154 12037292
-0.024130495 -0.0077572889 -0.1073283 12037292
-0.024170564 -0.0059772716 -0.10717551 11971756
-0.024210522 -0.0042021303 -0.10702311 11644333
-0.024250371 -0.0024318076 -0.10687115 11447468
-0.024290115 -0.00066629861 -0.10671961 12168364
-0.02432975 0.001094419 -0.10656846 11972013
-0.024369264 0.0028503011 -0.10641769 10329501
-0.024408678 0.0046014534 -0.10626733 10263708
-0.024447996 0.0063479273 -0.10611745 10263708
-0.024487201 0.0080896495 -0.10596793 11840941
-0.024526292 0.0098266248 -0.10581878 12102828
-0.024565293 0.011558999 -0.10567009 12693423
-0.024604177 0.013286651 -0.10552175 12757674
-0.02464297 0.015009725 -0.10537387 12626345
-0.02468165 0.016728137 -0.10522636 11184296
-0.024720227 0.018441947 -0.10507924 10329501
-0.024758698 0.020151164 -0.10493251 10329501
-0.024797065 0.021855801 -0.10478615 10263708
-0.024835333 0.023555906 -0.10464021 10263708
-0.024873504 0.025251497 -0.10449466 10263708
-0.024911573 0.026942575 -0.10434952 10263708
-0.024796296 0.027984953 -0.10358898 11709612
-0.024430702 0.02797755 -0.10182212 11840941
-0.024063788 0.027970139 -0.10004889 11840941
-0.023695551 0.027962692 -0.098269247 11906477
-0.023325969 0.027955184 -0.096483134 10921381
-0.022955056 0.027947681 -0.094690569 10263708
-0.022582786 0.027940117 -0.092891455 10329501
-0.022209169 0.027932551 -0.091085821 10263708
-0.021834193 0.027924959 -0.089273609 10724259
-0.021457838 0.027917322 -0.087454759 12037806
-0.021080106 0.027909657 -0.085629247 12168107
-0.020700995 0.027901987 -0.083797067 12886690
-0.020320492 0.027894285 -0.081958152 12886690
-0.019938584 0.027886532 -0.08011245 12102571
-0.019555276 0.027878789 -0.078259982 4417589
-0.019170547 0.027870996 -0.076400645 3500836
-0.018784393 0.027863167 -0.074534431 4093481
-0.018396812 0.027855329 -0.072661303 4291112
-0.018007779 0.027847415 -0.070781186 5080116
-0.017617313 0.02783953 -0.068894126 5342777
-0.017225381 0.027831571 -0.066999987 6065729
-0.016832 0.02782364 -0.06509883 8166494
-0.016437124 0.027815597 -0.063190475 8823919
-0.016040787 0.02780758 -0.061275024 7509846
-0.015642956 0.027799532 -0.059352379 7050320
-0.015243627 0.027791435 -0.057422478 6722641
-0.014842788 0.027783308 -0.055485301 5868360
-0.014440444 0.027775174 -0.053540833 4750640
-0.014036578 0.02776701 -0.051589008 8952940
-0.013631178 0.027758803 -0.049629766 7443036
-0.013224238 0.027750572 -0.047663093 7178319
-0.012815746 0.027742298 -0.045688923 7704154
-0.012405701 0.027734004 -0.043707237 8294237
-0.011994086 0.027725672 -0.041717969 9865566
-0.011580901 0.027717324 -0.039721105 9801313
-0.011166118 0.027708903 -0.037716541 9605473
-0.010749762 0.02770051 -0.035704341 5668940
-0.010331778 0.027692011 -0.03368431 2251064
-0.0099121947 0.027683506 -0.031656519 5537133
-0.0094909985 0.02767502 -0.029620944 2449484
-0.0090681612 0.027666455 -0.027577437 1857859
-0.0086436886 0.027657874 -0.025526024 4289892
-0.008217562 0.027649263 -0.023466639 5341553
-0.0077897697 0.027640566 -0.021399172 2187587
-0.024446448 -0.025247199 -0.10566214 10263708
-0.024486741 -0.023414221 -0.10550928 10855588
-0.024526918 -0.021586319 -0.10535683 11250089
-0.024566978 -0.01976354 -0.10520475 11447211
-0.024606938 -0.017945725 -0.10505314 11447211
-0.024646766 -0.016133007 -0.10490189 11315882
-0.024686474 -0.01432537 -0.10475099 10987174
-0.024726095 -0.012522582 -0.10460061 10790052
-0.024765588 -0.010724849 -0.10445055 10790052
-0.024804981 -0.0089319851 -0.10430096 10790052
-0.024844266 -0.0071440656 -0.10415174 10724002
-0.024883449 -0.0053609987 -0.10400298 10592673
-0.024922505 -0.0035828974 -0.10385454 10790052
-0.02496147 -0.0018095763 -0.10370658 10724259
-0.025000326 -4.1114334e-05 -0.10355899 10197915
-0.025039086 0.0017225902 -0.10341185 10197915
-0.025077734 0.0034814577 -0.10326508 10197915
-0.025116274 0.0052355453 -0.1031187 10724002
-0.025154714 0.0069849091 -0.10297274 10790052
-0.025193036 0.00872947 -0.10282711 11446954
-0.025231266 0.010469368 -0.10268193 12298922
-0.025269397 0.01220457 -0.10253715 12037292
-0.025307423 0.013935092 -0.10239276 10790052
-0.025345342 0.015660942 -0.10224873 10197915
-0.025383154 0.017382128 -0.10210508 10197915
-0.025420882 0.019098748 -0.10196187 10197915
-0.025458492 0.020810733 -0.101819 10197915
-0.025496008 0.022518124 -0.10167652 10197915
-0.025533421 0.024220945 -0.10153441 10197915
-0.025570739 0.02591924 -0.1013927 12496044
-0.025607949 0.027612982 -0.10125135 12692138
-0.025327923 0.027963419 -0.099821433 12692138
-0.024962036 0.027955951 -0.098041728 13018276
-0.02459483 0.027948465 -0.096255593 11906220
-0.024226287 0.027940936 -0.094462961 10658209
-0.023856411 0.027933385 -0.092663825 10197915
-0.023485182 0.027925789 -0.090858124 10197915
-0.02311261 0.027918208 -0.089045882 10395294
-0.022738671 0.027910577 -0.087227002 10789795
-0.022363346 0.027902834 -0.085401386 10921381
-0.021986676 0.027895207 -0.083569214 11840684
-0.021608606 0.027887464 -0.081730232 11774891
-0.021229144 0.027879713 -0.079884499 11315625
-0.020848287 0.027871924 -0.078031957 10787735
-0.020466024 0.027864123 -0.07617259 5207104
-0.020082345 0.027856287 -0.074306332 3172893
-0.019697241 0.027848396 -0.072433136 3436574
-0.019310726 0.027840555 -0.070553057 3962146
-0.01892275 0.027832611 -0.068665922 4487978
-0.018533343 0.027824676 -0.066771783 6065734
-0.018142475 0.027816683 -0.064870544 7575382
-0.01775015 0.0278087 -0.062962234 9346666
-0.017356349 0.027800657 -0.061046746 10850408
-0.01696107 0.027792584 -0.059124056 9278047
-0.016564297 0.027784456 -0.057194114 9869160
-0.016166029 0.027776297 -0.055256892 7773540
-0.015766269 0.027768169 -0.053312421 6130763
-0.015364989 0.027759971 -0.051360548 4553260
-0.014962201 0.027751764 -0.049401298 5078585
-0.014557865 0.02774349 -0.047434576 7441750
-0.014151987 0.027735172 -0.045460355 9733211
-0.013744575 0.027726872 -0.04347866 9342562
-0.013335622 0.027718572 -0.041489426 7114836
-0.012925077 0.027710173 -0.03949251 6458699
-0.012512977 0.027701776 -0.037487973 8950881
-0.01209928 0.027693328 -0.035475716 5473852
-0.01168399 0.027684849 -0.033455715 2712365
-0.011267104 0.027676323 -0.031427905 6126951
-0.010848612 0.027667811 -0.029392315 5208425
-0.0104285 0.02765926 -0.027348835 4026461
-0.010006755 0.027650649 -0.025297401 2975314
-0.0095833689 0.027642006 -0.023237994 3304793
-0.025132943 -0.026504161 -0.10257974 10263708
-0.025172416 -0.024662856 -0.10243058 11578540
-0.025211798 -0.022826608 -0.10228189 12562351
-0.025251048 -0.020995539 -0.10213355 12627373
-0.025290202 -0.019169496 -0.10198565 11972527
-0.025329255 -0.017348478 -0.1018382 10855845
-0.025368169 -0.015532647 -0.10169102 10658466
-0.025406983 -0.013721767 -0.10154431 10658466
-0.025445685 -0.011915919 -0.10139797 10658209
-0.025484284 -0.010115044 -0.10125203 10658209
-0.025522774 -0.0083191292 -0.10110648 10658209
-0.025561159 -0.0065281237 -0.10096135 10658209
-0.025599424 -0.0047421064 -0.10081656 10592673
-0.025637612 -0.0029608815 -0.10067225 10592673
-0.025675673 -0.0011845713 -0.1005283 10658466
-0.025713649 0.00058691262 -0.10038477 10197915
-0.025751501 0.0023535092 -0.10024156 10197915
-0.025789265 0.0041153478 -0.10009882 10197915
-0.02582692 0.0058723604 -0.099956416 10592673
-0.025864469 0.0076245926 -0.099814408 11118503
-0.025901917 0.0093720667 -0.099672772 11052710
-0.025939278 0.011114878 -0.099531583 10526623
-0.025976531 0.012852942 -0.099390753 10263708
-0.026013678 0.014586275 -0.099250272 10461087
-0.026050722 0.016314929 -0.099110171 10658466
-0.026087677 0.018038964 -0.098970473 10658466
-0.026124528 0.019758342 -0.098831147 10658466
-0.02616127 0.021473078 -0.098692164 10724002
-0.02619792 0.023183221 -0.098553568 11972013
-0.026234481 0.024888823 -0.098415382 11972013
-0.026270926 0.026589772 -0.098277487 11971756
-0.026228014 0.027949216 -0.097814307 13344414
-0.025863169 0.027941706 -0.096028104 13019304
-0.025496995 0.027934153 -0.094235413 11250089
-0.025129506 0.027926615 -0.092436254 10197915
-0.024760673 0.02791903 -0.090630524 10197915
-0.024390485 0.027911376 -0.088818178 10197915
-0.024018964 0.027903752 -0.086999267 10197915
-0.023646068 0.027896058 -0.085173659 10329501
-0.023271812 0.027888352 -0.083341375 10724259
-0.022896178 0.027880611 -0.081502363 10789795
-0.022519179 0.027872898 -0.079656646 11381675
-0.022140777 0.027865106 -0.077804066 12496815
-0.02176097 0.027857259 -0.075944625 7896426
-0.021379769 0.027849415 -0.074078336 5273664
-0.020997155 0.027841555 -0.072205149 6916432
-0.020613119 0.027833655 -0.070324995 6851406
-0.020227648 0.027825702 -0.068437815 6983760
-0.019840751 0.027817748 -0.066543639 7641439
-0.019452414 0.027809776 -0.064642407 6131274
-0.019062607 0.02780173 -0.062734015 5539639
-0.018671352 0.027793704 -0.060818527 9280873
-0.018278621 0.027785605 -0.058895793 5868611
-0.017884418 0.027777487 -0.05696585 9868646
-0.017488724 0.027769338 -0.055028625 11114610
-0.017091533 0.027761135 -0.053084064 10914921
-0.016692847 0.02775294 -0.051132191 8099168
-0.016292661 0.027744735 -0.049172938 4881460
-0.015890941 0.027736459 -0.047206208 6787160
-0.015487686 0.027728138 -0.045231979 8229471
-0.015082913 0.027719831 -0.043250274 7704665
-0.014676575 0.027711444 -0.041260947 5736517
-0.014268699 0.027703071 -0.039264061 4751157
-0.013859243 0.027694624 -0.037259471 5802305
-0.013448221 0.027686158 -0.035247199 5014068
-0.013035628 0.0276777 -0.033227228 3633959
-0.012621432 0.027669152 -0.031199405 6192220
-0.012205658 0.027660657 -0.029163839 7372911
-0.011788259 0.027652077 -0.027120341 8749173
-0.011369231 0.027643438 -0.02506889 5537133
-0.010948579 0.027634762 -0.023009462 4814950
-0.025863063 -0.025920527 -0.099329613 13672094
-0.025901625 -0.024075873 -0.099184722 13669010
-0.025940061 -0.022236416 -0.099040188 13018790
-0.025978392 -0.020402098 -0.098896042 12103856
-0.026016617 -0.018572859 -0.098752312 11841455
-0.026054746 -0.016748644 -0.098609023 11841712
-0.026092745 -0.014929624 -0.098466016 11841455
-0.026130645 -0.013115605 -0.098323435 11841455
-0.026168432 -0.011306619 -0.098181225 11841455
-0.026206112 -0.0095026614 -0.098039381 11841712
-0.026243703 -0.0077035804 -0.097898014 11841712
-0.026281176 -0.0059095444 -0.097756952 11841712
-0.026318552 -0.0041204072 -0.097616307 11776176
-0.02635582 -0.0023362087 -0.097476028 10263708
-0.026392987 -0.00055688067 -0.097336136 10197915
-0.026430052 0.0012175764 -0.097196639 10197915
-0.026467018 0.0029871734 -0.097057521 10197915
-0.026503887 0.0047519729 -0.096918806 10263708
-0.026540641 0.0065118955 -0.096780404 10263708
-0.026577307 0.0082670813 -0.096642435 10197915
-0.026613878 0.010017497 -0.096504845 10526880
-0.026650343 0.011763161 -0.09636762 11381675
-0.026686696 0.013504026 -0.096230723 11906991
-0.026722971 0.015240251 -0.096094251 11906991
-0.026759135 0.016971748 -0.095958121 11906991
-0.026795212 0.018698571 -0.095822364 11775919
-0.026831182 0.020420739 -0.095686972 10329501
-0.026867069 0.022138296 -0.095551975 10263708
-0.026902849 0.023851218 -0.095417321 10329501
-0.026938533 0.025559509 -0.095283002 13020846
-0.026974129 0.027263271 -0.095149085 13738144
-0.026767202 0.027927415 -0.094007991 11578540
-0.026402086 0.027919851 -0.092208765 10197915
-0.026035637 0.027912237 -0.090402976 10197915
-0.025667854 0.027904592 -0.0885906 10197915
-0.025298731 0.027896935 -0.08677163 10197915
-0.024928259 0.027889248 -0.084945992 10197915
-0.02455643 0.027881544 -0.083113685 10197915
-0.024183238 0.027873805 -0.081274636 10329501
-0.023808675 0.027866049 -0.079428844 11907248
-0.023432715 0.027858214 -0.07757619 13540508
-0.023055386 0.027850401 -0.075716764 13666183
-0.022676652 0.027842551 -0.073850438 6778699
-0.022296524 0.02783468 -0.071977213 6587215
-0.02191497 0.027826728 -0.070096985 7310164
-0.021532007 0.027818797 -0.068209812 7966553
-0.021147622 0.027810827 -0.066315599 8755300
-0.020761784 0.027802799 -0.064414285 6525264
-0.020374533 0.027794808 -0.062505938 4619820
-0.019985806 0.027786719 -0.060590364 4554024
-0.019595627 0.027778633 -0.058667634 5343037
-0.01920398 0.027770488 -0.056737643 4686125
-0.018810857 0.027762348 -0.054800421 7181652
-0.018416246 0.02775415 -0.05285586 10915689
-0.018020147 0.027745919 -0.050903935 10326122
-0.017622562 0.027737716 -0.048944682 9212516
-0.017223451 0.02772944 -0.046977945 7772003
-0.016822826 0.027721116 -0.045003708 6130251
-0.016420668 0.027712764 -0.043021951 5275962
-0.016016984 0.027704407 -0.041032657 5014074
-0.015611745 0.027695984 -0.039035723 4751413
-0.015204966 0.027687561 -0.037031163 5473854
-0.014796603 0.027679041 -0.035018835 6196295
-0.014386692 0.027670564 -0.032998849 5670977
-0.013975185 0.027661994 -0.030971009 3370286
-0.013562108 0.027653476 -0.028935431 3828043
-0.013147421 0.027644871 -0.026891915 9206125
-0.01273112 0.027636202 -0.024840444 8946296
-0.012313217 0.027627574 -0.022781085 8814195
-0.026596447 -0.025334232 -0.096065059 13344671
-0.026634065 -0.023486288 -0.095924422 13214884
-0.026671564 -0.021643586 -0.095784105 13149605
-0.026708959 -0.019806031 -0.095644176 13148577
-0.026746262 -0.017973522 -0.095504709 13148063
-0.02678345 -0.01614617 -0.095365562 13148320
-0.026820535 -0.014323886 -0.095226817 13149091
-0.026857503 -0.012506743 -0.095088385 13150119
-0.02689437 -0.010694594 -0.09495037 13149862
-0.026931131 -0.0088875135 -0.094812676 13148320
-0.026967784 -0.0070854109 -0.094675392 13083298
-0.027004348 -0.0052882698 -0.094538487 11184553
-0.027040806 -0.003496073 -0.094401956 11184553
-0.027077165 -0.0017088206 -0.094265804 11184553
-0.027113425 7.3549694e-05 -0.094130047 10461087
-0.027149588 0.0018510084 -0.093994632 10197915
-0.027185647 0.003623602 -0.093859605 10197915
-0.027221609 0.0053913463 -0.093724944 10197915
-0.027257472 0.0071542528 -0.09359064 10789795
-0.027293233 0.0089123333 -0.093456686 12366000
-0.027328907 0.010665682 -0.093323156 13149605
-0.027364474 0.012414228 -0.093189962 13149605
-0.027399944 0.014157977 -0.093057081 13149862
-0.027435331 0.015897071 -0.09292464 12955310
-0.02747062 0.017631436 -0.092792541 10197915
-0.027505795 0.019361043 -0.092660733 10197915
-0.0275409 0.021086067 -0.092529379 10197915
-0.027575884 0.022806356 -0.092398293 11184553
-0.027610792 0.02452204 -0.092267595 11512747
-0.027645597 0.026233092 -0.09213724 10658466
-0.027674153 0.02791309 -0.091981381 10197915
-0.027310092 0.027905446 -0.090175524 10197915
-0.026944712 0.027897814 -0.088363118 10197915
-0.026577998 0.027890168 -0.086544119 10197915
-0.026209937 0.027882487 -0.084718458 10197915
-0.025840532 0.027874744 -0.082886077 10197915
-0.025469759 0.027866963 -0.081046969 10263708
-0.025097642 0.027859205 -0.07920114 10855845
-0.024724144 0.02785141 -0.0773485 12102314
-0.024349269 0.027843552 -0.075488992 13538452
-0.023973007 0.027835693 -0.073622644 10713716
-0.023595346 0.02782777 -0.071749344 3169313
-0.023216292 0.027819848 -0.069869116 3370276
-0.022835819 0.027811863 -0.067981869 3698979
-0.022453947 0.027803916 -0.066087656 4159016
-0.022070637 0.027795907 -0.06418635 4685362
-0.021685898 0.027787855 -0.062277921 5211453
-0.021299716 0.027779784 -0.060362346 4290854
-0.020912085 0.02777167 -0.058439575 4685871
-0.020522995 0.027763538 -0.056509588 5014840
-0.020132437 0.027755367 -0.054572321 4554283
-0.019740414 0.027747177 -0.052627753 6524748
-0.019346902 0.027738949 -0.050675832 7181402
-0.018951895 0.027730668 -0.048716486 8886121
-0.018555393 0.027722392 -0.046749745 7639127
-0.018157385 0.027714064 -0.044775501 6787413
-0.017757859 0.027705707 -0.042793736 7706463
-0.017356811 0.027697342 -0.040804435 6524493
-0.016954226 0.027688909 -0.038807485 5408575
-0.01655009 0.027680432 -0.036802873 6262605
-0.016144419 0.027671976 -0.034790624 8754273
-0.015737176 0.027663441 -0.032770578 8623200
-0.015328365 0.027654892 -0.03074277 4882999
-0.014917993 0.027646348 -0.028707173 8226149
-0.01450601 0.027637716 -0.026663642 8550760
-0.014092435 0.027629059 -0.024612198 3960670
-0.013677251 0.02762036 -0.022552775 3370586
-0.027296344 -0.026601685 -0.092922732 12691624
-0.027333112 -0.024745254 -0.092785999 12886433
-0.027369773 -0.022894081 -0.092649586 13471888
-0.027406324 -0.021048112 -0.092513539 13731462
-0.027442783 -0.019207245 -0.092377923 13732233
-0.027479123 -0.017371602 -0.092242613 13343386
-0.027515387 -0.015541001 -0.09210775 12757160
-0.027551532 -0.013715553 -0.091973208 13084069
-0.027587574 -0.011895166 -0.09183906 13731462
-0.027623504 -0.010079909 -0.091705218 13667211
-0.027659334 -0.0082696825 -0.091571733 12628401
-0.027695073 -0.006464439 -0.091438659 12628658
-0.027730713 -0.0046642027 -0.091305926 12628401
-0.02776625 -0.002868922 -0.091173582 11052710
-0.027801681 -0.0010786252 -0.091041565 10329501
-0.027837019 0.0007067374 -0.090909906 10329501
-0.027872263 0.0024872229 -0.090778649 10395294
-0.027907411 0.0042627971 -0.09064772 10855588
-0.027942467 0.0060335668 -0.090517208 12169135
-0.02797742 0.0077993972 -0.090386979 12823210
-0.02801227 0.0095604006 -0.090257108 12823210
-0.02804704 0.011316673 -0.090127654 12823210
-0.028081713 0.013068129 -0.089998536 12627373
-0.028116282 0.014814789 -0.089869738 10395294
-0.028150765 0.016556703 -0.089741297 10395294
-0.028185148 0.018293884 -0.089613207 10395294
-0.028219443 0.020026384 -0.089485489 10395294
-0.028253641 0.021754174 -0.089358099 10395294
-0.028287755 0.023477303 -0.089231066 10395294
