# .PCD v0.7 - Point Cloud Data file format
VERSION 0.7
FIELDS x y z rgb
SIZE 4 4 4 4
TYPE F F F U
COUNT 1 1 1 1
WIDTH 1024
HEIGHT 1
VIEWPOINT 0 0 0 1 0 0 0
POINTS 1024
DATA ascii
0.0092341416 -0.015843492 0.0092757335 10991987
0.0090445038 -0.017233081 0.0092217242 11383395
0.012247222 0.017537251 0.010226161 12357929
0.012058631 0.016156668 0.010172569 12357929
0.01186994 0.014775679 0.010118881 12357929
0.011681239 0.013394284 0.010065269 14261344
0.011492439 0.012012484 0.010011561 13674077
0.011303609 0.010630277 0.0099578705 12555826
0.011114693 0.0092476625 0.0099040829 12357929
0.010925754 0.007864642 0.0098503716 13213514
0.01073675 0.0064812149 0.0097966213 14194266
0.010547701 0.0050973804 0.0097428896 6779700
0.010358566 0.0037131382 0.009689061 6592065
0.010169388 0.0023284887 0.009635251 8566104
0.0099801794 0.00094343181 0.0095814588 8107860
0.0097908909 -0.00044203276 0.0095276283 12433556
0.0096015371 -0.0018279055 0.0094737587 13283754
0.009412175 -0.0032141847 0.0094199646 12167581
0.0092226909 -0.004600876 0.0093660178 12240792
0.0090331975 -0.0059879734 0.0093121454 10539379
0.0088436399 -0.0073754801 0.0092582339 10608244
0.0086540217 -0.0087633943 0.009204343 11590522
0.0084643336 -0.010151722 0.0091503542 12502389
0.0082745999 -0.011540455 0.0090963831 11449972
0.0080848224 -0.012929598 0.0090424316 13613203
0.0078949584 -0.014319152 0.0089883832 13741957
0.0077050496 -0.015709117 0.0089343535 13740155
0.0075150905 -0.017099492 0.0088802837 13674102
0.010724418 0.017690565 0.0098863868 12028442
0.010535472 0.016309205 0.0098326765 12028442
0.010346461 0.01492744 0.0097789271 12028442
0.010157405 0.013545267 0.0097251963 13082441
0.0099682854 0.012162688 0.0096714264 12687672
0.0097791152 0.010779701 0.0096176155 12094493
0.0095898649 0.0093963072 0.0095637674 12028442
0.0094006052 0.0080125062 0.0095099946 12490033
0.0092112655 0.0066282996 0.0094561838 13082183
0.0090218559 0.0052436828 0.0094022751 11375175
0.0088324072 0.0038586603 0.0093484437 6196029
0.0086429082 0.0024732293 0.0092945723 5345834
0.008453344 0.001087389 0.0092406608 7908950
0.0082637351 -0.00029885836 0.0091867698 11712412
0.008074061 -0.0016855148 0.0091328388 12236204
0.0078843217 -0.0030725806 0.0090788687 12831657
0.0076945378 -0.0044600531 0.0090249171 12047496
0.007504689 -0.005847937 0.0089709265 12111998
0.0073147952 -0.0072362274 0.0089169554 12439421
0.0071248361 -0.008624929 0.0088629453 11974777
0.0069348472 -0.010014039 0.0088089518 12106123
0.0067447782 -0.011403559 0.0087549211 13022601
0.0065546241 -0.01279349 0.0087007936 13023871
0.0063644596 -0.014183831 0.0086467415 12236913
0.00617423 -0.015574584 0.0085926503 12629876
0.0059838998 -0.016965745 0.0085384632 12301676
0.0090105534 0.016461922 0.0094924038 12556084
0.0088212015 0.015079376 0.0094385343 12556084
0.0086318059 0.013696424 0.0093846833 12556084
0.0084423507 0.012313066 0.0093308529 12556084
0.0082528451 0.0109293 0.0092769824 12556084
0.0080632754 0.0095451251 0.0092230719 12292392
0.00787366 0.0081605427 0.0091691809 12028443
0.0076839798 0.0067755533 0.0091152498 12028442
0.0074942755 0.005390157 0.0090613971 10978088
0.0073044859 0.0040043518 0.0090074455 6915656
0.0071146311 0.0026181373 0.0089534558 4686881
0.0069247261 0.0012315118 0.0088994261 8365919
0.0067347819 -0.00015551742 0.0088454736 10139774
0.0065447725 -0.0015429568 0.0087914821 10930825
0.0063546924 -0.0029308086 0.0087373927 11262851
0.0061645932 -0.0043190643 0.0086834393 12248203
0.0059744031 -0.0057077361 0.0086293295 12378502
0.0057841889 -0.0070968121 0.008575296 11779975
0.0055938736 -0.0084862998 0.0085211676 12829588
0.0054035285 -0.0098761981 0.0084670568 12172923
0.0052131386 -0.011266507 0.0084129646 12237170
0.0050226627 -0.012657227 0.0083587756 11776866
0.004832142 -0.014048357 0.0083046053 10659395
0.0046415767 -0.015439896 0.0082504544 10593859
0.0044509252 -0.016831849 0.0081962058 9542996
0.007483833 0.016614813 0.0091516338 14325597
0.0072941673 0.01523149 0.0090977615 14325597
0.0071044513 0.013847757 0.0090438491 14325598
0.0069146757 0.012463618 0.0089899572 14325341
0.0067248149 0.011079071 0.0089359675 14389593
0.0065349299 0.0096941162 0.0088820551 13476950
0.0063449536 0.0083087506 0.0088279862 12358186
0.006154953 0.0069229784 0.0087739937 12160545
0.0059648729 0.0055367984 0.008719964 12160545
0.0057747625 0.0041502095 0.0086659519 7043374
0.0055845929 0.0027632134 0.0086119594 4292123
0.0053943726 0.0013758064 0.0085579269 9088350
0.0052040671 -1.2011195e-05 0.0085037975 7451968
0.0050137164 -0.0014002384 0.0084496867 8964693
0.0048233215 -0.0027888715 0.0083955945 10673260
0.0046328604 -0.0041779177 0.0083414633 10012270
0.0044423551 -0.0055673728 0.0082873516 11389837
0.0042517642 -0.006957239 0.008233143 12306054
0.0040611485 -0.0083475122 0.0081790108 12238194
0.0038704472 -0.0097382003 0.0081247818 11645792
0.0036797216 -0.011129293 0.0080706291 11973733
0.0034889248 -0.012520802 0.0080163786 12104294
0.0032980682 -0.013912721 0.0079621486 10791002
0.003107161 -0.015305052 0.0079078777 8557653
0.0029161735 -0.016697794 0.0078535695 8292184
0.0059553934 0.016767884 0.0088105984 12358187
0.005765372 0.01538378 0.0087566087 12160545
0.0055753211 0.013999267 0.0087026358 12160288
0.0053851847 0.012614344 0.008648566 12160546
0.0051950235 0.011229015 0.0085945725 13607254
0.0050047827 0.0098432796 0.0085405419 14390621
0.0048144921 0.0084571326 0.0084864702 14390621
0.0046241358 0.0070705772 0.0084323604 14390364
0.0044337348 0.005683613 0.0083782682 14389593
0.0042432691 0.0042962399 0.0083241379 6121770
0.0040527582 0.0029084578 0.0082700262 4226325
0.0038622171 0.0015202652 0.0082159322 8367697
0.0036715758 0.00013166294 0.0081617422 8242242
0.0034808898 -0.0012573481 0.0081075709 9425487
0.0032901384 -0.0026467694 0.0080533605 9288298
0.0030993568 -0.004036603 0.0079991687 11454337
0.0029084955 -0.0054268437 0.0079449387 11647845
0.0027175832 -0.0068174996 0.0078906678 11317589
0.0025266318 -0.0082085598 0.007836476 10790727
0.0023356094 -0.0096000349 0.0077821855 10659136
0.0021445274 -0.01099192 0.007727915 11710814
0.0019533944 -0.012384219 0.0076736044 11378025
0.0017621961 -0.013776929 0.0076192552 9474149
0.0015709528 -0.015170049 0.0075649247 9211492
0.0013796441 -0.016563581 0.007510555 9079648
0.0044251578 0.016921131 0.0084691262 13082440
0.0042347959 0.015536245 0.0084150163 13214029
0.0040444098 0.014150951 0.0083609829 12028699
0.0038539381 0.012765247 0.0083068525 12094236
0.0036634216 0.011379136 0.0082527418 12358187
0.0034728548 0.0099926135 0.0081985891 13082697
0.0032822285 0.0086056842 0.0081444578 13477463
0.0030915369 0.0072183451 0.0080902874 13673819
0.0029008153 0.0058305962 0.0080361338 14194779
0.0027100139 0.0044424389 0.007981943 11499329
0.0025191617 0.0030538694 0.0079277121 4947488
0.0023282501 0.0016648923 0.0078735007 8237643
0.002137288 0.00027550358 0.0078192493 8434770
0.001946266 -0.001114294 0.0077650184 10404733
0.0017551938 -0.0025045027 0.007710747 11912569
0.0015640765 -0.0038951219 0.0076564946 11778400
0.0013728734 -0.0052861543 0.007602145 11186002
0.0011816253 -0.0066775978 0.0075478144 10725445
0.00099031755 -0.0080694482 0.0074935043 10330680
0.00079895911 -0.009461713 0.0074391537 8623405
0.0006075353 -0.010854389 0.0073847645 6653499
0.0004160605 -0.01224748 0.0073303347 6457164
0.00022454665 -0.013640978 0.0072759832 6260299
3.2967258e-05 -0.015034888 0.0072215926 6063177
-0.00015869836 -0.016429216 0.0071671056 5997383
0.002893127 0.017074557 0.0081272162 12621621
0.0027024446 0.015688889 0.0080730449 14324826
0.002511723 0.014302812 0.0080189509 13673049
0.0023209106 0.012916324 0.0079647014 12094493
0.0021300586 0.01152943 0.0079105292 12094237
0.0019391564 0.010142124 0.0078563178 12160545
0.0017481743 0.0087544108 0.0078020673 12292135
0.001557162 0.0073662861 0.007747835 12358186
0.0013661049 0.0059777526 0.0076936218 12951107
0.0011749621 0.004588807 0.0076393117 13476950
0.00098377443 0.0031994523 0.0075850203 5865012
0.00079252146 0.0018096865 0.0075306897 8826469
0.00060122926 0.00041951428 0.0074764374 11848578
0.00040986601 -0.00097107218 0.0074220868 12502898
0.0002184521 -0.0023620722 0.0073676961 11778397
2.6978425e-05 -0.0037534812 0.0073133255 12105833
-0.00016454008 -0.0051452992 0.007258974 11841890
-0.0003561241 -0.0065375296 0.0072045834 11381848
-0.00054777367 -0.0079301735 0.0071501541 9148499
-0.00073947379 -0.00932323 0.0070956843 5536826
-0.00093123387 -0.010716697 0.007041235 3696927
-0.0011230595 -0.012110577 0.0069867466 3696927
-0.0013149155 -0.013504869 0.0069322758 3763491
-0.0015068311 -0.01489957 0.0068778256 3566110
-0.0016988183 -0.01629469 0.0068232771 3631646
-0.0018908654 -0.017690221 0.0067687491 3697439
0.0013593208 0.017228162 0.0077849268 3023884
0.0011683234 0.015841711 0.0077307527 6969671
0.00097724074 0.014454849 0.0076764817 7232844
0.00078609271 0.013067578 0.0076221712 3418899
0.00059492019 0.011679899 0.007567938 2892297
0.00040366212 0.010291808 0.0075136079 2760711
0.00021237953 0.0089033097 0.0074593546 2760711
2.1011312e-05 0.007514399 0.007405004 2760711
-0.00017040188 0.0061250785 0.0073506725 3155470
-0.00036188029 0.0047353478 0.0072963019 3616022
-0.00055340375 0.0033452066 0.0072419504 5264181
-0.00074499816 0.0019546512 0.0071875006 12898437
-0.00093661156 0.0005636898 0.0071331868 12633965
-0.0011283312 -0.00082768645 0.0070787184 11844186
-0.0013200809 -0.0022194742 0.0070242677 10923335
-0.0015118906 -0.0036116706 0.006969837 11645787
-0.0017037656 -0.0050042802 0.0069153677 10396763
-0.0018956915 -0.0063973041 0.0068608578 9997407
-0.0020876566 -0.007790735 0.0068064262 9861716
-0.0022797135 -0.009184585 0.0067518386 8488792
-0.0024717951 -0.010578843 0.0066973278 5536828
-0.002663957 -0.011973514 0.0066427798 5339961
-0.0028561696 -0.0133686 0.0065881913 6850894
-0.0030484276 -0.014764098 0.0065336218 3829281
-0.0032407308 -0.016160009 0.0064790715 3697695
-0.0034331405 -0.017556338 0.0064243665 3763487
-0.00017626051 0.017381946 0.0074422578 5457715
-0.0003676136 0.015994709 0.0073879655 4800298
-0.00055903738 0.014607063 0.0073335748 6509634
-0.00075050059 0.013219008 0.0072792624 7757647
-0.000942029 0.011830543 0.0072249109 7691854
-0.0011336226 0.010441667 0.0071705203 7626318
-0.0013252465 0.0090523809 0.0071161473 5523765
-0.0015169505 0.0076626842 0.0070617367 3418643
-0.0017086847 0.0062725758 0.0070073437 2892298
-0.0019004989 0.0048820586 0.0069529135 2892297
-0.0020923638 0.0034911279 0.0068984423 2826504
-0.0022842886 0.0020997871 0.0068439916 8223561
-0.0024762638 0.00070803356 0.0067895008 13027693
-0.0026683195 -0.00068413117 0.0067349724 11975774
-0.0028604055 -0.0020767082 0.0066804616 10135615
-0.0030525569 -0.0034696981 0.0066259117 7113786
-0.0032447679 -0.0048630969 0.0065713823 5077303
-0.0034370299 -0.0062569105 0.0065168124 6653262
-0.0036293576 -0.0076511386 0.0064622038 7964503
-0.0038217304 -0.0090457778 0.0064076143 7768149
-0.0040141684 -0.010440829 0.0063529857 5865281
-0.0042066523 -0.011836295 0.0062983767 5602876
-0.0043992219 -0.013232176 0.0062436704 5996607
-0.0045917956 -0.014628463 0.006189099 4157476
-0.0047844765 -0.016025173 0.0061343731 3631904
-0.004977202 -0.017422291 0.0060796659 2843680
-0.0017136171 0.017535906 0.0070992089 6509633
-0.0019053259 0.016147887 0.0070447982 5194799
-0.0020970854 0.014759455 0.0069903475 4800298
-0.0022888843 0.013370615 0.006935975 7560525
-0.0024807537 0.011981362 0.0068815039 8020049
-0.0026726832 0.010591702 0.0068270531 8020305
-0.0028646633 0.0092016272 0.0067725624 7560782
-0.0030566882 0.0078111421 0.0067180903 6640963
-0.0032487784 0.0064202463 0.0066635795 5720631
-0.0034409286 0.0050289403 0.0066090887 4602918
-0.0036331499 0.0036372198 0.0065544997 3550229
-0.0038254163 0.0022450883 0.0064999298 2760711
-0.0040177279 0.00085254549 0.006445379 12235370
-0.0042101047 -0.00054041034 0.0063907891 11775595
-0.0044025267 -0.0019337768 0.0063362182 7508565
-0.0045950292 -0.0033275562 0.0062816101 5275197
-0.0047875675 -0.00472175 0.0062269601 5274429
-0.004980166 -0.0061163567 0.0061723306 5405502
-0.0051728506 -0.0075113783 0.0061176042 5996612
-0.0053655389 -0.0089068059 0.0060630124 6259271
-0.0055583343 -0.010302654 0.0060082665 5668415
-0.0057511749 -0.011698915 0.0059535392 6325575
-0.0059440606 -0.013095587 0.0058988309 6654284
-0.0061370176 -0.014492678 0.0058440249 5734728
-0.0063300147 -0.015890179 0.0057892972 5209160
-0.0065230769 -0.017288093 0.0057345307 4946760
-0.0032527838 0.017690048 0.0067557241 6509634
-0.0034448137 0.016301241 0.006701252 4076830
-0.0036369234 0.014912026 0.0066467421 3155470
-0.0038290839 0.013522397 0.0065921922 4537125
-0.0040212893 0.012132358 0.0065376614 4602918
-0.0042135399 0.010741908 0.0064831492 4602918
-0.0044058557 0.0093510458 0.006428598 4734504
-0.0045982166 0.0079597738 0.0063740662 6312255
-0.0047906428 0.0065680891 0.0063194949 7100487
-0.0049831551 0.0051759905 0.0062648272 6246204
-0.005175692 0.0037834828 0.0062102363 4602662
-0.0053682947 0.0023905612 0.0061556064 2892297
-0.0055609625 0.00099722738 0.0061009373 3879193
-0.005753696 -0.00039652004 0.00604623 10651484
-0.0059464541 -0.0017906777 0.0059915991 9146720
-0.0061392984 -0.0031852506 0.0059368713 7376214
-0.0063321735 -0.0045802374 0.0058821617 7834457
-0.0065251081 -0.0059756353 0.0058274721 7112530
-0.0067181289 -0.0073714503 0.0057726861 5799488
-0.0069111949 -0.0087676756 0.0057179187 5471292
-0.0071043121 -0.01016432 0.0056631113 5471547
-0.0072974893 -0.011561372 0.0056083244 6259530
-0.0074907118 -0.012958839 0.0055535566 6455889
-0.0076840054 -0.014356725 0.005498691 6127441
-0.0078773592 -0.015755024 0.0054438454 5930576
-0.0080707446 -0.017153738 0.005389018 7112281
-0.0049861264 0.016454777 0.0063572708 8086359
-0.0051785572 0.015064772 0.0063026994 7955029
-0.0053710537 0.013674357 0.0062480895 7954515
-0.0055635949 0.012283531 0.0061934981 7954002
-0.0057561812 0.010892292 0.0061389264 7562585
-0.0059488532 0.0095006423 0.0060842573 6972247
-0.006141556 0.0081085786 0.0060296059 7104347
-0.0063343388 0.0067161038 0.0059749167 7630692
-0.0065271868 0.0053232159 0.005920189 7959401
-0.00672006 0.0039299177 0.005865538 7827815
-0.0069130044 0.0025362025 0.0058107888 7498850
-0.0071060085 0.0011420776 0.0057560601 7301727
-0.0072990786 -0.00025246202 0.0057012928 8356724
-0.0074921935 -0.0016474132 0.005646544 8297053
-0.0076853391 -0.0030427785 0.0055918135 7048015
-0.0078786062 -0.0044385595 0.0055369292 8488792
-0.0080718827 -0.0058347546 0.0054821204 8750939
-0.0082652401 -0.0072313608 0.0054272744 6193477
-0.0084586078 -0.0086283823 0.0053725042 5011252
-0.0086520966 -0.01002582 0.0053175804 4157747
-0.0088455956 -0.011423669 0.0052627325 4223292
-0.0090391757 -0.012821935 0.0052078473 4420417
-0.009232806 -0.014220616 0.0051529217 4354879
-0.0094265174 -0.015619711 0.0050979587 4749887
-0.009620239 -0.01701922 0.0050430712 5669704
-0.0065292148 0.01660849 0.00601291 12495016
-0.0067219813 0.015217698 0.0059582787 12757674
-0.0069148135 0.013826494 0.0059036086 13213599
-0.0071077109 0.012434879 0.0058488995 13666697
-0.0073006391 0.01104285 0.005794208 13343900
-0.0074936473 0.0096504102 0.0057394789 12234157
-0.0076867212 0.0082575567 0.005684711 11840941
-0.0078798048 0.0068642916 0.0056300187 11972270
-0.0080729891 0.0054706135 0.0055752308 11775405
-0.0082662245 0.0040765195 0.0055204029 10921381
-0.0084595205 0.0026820151 0.0054655951 10197915
-0.0086528612 0.0012870982 0.0054108067 10197915
-0.0088462727 -0.00010823675 0.0053559197 10197915
-0.0090397242 -0.001503981 0.0053011114 5007165
-0.009233227 -0.0029001399 0.005246263 4685353
-0.0094268154 -0.0042967177 0.0051913178 6390856
-0.0096204439 -0.0056937039 0.0051364508 9211235
-0.0098141236 -0.0070911082 0.0050815437 5274175
-0.010007883 -0.0084889261 0.0050265989 2317345
-0.010201674 -0.0098871579 0.0049716723 1989408
-0.01039553 -0.011285806 0.0049167066 1792543
-0.010589466 -0.01268487 0.0048617036 2778408
-0.010783455 -0.014084351 0.0048066606 3896112
-0.010977468 -0.015484243 0.0047516944 3502129
-0.011171567 -0.016884556 0.0046966318 3042353
-0.0080741281 0.016762383 0.0056681144 10197915
-0.0082672359 0.0153708 0.0056133638 10329501
-0.0084604044 0.013978808 0.0055586337 11972013
-0.008653638 0.012586404 0.0055038645 13603988
-0.0088469023 0.011193585 0.005449113 13734032
-0.0090402672 0.009800354 0.005394266 13734289
-0.0092336619 0.008406708 0.0053394367 13668753
-0.0094271172 0.0070126522 0.0052846279 13733518
-0.0096206237 0.0056181811 0.0052297791 13734032
-0.0098142102 0.0042232969 0.0051748925 12234414
-0.010007827 0.0028279983 0.0051200236 10197915
-0.01020151 0.0014322852 0.0050651161 10197915
-0.010395273 3.6159803e-05 0.0050101709 10197915
-0.010589067 -0.0013603815 0.0049552433 10197915
-0.010782921 -0.0027573337 0.0049003363 5469504
-0.010976846 -0.0041547064 0.0048453314 5669438
-0.011170817 -0.0055524916 0.0047903452 7308634
-0.011364833 -0.0069506909 0.0047353785 3435059
-0.011558929 -0.0083493032 0.0046803742 2055457
-0.011753098 -0.0097483369 0.004625272 2120993
-0.011947291 -0.011147784 0.0045702467 2975523
-0.01214155 -0.012547646 0.0045151827 4750143
-0.012335869 -0.01394792 0.0044601392 6391643
-0.01253024 -0.015348614 0.0044050561 6260059
-0.012724698 -0.016749727 0.0043498757 6325852
-0.0096208109 0.016916456 0.0053229984 10197915
-0.0098142549 0.015524084 0.0052681877 10263708
-0.010007801 0.014131301 0.0052132816 10855588
-0.010201335 0.012738105 0.0051585091 11381161
-0.01039499 0.011344496 0.0051035834 11381418
-0.010588656 0.009950473 0.0050487332 11446954
-0.010782388 0.0085560363 0.0049938438 11446954
-0.01097622 0.0071611861 0.0049388595 11774891
-0.011170084 0.005765921 0.0048838924 13016991
-0.011363992 0.0043702424 0.0048289448 13213856
-0.01155796 0.0029741523 0.0047740177 12626345
-0.01175198 0.0015776451 0.0047190501 12561066
-0.011946064 0.00018072408 0.0046640439 12561066
-0.01214023 -0.0012166129 0.0046089999 12626345
-0.012334426 -0.0026143638 0.0045539741 9602946
-0.012528668 -0.0040125293 0.0044989674 2843431
-0.012722996 -0.0054111117 0.0044438639 3304498
-0.012917385 -0.0068101087 0.0043887808 2450472
-0.013111823 -0.0082095219 0.0043336577 2779172
-0.013306309 -0.0096093509 0.0042785536 3304997
-0.013500839 -0.011009593 0.0042234687 3567411
-0.013695455 -0.012410256 0.0041682874 6849373
-0.013890138 -0.013811337 0.0041130674 9662806
-0.014084846 -0.01521283 0.0040579243 9597012
-0.014279635 -0.016614739 0.0040027439 9271642
-0.011169325 0.017070707 0.0049773883 10526880
-0.01136312 0.015677547 0.0049225194 10197915
-0.011556966 0.014283972 0.0048676101 10197915
-0.011750878 0.012889983 0.0048126616 10197915
-0.01194487 0.011495583 0.0047576758 10197915
-0.012138892 0.010100767 0.0047027078 10197915
-0.01233296 0.0087055378 0.0046477588 10197915
-0.012527115 0.0073098927 0.004592713 10921381
-0.012721329 0.005913836 0.0045376876 12234157
-0.012915573 0.0045173639 0.00448268 12757417
-0.013109884 0.0031204759 0.0044276337 12757417
-0.013304275 0.0017231749 0.0043725497 12822696
-0.013498697 0.00032545713 0.0043174839 12822696
-0.013693185 -0.0010726745 0.0042623789 12757160
-0.013887717 -0.0024712223 0.0042072935 12495530
-0.014082337 -0.0038701873 0.0041521112 5859418
-0.014276996 -0.0052695642 0.0040970072 6655323
-0.014471727 -0.0066693621 0.0040418054 8359262
-0.014666504 -0.0080695739 0.0039866227 7899483
-0.014861346 -0.009470202 0.0039314013 5077835
-0.015056234 -0.010871247 0.003876199 5209424
-0.015251188 -0.012272709 0.0038209581 6259288
-0.015446207 -0.013674588 0.0037656783 7242591
-0.015641274 -0.015076886 0.003710418 7635550
-0.015836399 -0.016479593 0.003655178 2581803
-0.012719643 0.017225139 0.0046314015 11250346
-0.012913775 0.015831187 0.0045764726 10197915
-0.013107957 0.014436821 0.0045215031 10197915
-0.013302226 0.01304204 0.0044664368 10197915
-0.013496554 0.011646846 0.0044113914 10197915
-0.013690913 0.010251238 0.0043563633 10197915
-0.013885358 0.0088552134 0.0043012388 10197915
-0.014079849 0.0074587744 0.0042461334 10263708
-0.014274385 0.0060619214 0.004191047 10329501
-0.014469001 0.0046646548 0.004135923 10329501
-0.014663649 0.003266972 0.0040808171 10329501
-0.014858383 0.0018688721 0.0040256144 10395294
-0.015053141 0.00047035931 0.0039704884 10395294
-0.015247966 -0.00092857098 0.0039153239 10329501
-0.015442892 -0.0023279167 0.0038600643 10329501
-0.015637828 -0.003727678 0.0038048802 10197915
-0.015832851 -0.0051278579 0.0037495994 7767409
-0.016027877 -0.0065284497 0.003694454 8358493
-0.016223032 -0.0079294648 0.0036390959 9531218
-0.016418211 -0.009330892 0.0035838147 8028254
-0.016613452 -0.010732736 0.0035285545 6325596
-0.016808763 -0.012135 0.0034731962 6851172
-0.017004119 -0.01353768 0.003417857 6981473
-0.017199524 -0.014940779 0.0033625371 6651994
-0.017394992 -0.016344294 0.0033071786 6389589
-0.017590528 -0.017748227 0.0032517815 1858848
-0.01427176 0.017379755 0.0042850971 12888232
-0.014466255 0.015985008 0.0042299908 12233900
-0.014660793 0.014589849 0.0041749035 11052967
-0.014855378 0.013194275 0.0041198358 10329501
-0.015050064 0.011798287 0.0040646722 11447211
-0.01524478 0.010401884 0.0040095267 12364972
-0.015439541 0.009005066 0.0039544003 12430251
-0.01563439 0.0076078312 0.0038991768 12103085
-0.015829261 0.0062101828 0.0038440309 10658209
-0.016024215 0.00481212 0.0037888472 10197915
-0.01621924 0.0034136388 0.0037335656 10197915
-0.01641429 0.0020147436 0.0036783612 10197915
-0.016609406 0.00061543076 0.0036231179 10197915
-0.016804589 -0.00078429678 0.003567836 10197915
-0.016999831 -0.0021844388 0.0035125744 10197915
-0.017195145 -0.0035850033 0.0034572151 10197915
-0.017390484 -0.0049859798 0.0034019328 10197915
-0.017585889 -0.0063873748 0.0033466117 5535317
-0.01778136 -0.0077891862 0.0032912521 6391384
-0.017976897 -0.0091914181 0.0032358537 5799251
-0.018172495 -0.010594063 0.0031804759 4552519
-0.018368144 -0.011997129 0.003125058 5669978
-0.018563839 -0.013400611 0.0030696597 7247220
-0.018759601 -0.014804513 0.0030142225 6588256
-0.018955406 -0.016208829 0.0029588046 8617309
-0.01915128 -0.017613566 0.0029033478 1923871
-0.015825709 0.017534548 0.0039382982 13214113
-0.01602054 0.01613901 0.0038831322 13279135
-0.016215416 0.014743056 0.0038279854 11972270
-0.016410392 0.013346689 0.003772743 11250089
-0.016605379 0.011949905 0.0037175764 12103342
-0.016800432 0.010552707 0.0036623711 13279135
-0.016995551 0.0091550928 0.0036071271 13539223
-0.017190734 0.0077570616 0.003551844 12888746
-0.01738598 0.0063586184 0.0034965817 11446954
-0.017581275 0.004959756 0.0034412793 11184296
-0.017776638 0.0035604769 0.003385938 11184296
-0.017972024 0.0021607848 0.0033306738 11118503
-0.018167512 0.00076067465 0.0032753143 11118503
-0.018363032 -0.00063985336 0.0032199728 11184296
-0.018558618 -0.0020407981 0.0031645927 10921381
-0.018754248 -0.0034421587 0.0031092316 10197915
-0.018949965 -0.0048439386 0.0030537739 10197915
-0.019145742 -0.0062461346 0.0029983369 7764855
-0.019341551 -0.0076487483 0.0029429176 2057253
-0.019537406 -0.0090517765 0.0028875177 2057253
-0.019733345 -0.010455227 0.0028320213 2318887
-0.019929348 -0.011859095 0.0027765455 4684361
-0.0201254 -0.013263382 0.0027210298 5209680
-0.0203215 -0.014668087 0.0026655332 6720356
-0.020517664 -0.01607321 0.002609998 9991257
-0.02071391 -0.017478751 0.0025544255 5799504
-0.017381476 0.017689524 0.0035911242 11840941
-0.017576665 0.016293192 0.0035358404 13214370
-0.017771877 0.014896443 0.0034806337 13539737
-0.017967176 0.01349928 0.0034253304 13279649
-0.018162554 0.012101701 0.0033699893 11906477
-0.018357944 0.010703706 0.0033147244 12103342
-0.0185534 0.0093052955 0.0032594206 12953254
-0.018748941 0.0079064667 0.00320402 12038063
-0.018944522 0.0065072258 0.003148698 13149862
-0.019140156 0.0051075667 0.0030933358 13474972
-0.019335834 0.0037074911 0.0030379931 13475229
-0.0195316 0.0023069968 0.0029825536 13410207
-0.019727426 0.00090608798 0.0029271345 13410207
-0.019923301 -0.00049524097 0.0028716754 13475486
-0.020119244 -0.0018969865 0.0028161777 12757417
-0.020315228 -0.0032991462 0.0027607586 10197915
-0.020511283 -0.004701728 0.0027052416 10197915
-0.020707382 -0.0061047263 0.0026497438 10197915
-0.020903563 -0.0075081415 0.0025942086 7896952
-0.021099776 -0.0089119757 0.0025386913 2256423
-0.021296054 -0.010316229 0.0024831356 2122275
-0.021492394 -0.011720899 0.0024276003 4617797
-0.021688784 -0.013125989 0.002372025 6718814
-0.02188524 -0.014531498 0.0023164114 7967603
-0.022081757 -0.015937427 0.0022608184 10777435
-0.022278346 -0.017343778 0.0022051274 10450523
-0.01893907 0.017844683 0.003243515 10855588
-0.019134594 0.016447553 0.0031881714 11906477
-0.019330164 0.01505001 0.0031328471 12889260
-0.019525833 0.01365205 0.0030774274 12562351
-0.019721515 0.012253674 0.0030220835 10987174
-0.019917242 0.010854883 0.0029667588 11513004
-0.02011307 0.0094556762 0.0029113388 12234414
-0.020308947 0.0080560502 0.0028558786 12823724
-0.020504873 0.0066560074 0.0028004379 13605016
-0.020700878 0.0052555497 0.0027449594 13150890
-0.020896913 0.0038546734 0.0026894992 12562351
-0.021093016 0.0024533803 0.002634 12365486
-0.021289179 0.0010516719 0.0025785216 12299950
-0.021485392 -0.00035045753 0.0025230031 12168621
-0.021681687 -0.0017530037 0.0024674472 12037292
-0.021878013 -0.0031559679 0.0024119094 12169135
-0.022074405 -0.0045593502 0.002356333 12168878
-0.022270858 -0.005963149 0.002300777 12169135
-0.022467362 -0.0073673683 0.002245181 12169135
-0.022663968 -0.0087720081 0.00218949 6978150
-0.022860583 -0.010177066 0.0021338749 3044655
-0.02305728 -0.011582541 0.0020782226 2975788
-0.023254029 -0.01298844 0.0020225302 6259287
-0.023450838 -0.014394752 0.0019668585 10059363
-0.0236477 -0.015801487 0.0019111468 10322537
-0.02384462 -0.017208641 0.0018554559 9667173
-0.020694343 0.016602097 0.0028401271 11052967
-0.020890269 0.015203756 0.0027846852 11775919
-0.021086277 0.013805 0.0027292059 11315882
-0.021282315 0.012405827 0.0026737442 10329501
-0.0214784 0.011006236 0.0026183021 10855845
-0.021674564 0.009606231 0.0025628225 11775919
-0.021870781 0.0082058059 0.0025073027 13280163
-0.022067057 0.0068049659 0.0024518038 13214884
-0.022263404 0.0054037059 0.0023962066 11644333
-0.022459792 0.0040020314 0.0023406881 11513004
-0.022656253 0.0025999357 0.0022850716 11118760
-0.022852773 0.0011974247 0.0022294756 10790052
-0.023049325 -0.00020550526 0.0021738978 11118760
-0.023245977 -0.0016088543 0.0021182245 11970985
-0.023442641 -0.0030126206 0.0020626273 13604759
-0.023639405 -0.004416808 0.002006935 13277850
-0.023836216 -0.0058214115 0.0019512617 12950941
-0.024033058 -0.0072264345 0.0018956065 12950684
-0.024229981 -0.0086318767 0.001839914 13539737
-0.024426954 -0.010037741 0.0017841817 10322027
-0.024624011 -0.011444023 0.0017284121 9732446
-0.024821112 -0.012850725 0.0016726619 9925719
-0.025018264 -0.014257847 0.0016168717 10319965
-0.025215479 -0.015665388 0.0015611022 6587738
-0.025412759 -0.01707335 0.0015052942 6063445
-0.025610104 -0.018481735 0.0014494478 9208671
-0.022255953 0.016756821 0.0024915913 11644333
-0.022452217 0.015357683 0.0024360898 12169135
-0.022648562 0.013958129 0.0023805508 11250089
-0.022844957 0.012558156 0.0023249718 10197915
-0.023041394 0.011157769 0.0022694713 10395294
-0.023237901 0.0097569618 0.0022138727 11315882
-0.023434468 0.0083557395 0.0021582949 12235442
-0.023631101 0.0069540977 0.0021026784 11513004
-0.023827787 0.0055520372 0.0020470219 10461087
-0.024024513 0.0041495613 0.0019914438 12889517
-0.024221325 0.0027466659 0.0019357692 11315882
-0.024418188 0.0013433503 0.0018800547 10263708
-0.024615092 -6.0380251e-05 0.0018244187 11775148
-0.024812102 -0.0014645339 0.0017686283 13539480
-0.025009103 -0.0028691045 0.0017129717 13210515
-0.025206206 -0.004274094 0.0016572198 12036264
-0.025403375 -0.005679504 0.0016014294 11511976
-0.02560059 -0.0070853322 0.0015456585 11577512
-0.02579787 -0.0084915822 0.0014898488 13018533
-0.025995163 -0.00989825 0.0014341151 13019047
-0.026192576 -0.011305341 0.0013782284 6455894
-0.026390037 -0.012712851 0.0013223611 7439451
-0.026587542 -0.01412078 0.0012665131 9271901
-0.026785115 -0.015529131 0.0012106266 5208133
-0.026982732 -0.0169379 0.0011547594 5341002
-0.027180417 -0.018347094 0.0010988539 8495739
-0.027378168 -0.019756706 0.0010429097 7115873
-0.023819363 0.016911728 0.0021427381 11315882
-0.024015984 0.015511791 0.0020871188 11775405
-0.024212684 0.014111438 0.0020314623 10921381
-0.024409411 0.012710668 0.001975883 10197915
-0.024606211 0.011309478 0.0019202059 10263708
-0.02480307 0.0099078715 0.0018645492 10592673
-0.024999997 0.0085058473 0.0018088539 10921381
-0.025196968 0.0071034054 0.0017531778 10592673
-0.025394006 0.005700544 0.0016974632 10263708
-0.025591074 0.0042972639 0.0016417666 12431536
-0.025788244 0.0028935645 0.0015859747 10987174
-0.025985459 0.0014894465 0.0015302021 10197915
-0.02618272 8.491124e-05 0.0014744488 11971242
-0.026380049 -0.0013200443 0.001418657 13732747
-0.026577443 -0.0027254201 0.0013628266 13014935
-0.026774863 -0.0041312138 0.0013070734 11512747
-0.02697237 -0.0055374275 0.0012512237 10855588
-0.027169943 -0.0069440641 0.0011953355 10987174
-0.027367583 -0.0083511211 0.0011394088 11972270
-0.027565246 -0.0097585944 0.0010835592 11840684
-0.027762979 -0.011166492 0.0010276713 8883077
-0.027960777 -0.01257481 0.00097174483 4815169
-0.02815864 -0.013983549 0.00091577979 6126927
-0.028356552 -0.01539271 0.00085983425 4814913
-0.028554544 -0.016802287 0.00080385135 4027957
-0.025187725 0.018467134 0.0018490318 11052967
-0.025384651 0.017066816 0.0017933352 10921381
-0.025581624 0.015666081 0.0017376578 11250089
-0.025778644 0.014264927 0.0016819998 11118760
-0.025975728 0.012863357 0.0016263031 10658466
-0.02617288 0.011461367 0.0015705677 10592673
-0.026370082 0.010058958 0.0015147923 10592673
-0.026567345 0.008656132 0.0014590375 10658466
-0.026764654 0.0072528874 0.0014033022 10658466
-0.026962064 0.005849225 0.0013474715 10263708
-0.027159484 0.0044451435 0.0012917168 11250346
-0.027356992 0.0030406408 0.0012358655 10526880
-0.027554566 0.0016357172 0.0011799758 10197915
-0.027752167 0.0002303778 0.0011241632 11971242
-0.027949853 -0.0011753843 0.0010682541 13407637
-0.028147584 -0.0025815661 0.0010123644 12755361
-0.028345384 -0.0039881682 0.00095643621 11250089
-0.028543262 -0.0053951889 0.00090047071 10329501
-0.026754491 0.018623203 0.0014993723 10329501
-0.026951756 0.017222086 0.0014436161 10724002
-0.027149066 0.01582055 0.0013878794 12168621
-0.027346442 0.014418596 0.0013321039 12954025
-0.027543886 0.013016224 0.0012762897 12561323
-0.027741373 0.011613432 0.0012204949 12561323
-0.027938928 0.010210223 0.0011646615 12430251
-0.028136544 0.0088065956 0.0011088487 12496044
-0.02833423 0.0074025462 0.0010529381 12431279
-0.028531963 0.0059980787 0.00099704671 10263708
-0.028323077 0.018779457 0.0011493372 10197915
-0.028520679 0.017377539 0.0010935216 10658466
0.10574899 0.027413495 -0.0087010283 6665252
0.10574317 0.02739864 -0.0071620843 6863143
0.10573736 0.027383765 -0.0056248168 8176195
0.10573155 0.027368983 -0.0040891827 10471274
0.10574208 0.024604956 -0.0035608746 11256946
0.10576477 0.019788172 -0.0037707125 11259256
0.1057877 0.014919281 -0.0039827731 11259768
0.10581088 0.0099973017 -0.0041971379 12501885
0.10583431 0.0050212475 -0.0044138837 12763260
0.10585801 -9.5830637e-06 -0.0046329843 11785086
0.10588196 -0.0050962921 -0.0048545459 11654783
0.10590618 -0.0102397 -0.0050785681 12373379
0.10593068 -0.015440741 -0.0053050863 12373892
0.10595544 -0.020700524 -0.0055341907 11656576
0.10598049 -0.026019875 -0.0057658618 11199095
0.10430973 0.027417585 -0.0086953044 5218846
0.10430469 0.027402744 -0.0071566794 6468659
0.10429965 0.027387938 -0.0056197089 8635477
0.10429463 0.027373055 -0.0040844311 9814882
0.1042896 0.027358262 -0.0025507819 10142824
0.10428458 0.027343446 -0.0010187998 9618786
0.10427957 0.027328664 0.0005115369 10598756
0.10427456 0.027313914 0.0020402318 10795365
0.10427611 0.025714006 0.0029995113 9554787
0.10429083 0.020921564 0.0028257368 9753192
0.1043057 0.016077336 0.0026500868 10997621
0.10432074 0.011180504 0.0024725418 11195258
0.10433594 0.0062301969 0.0022930668 10737011
0.10435131 0.0012255416 0.0021116333 10866797
0.10436685 -0.0038343386 0.0019282149 11849593
0.10438257 -0.0089504356 0.0017427551 11850881
0.10439846 -0.014123742 0.0015552024 11785605
0.10441452 -0.019355083 0.0013655687 10868347
0.10443076 -0.024645509 0.0011737945 10279286
0.10287533 0.027436662 -0.010229493 5862193
0.10287106 0.027421741 -0.0086895525 5344303
0.1028668 0.027406912 -0.0071512475 7712079
0.10286254 0.027392007 -0.0056146365 9681767
0.10285829 0.027377192 -0.0040796562 11059315
0.10285404 0.027362356 -0.002546343 10800499
0.1028498 0.027347608 -0.0010146565 11519602
0.10284556 0.027332779 0.0005153456 11520114
0.10284132 0.02731804 0.0020437248 10213741
0.10283709 0.027303277 0.0035704474 10083693
0.10283287 0.027288541 0.0050955317 10671729
0.10282864 0.027273836 0.0066189817 9820010
0.10282443 0.027259102 0.0081407819 8180818
0.10282122 0.026814593 0.0095102638 7064895
0.10282809 0.022046303 0.0093720257 9165927
0.10283503 0.017226603 0.0092322752 12316830
0.10284206 0.012354845 0.0090910522 14742468
0.10284916 0.0074299872 0.0089482656 16512230
0.10285633 0.0024512673 0.0088039264 16644081
0.10286358 -0.0025821922 0.0086580152 16776186
0.10287091 -0.0076712691 0.0085105142 16776444
0.10287833 -0.012817015 0.0083613554 16776701
0.10288583 -0.018020313 0.0082105352 16776958
0.10289341 -0.023282101 0.0080580339 16776958
0.10143648 0.027440762 -0.010223447 11714153
0.10143299 0.027425854 -0.0086838258 13027212
0.10142951 0.027410982 -0.0071458584 9934959
0.10142603 0.027396144 -0.0056095412 10460524
0.10142255 0.027381342 -0.0040748781 10268271
0.10141907 0.027366459 -0.0025419032 10924144
0.1014156 0.027351724 -0.0010105306 11319927
0.10141214 0.027336907 0.00051915576 10539128
0.10140868 0.027322123 0.0020472007 10606712
0.10140521 0.027307425 0.0035736291 10933881
0.10140177 0.027292645 0.0050983811 10213998
0.10139831 0.027277948 0.0066215182 9034327
0.10139486 0.027263226 0.008143004 8181574
0.10139142 0.02724853 0.0096628619 8115785
0.10138798 0.027233917 0.011181111 9295200
0.10138454 0.027219217 0.012697699 10341483
0.10138111 0.027204599 0.014212683 11196030
0.10137768 0.02718995 0.015726028 13101477
0.10137643 0.023162501 0.015868731 15201998
0.10137556 0.018367192 0.015764372 16775673
0.10137469 0.013520206 0.0156589 16776187
0.1013738 0.0086206086 0.015552263 16776958
0.10137291 0.0036675823 0.015444458 16777215
0.101372 -0.0013396392 0.015335504 16777215
0.10137109 -0.0064021046 0.015225329 16777215
0.10137016 -0.011520639 0.015113944 16710908
0.10136923 -0.016696069 0.015001366 16642288
0.10136829 -0.021929564 0.014887503 16642288
0.10136733 -0.027222013 0.014772366 16709623
0.099998236 0.027444875 -0.010217397 9875799
0.099995524 0.027429979 -0.0086780936 13355151
0.099992812 0.027415117 -0.0071404423 14207123
0.099990115 0.027400292 -0.0056044441 13944213
0.09998741 0.027385447 -0.0040701176 10588780
0.099984713 0.027370634 -0.0025374377 9410401
0.099982008 0.027355796 -0.0010064237 8300121
0.099979311 0.02734099 0.00052294834 8827237
0.099976622 0.027326271 0.0020507013 10140536
0.099973932 0.027311528 0.0035767935 10405248
0.09997125 0.027296813 0.0051012528 9881974
0.099968567 0.027282072 0.0066240574 8767581
0.099965893 0.027267357 0.0081452308 8703576
0.099963218 0.027252672 0.0096647767 9556578
0.099960536 0.027238011 0.011182697 10799210
0.099957868 0.027223377 0.012698992 10668394
0.099955201 0.027208712 0.014213647 10604140
0.099952534 0.02719407 0.015726684 10605678
0.099949874 0.027179452 0.017238101 11329408
0.099947214 0.027164914 0.018747926 12906913
0.099944554 0.027150339 0.020256117 14548676
0.099941902 0.02713573 0.02176268 16777199
0.099935718 0.024270328 0.022316433 16777215
0.099927165 0.019499104 0.022246912 16777215
0.099918514 0.01467664 0.022176648 16711165
0.099909768 0.0098021124 0.022105632 16642288
0.099900931 0.0048745908 0.022033824 16709366
0.09989199 -0.00010663516 0.021961264 16710908
0.099882953 -0.0051426156 0.021887885 16776701
0.099873818 -0.010234177 0.0218137 16777215
0.099864587 -0.01538226 0.021738689 16777215
0.099855252 -0.020587752 0.021662859 16777215
0.099845804 -0.025851596 0.021586202 16776958
0.098560579 0.027448997 -0.010211344 7905860
0.098558649 0.027434113 -0.0086723575 10796401
0.098556712 0.027419209 -0.0071350471 13090182
0.09855479 0.027404396 -0.0055993646 12896648
0.098552853 0.027389562 -0.0040653558 14073484
0.098550931 0.027374759 -0.0025329918 12365951
0.098549008 0.027359933 -0.0010022918 6977100
0.098547086 0.027345195 0.00052678504 8232539
0.098545164 0.027330432 0.0020542031 8432476
0.098543249 0.027315641 0.0035799625 8762719
0.098541327 0.027300937 0.0051041078 9420904
0.098539419 0.027286205 0.0066265999 11326343
0.098537505 0.027271444 0.0081474418 12507286
0.098535597 0.027256766 0.0096666766 12898453
0.09853369 0.027242117 0.011184284 12962961
0.098531783 0.027227491 0.01270027 12961934
0.098529883 0.027212832 0.014214615 13028239
0.098527975 0.027198199 0.015727341 13029265
0.098526075 0.027183589 0.017238451 12703893
0.098524183 0.027169058 0.018747967 11591053
0.098522283 0.027154434 0.020255832 11197829
0.098520391 0.027139889 0.021762108 11919762
0.098518498 0.027125364 0.023266777 12771748
0.098516613 0.027110858 0.024769841 13886138
0.098514721 0.027096314 0.026271284 14802114
0.098512836 0.027081845 0.027771145 13818553
0.098505847 0.025369788 0.028715661 13622198
0.098489709 0.020622453 0.028680464 13622198
0.0984734 0.01582437 0.028644908 13294258
0.098456912 0.01097455 0.028608933 12769450
0.098440252 0.0060723419 0.028572593 12244387
0.098423399 0.0011168094 0.028535856 12376229
0.098406374 -0.0038928718 0.02849873 12966060
0.098389156 -0.0089576999 0.028461177 12113828
0.098371744 -0.014078561 0.028423198 11852706
0.098354146 -0.01925634 0.028384801 12181412
0.098336354 -0.024491986 0.028345983 12177569
0.097123526 0.027453132 -0.01020529 6592576
0.097122371 0.027438203 -0.008666642 8498008
0.097121209 0.027423311 -0.0071296468 11384955
0.097120054 0.02740851 -0.0055942843 10401127
0.097118907 0.027393688 -0.0040605906 11777145
0.097117752 0.02737884 -0.0025285631 12233856
0.097116597 0.027364025 -0.0009981792 9669993
0.097115442 0.027349299 0.00053058343 14275227
0.097114295 0.027334545 0.0020576874 13426070
0.097113147 0.027319709 0.0035831125 12900746
0.097112 0.027305014 0.0051069451 12768647
0.097110853 0.027290292 0.0066291243 12505731
0.097109705 0.027275654 0.0081496947 13619864
0.097108565 0.027260929 0.0096685989 13617812
0.097107425 0.027246287 0.011185897 13159312
0.097106278 0.027231555 0.012701532 12897421
0.097105145 0.027216963 0.014215587 12701067
0.097104006 0.027202338 0.015728004 12438661
0.097102873 0.027187737 0.017238805 11978363
0.097101733 0.027173154 0.018747995 11584116
0.097100593 0.027158538 0.020255553 11781240
0.097099461 0.027144 0.02176152 11715449
0.097098328 0.027129481 0.023265883 11715448
0.097097203 0.027114926 0.024768623 12304518
0.097096063 0.027100444 0.026269779 13738619
0.097094938 0.027085925 0.027769316 12301950
0.097093806 0.027071476 0.029267276 12629631
0.097072393 0.022801051 0.02938327 10727525
0.097048312 0.017974921 0.029334294 9543757
0.097023971 0.013096382 0.02928479 8951108
0.096999362 0.008164498 0.029234722 8621887
0.096974485 0.0031784461 0.029184101 11581299
0.096949339 -0.0018626575 0.029132923 13092491
0.096923903 -0.0069596423 0.029081203 11322739
0.096898183 -0.012113565 0.029028896 11456117
0.096872181 -0.017325372 0.028975995 12507008
0.096845888 -0.022596011 0.0289225 13359757
0.095687456 0.027472114 -0.011739257 6132555
0.095687069 0.02745722 -0.010199254 5607744
0.095686689 0.027442306 -0.0086609246 6922063
0.095686309 0.027427426 -0.0071242456 9677681
0.095685922 0.02741258 -0.0055892211 7838033
0.095685542 0.027397769 -0.0040558437 8557139
0.095685162 0.02738299 -0.0025241112 10921340
0.095684774 0.027368128 -0.00099406193 9143906
0.095684402 0.027353413 0.00053438504 15252100
0.095684022 0.027338613 0.0020611542 14795916
0.095683642 0.0273239 0.0035863074 13422716
0.095683262 0.027309159 0.0051098075 12962418
0.095682882 0.027294446 0.0066316742 12896371
0.095682502 0.027279703 0.0081518926 12961910
0.095682122 0.027265044 0.0096705044 12435812
0.095681749 0.027250355 0.011187471 11975511
0.095681369 0.027235746 0.012702837 11975254
0.095680997 0.027221104 0.014216563 11843925
0.095680617 0.027206486 0.015728669 12303974
0.095680244 0.027191835 0.017239144 13613949
0.095679864 0.027177261 0.018748024 13807994
0.095679492 0.02716271 0.020255294 13937529
0.095679112 0.02714812 0.021760937 14133111
0.095678739 0.027133608 0.023264993 12762741
0.095678367 0.027119059 0.024767427 12368753
0.095677994 0.027104583 0.026268277 13350009
0.095677622 0.027090069 0.027767511 13350264
0.095674016 0.026580432 0.029103633 13869168
0.095642522 0.021795535 0.02905336 12626800
0.095610686 0.01695892 0.029002549 12430448
0.095578499 0.012069646 0.028951164 11118427
0.09554597 0.0071269516 0.028899228 10592834
0.095513076 0.0021299531 0.02884673 12435798
0.095479824 -0.0029222888 0.028793646 13028445
0.095446192 -0.0080307191 0.028739963 12962660
0.095412195 -0.013196167 0.028685702 13225324
0.09537781 -0.018419748 0.028630808 13816694
0.095343038 -0.023702417 0.028575279 13881979
0.094250813 0.027476201 -0.0117329 8298340
0.094251208 0.02746132 -0.010193213 7249500
0.094251595 0.027446363 -0.0086552249 5936717
0.09425199 0.027431551 -0.007118843 6130765
0.094252385 0.027416717 -0.0055841343 5865031
0.094252773 0.027401861 -0.004051093 6980948
0.094253168 0.027387036 -0.0025196972 9280616
0.094253555 0.027372243 -0.00098994316 7829838
0.094253942 0.02735748 0.00053817051 14534785
0.09425433 0.027342748 0.0020646441 14526835
0.094254717 0.027327988 0.0035894646 13744504
0.094255105 0.027313257 0.0051126499 13677941
0.0942555 0.027298555 0.006634206 13806706
0.094255887 0.027283821 0.0081541128 14000233
0.094256274 0.027269114 0.0096723931 12368227
0.094256662 0.027254546 0.01118909 11514696
0.094257049 0.027239889 0.012704126 11777617
0.094257429 0.027225198 0.014217521 11974745
0.094257817 0.027210589 0.015729319 12695402
0.094258197 0.027196001 0.017239505 13935212
0.094258584 0.027181378 0.018748058 12957807
0.094258972 0.027166832 0.02025502 11843161
0.094259351 0.027152251 0.021760358 11514447
0.094259731 0.027137687 0.023264088 11054144
0.094260126 0.027123202 0.024766235 10791228
0.094260506 0.027108675 0.026266763 10593592
0.094260886 0.027094165 0.027765691 10988102
0.094248876 0.025583224 0.028774874 12496744
0.094209671 0.020787913 0.028722757 12430440
0.094170049 0.015940806 0.028670115 12037731
0.094129987 0.011040794 0.028616851 11053642
0.094089493 0.0060872831 0.028563047 11449149
0.094048552 0.001079219 0.028508635 13224801
0.094007164 -0.0039842241 0.028453631 14268531
0.093965307 -0.0091041047 0.028397985 14067562
0.09392298 -0.014281197 0.028341739 14329451
0.093880184 -0.019516561 0.028284853 14464371
0.093836896 -0.024811147 0.028227329 14073205
0.092814773 0.027480358 -0.011726519 8036192
0.092815936 0.027465377 -0.010187193 9870444
0.092817113 0.027450487 -0.008649501 6459732
0.092818275 0.027435631 -0.0071134577 4748862
0.09281943 0.027420808 -0.0055790651 4943696
0.0928206 0.027405964 -0.0040463414 6326366
0.092821762 0.027391151 -0.0025152599 6589003
0.092822917 0.027376369 -0.00098582183 5135399
0.092824079 0.027361616 0.00054197793 11584096
0.092825241 0.027346894 0.0020681391 11973739
0.092826396 0.027332144 0.0035926453 11513957
0.092827544 0.027317366 0.0051154974 11054685
0.092828706 0.027302673 0.0066367411 10464083
0.092829853 0.027287947 0.0081563359 11970404
0.092831008 0.027273307 0.0096743247 12688226
0.092832156 0.027258633 0.011190671 12754277
0.092833303 0.027243985 0.012705397 13145443
0.09283445 0.027229359 0.014218504 12688999
0.092835605 0.0272147 0.015729975 12297318
0.092836745 0.02720012 0.017239852 11578211
0.092837885 0.027185503 0.018748097 9938503
0.092839032 0.027170965 0.020254752 9872712
0.092840172 0.02715639 0.021759782 11184991
0.092841312 0.02714189 0.023263225 10266447
0.092842452 0.027127352 0.024765046 8755245
0.092843592 0.027112832 0.026265269 8492072
0.092844732 0.027098328 0.027763894 8359976
0.092820771 0.024583852 0.028445402 8162855
0.09277384 0.019778239 0.028391484 8163111
0.092726387 0.014920522 0.028336972 8952632
0.092678428 0.010009822 0.028281851 10267214
0.092629939 0.0050453767 0.028226141 11187802
0.092580907 2.6241647e-05 0.028169818 11909731
0.092531346 -0.0050485218 0.02811286 11055959
0.092481218 -0.010179802 0.028055271 9742145
0.092430547 -0.015368543 0.027997041 9677885
0.092379294 -0.020615693 0.027938167 9547576
0.092327461 -0.025922317 0.027878614 9218871
0.09137933 0.027484469 -0.011720155 5409860
0.091381274 0.027469499 -0.010181149 8756327
0.091383211 0.027454622 -0.0086437734 6391376
0.091385148 0.027439779 -0.0071080495 5600845
0.091387078 0.027424967 -0.0055739726 5799767
0.091389015 0.027410077 -0.0040415851 6394462
0.091390945 0.027395274 -0.0025108196 5408072
0.091392875 0.027380504 -0.00098169758 3165217
0.091394804 0.027365705 0.00054576749 4884016
0.091396734 0.027350936 0.0020715941 4225065
0.091398656 0.027336197 0.0035957876 3896100
0.091400579 0.027321486 0.0051183482 3895586
0.091402501 0.027306801 0.006639279 3895329
0.091404416 0.027292028 0.0081585431 5932096
0.09140633 0.027277395 0.0096762218 6588745
0.091408238 0.027262731 0.011192258 5866815
0.091410145 0.02724809 0.012706672 5078582
0.09141206 0.027233416 0.01421945 4421674
0.091413967 0.027218878 0.015730651 3830047
0.091415875 0.027204247 0.0172402 3829792
0.091417775 0.027189638 0.018748138 4223781
0.091419674 0.027175106 0.020254485 6720074
0.091421574 0.027160538 0.021759208 8360282
0.091423474 0.027145987 0.023262328 7638612
0.091425367 0.027131455 0.024763845 6456900
0.091427259 0.027116939 0.026263762 4485927
0.091429152 0.027102441 0.027762081 3894303
0.091389701 0.02358249 0.028115273 3894303
0.091334991 0.018766338 0.028059479 3960352
0.091279693 0.013898063 0.028003121 7638869
0.091223791 0.0089766169 0.027946124 10063969
0.091167279 0.0040012877 0.027888531 9541217
0.091110133 -0.0010289794 0.02783028 7706707
0.091052361 -0.0061150109 0.027771387 4751145
0.090993941 -0.01125781 0.027711822 4159776
0.090934865 -0.016458206 0.027651608 4357923
0.090875126 -0.021717262 0.027590711 4686888
0.09081471 -0.027035929 0.027529132 8691297
0.089944474 0.027488533 -0.011713814 4095803
0.089947186 0.027473634 -0.010175103 5998416
0.089949906 0.027458712 -0.0086380662 5272645
0.089952618 0.027443824 -0.0071026804 8357225
0.089955315 0.027429024 -0.0055689192 8493421
0.08995802 0.027414201 -0.0040368279 7576674
0.089960732 0.027399354 -0.0025063984 5669702
0.089963429 0.027384592 -0.00097758882 3365411
0.089966118 0.027369862 0.00054958044 4620844
0.089968815 0.027355047 0.002075074 4093222
0.089971505 0.027340317 0.0035989531 4092967
0.089974195 0.027325613 0.0051212008 3961383
0.089976877 0.027310882 0.0066418005 3764001
0.089979559 0.027296176 0.0081607727 3829536
0.089982234 0.027281495 0.0096781198 3829536
0.089984909 0.027266838 0.011193844 3764256
0.089987576 0.027252205 0.012707951 3633184
0.089990251 0.027237596 0.014220439 3501855
0.089992918 0.027222952 0.015731294 3632671
0.089995578 0.027208328 0.017240534 3632927
0.089998245 0.027193727 0.018748164 3567390
0.090000905 0.027179202 0.020254206 3567390
0.090003558 0.027164638 0.021758622 3763999
0.09000621 0.027150095 0.023261433 6260549
0.090008862 0.027135568 0.024762645 7244625
0.090011507 0.027121058 0.026262259 7113297
0.090014152 0.027106564 0.027760275 7769690
0.089955658 0.022578962 0.027784429 5340474
0.089893155 0.017752441 0.027726818 3829792
0.089829959 0.012873433 0.027668558 4290600
0.089766078 0.0079412321 0.027609689 4291365
